-0.0327049761 0.0488009028 0.3339999914
-0.0299840443 0.0414148355 0.2039999962
-0.0006245813 0.0500000007 0.2813662448
-0.0914639627 0.0500000007 0.2581533950
-0.0025986764 0.0500000007 0.2587219825
-0.0341559061 0.0500000007 0.3119303293
-0.0607328519 0.0500000007 0.2239196797
-0.0585730280 0.0500000007 0.2080848670
-0.0659732554 0.0500000007 0.3327174933
-0.0257352995 0.0500000007 0.2210599920
-0.0308050557 0.0500000007 0.2264875419
-0.0054935089 0.0399999991 0.2378366328
-0.0916658987 0.0399999991 0.2747587037
0.0002359863 0.0399999991 0.2524004423
-0.0314580377 0.0399999991 0.2234551280
-0.0687164095 0.0399999991 0.3123028417
-0.0644362833 0.0399999991 0.2266543078
-0.0259641993 0.0399999991 0.2171700582
-0.0634794153 0.0399999991 0.2233982968
-0.0426721604 0.0399999991 0.3202727193
-0.0762664034 0.0399999991 0.3204869067
-0.0216744260 0.0400951271 0.3065337055
-0.0894850070 0.0480817084 0.2637712050
-0.0433607155 0.0459845817 0.3083460873
-0.0118470276 0.0477963500 0.2576412391
-0.0348159652 0.0445329645 0.2145528557
-0.0750289612 0.0455120581 0.3277579326
-0.0100000007 0.0479690586 0.3289466184
-0.0043472192 0.0476279118 0.2994193871
-0.1042791190 0.0468898297 0.2611754127
-0.0890545277 0.0460770965 0.2080545351
-0.0648051472 -0.0487516275 0.2039999962
-0.0594007507 -0.0432885382 0.3339999914
-0.0069507388 -0.0500000007 0.2645761312
-0.0985188924 -0.0500000007 0.2494848460
-0.0083660898 -0.0500000007 0.2489017916
-0.0823342099 -0.0500000007 0.2446702284
-0.0152463258 -0.0500000007 0.3009547625
-0.0822542651 -0.0500000007 0.2233243394
-0.0532896770 -0.0500000007 0.2128187058
-0.0161616789 -0.0500000007 0.3325230797
-0.0875724624 -0.0500000007 0.2194997525
-0.0839517863 -0.0399999991 0.2967483309
-0.0906842950 -0.0399999991 0.2704052102
-0.0051625800 -0.0399999991 0.2602735491
-0.0084960283 -0.0399999991 0.2650637799
-0.0204972167 -0.0399999991 0.2412348669
-0.0802280033 -0.0399999991 0.2376424322
-0.0396312518 -0.0399999991 0.3268070821
-0.0269953473 -0.0399999991 0.2188162158
-0.0537340958 -0.0399999991 0.2160052174
-0.0807441340 -0.0399999991 0.3200738404
-0.0109813516 -0.0486954401 0.2942305142
-0.0854943597 -0.0434179476 0.2870403406
-0.0604890205 -0.0430209840 0.2305831980
-0.0102645023 -0.0401436215 0.2663144557
-0.0329734825 -0.0402541365 0.3272185900
-0.0713063349 -0.0420535433 0.2149499610
-0.0290560612 -0.0465986153 0.2172470725
0.0020545595 -0.0498255603 0.2517415873
-0.1041007747 -0.0481219978 0.2600267697
-0.0899999961 -0.0429054654 0.3115411447
-0.0096275139 -0.0441309222 0.2295948162
-0.0899999961 -0.0324338395 0.1564030575
-0.0899999961 -0.0350862071 0.1972591155
-0.0899999961 -0.0286784081 0.3576637940
-0.0899999961 -0.0304071994 0.1942169537
-0.0899999961 -0.0259400257 0.2765054617
-0.0894029688 -0.0386951062 0.3429885618
-0.0876501495 -0.0398257927 0.2656381303
-0.0768856883 -0.0399999991 0.2107552707
-0.0801017715 -0.0399999991 0.3181201061
-0.0807527075 -0.0399999991 0.2193709239
-0.0850993073 -0.0399999991 0.1926637070
-0.0859879545 -0.0399999991 0.3035052935
-0.0750000030 -0.0346161016 0.3726217634
-0.0750000030 -0.0379819629 0.2762019297
-0.0782441227 -0.0344999991 0.1337645275
-0.0774575946 -0.0344999991 0.2634870315
-0.0799999982 -0.0317764818 0.3442717927
-0.0794096898 -0.0311774957 0.2917041216
-0.0780282329 -0.0297960389 0.3305245967
-0.0761075548 -0.0278753574 0.3593151558
-0.0707743528 -0.0274999999 0.1502830487
-0.0750338390 -0.0274999999 0.2696278370
-0.0703635657 -0.0274099028 0.2367492198
-0.0660985597 -0.0274999999 0.3762677979
-0.0678163742 -0.0274999999 0.1236161752
-0.0616245043 -0.0301432679 0.2206958245
-0.0632965788 -0.0284711963 0.1481362073
-0.0630178529 -0.0287499216 0.2994522285
-0.0599999987 -0.0322155259 0.0999072571
-0.0641704881 -0.0344999991 0.2926782601
-0.0603516617 -0.0344999991 0.1674895915
-0.0649999976 -0.0386036542 0.3926253214
-0.0649999976 -0.0356646155 0.2362575316
-0.0392159820 -0.0399999991 0.1583939751
-0.0448899571 -0.0399999991 0.1040037690
-0.0363343624 -0.0399999991 0.3243759919
-0.0482117227 -0.0399999991 0.1692576305
-0.0496744358 -0.0399999991 0.3795855309
-0.0447145312 -0.0399999991 0.3337736482
-0.0465188504 -0.0399999991 0.3753359395
-0.0568856198 -0.0399999991 0.1650191243
-0.0581855852 -0.0399999991 0.1646865346
-0.0545931714 -0.0399999991 0.2098214125
-0.0526251581 -0.0399999991 0.3836179773
-0.0638666102 -0.0399999991 0.2416305641
-0.0597481096 -0.0399999991 0.3833037836
-0.0350000001 -0.0354624423 0.1801019497
-0.0350000001 -0.0377545226 0.0995358826
-0.0396260472 -0.0344999991 0.2247571795
-0.0358772598 -0.0344999991 0.2325341369
-0.0399999991 -0.0321690924 0.2334825392
-0.0399999991 -0.0330765105 0.1152012630
-0.0358339264 -0.0276017052 0.2371245612
-0.0386635091 -0.0304312830 0.1574288793
-0.0310704688 -0.0274999999 0.3120915306
-0.0347100589 -0.0274999999 0.2873485644
-0.0300431734 -0.0272249251 0.2933840950
-0.0257327557 -0.0274999999 0.2230112207
-0.0270106991 -0.0274999999 0.2282506047
-0.0208940934 -0.0308737114 0.2331781868
-0.0206234430 -0.0311443621 0.3730246699
-0.0234394383 -0.0283283654 0.2198453867
-0.0200000014 -0.0321783075 0.3451627369
-0.0244174985 -0.0344999991 0.3572864865
-0.0214964061 -0.0344999991 0.1330779917
-0.0250000004 -0.0393419276 0.3546173005
-0.0250000004 -0.0373235437 0.1958360149
-0.0134824648 -0.0399999991 0.3293246277
-0.0130640552 -0.0399999991 0.3195593340
-0.0221669864 -0.0399999991 0.3718127633
-0.0159164472 -0.0399999991 0.3496237892
-0.0232971860 -0.0399999991 0.1880968766
-0.0121926877 -0.0397836817 0.1317692825
-0.0109868289 -0.0390849064 0.3216142486
-0.0100000007 -0.0264075802 0.2407965910
-0.0100000007 -0.0315245923 0.2283985951
-0.0100000007 -0.0315995926 0.2247325930
-0.0100000007 -0.0301143289 0.3736982188
-0.0100000007 -0.0367894795 0.3618168722
-0.0100373234 -0.0251607083 0.3368308377
-0.0130448837 -0.0250000004 0.3957463793
-0.0103906329 -0.0250000004 0.1170874153
-0.0155000007 -0.0285425701 0.2902089823
-0.0155000007 -0.0258824447 0.2617246589
-0.0182139684 -0.0299999993 0.2958040843
-0.0190665937 -0.0291656876 0.3156405285
-0.0202476320 -0.0279846436 0.2221463813
-0.0215735495 -0.0266587192 0.2055850376
-0.0225000009 -0.0228198758 0.3407675007
-0.0225000009 -0.0251091721 0.1174900914
-0.0226711096 -0.0197767533 0.1060642000
-0.0225000009 -0.0145549554 0.3790987786
-0.0225000009 -0.0171445452 0.1173944991
-0.0189214906 -0.0106892182 0.2962617541
-0.0220742337 -0.0138419737 0.2513601588
-0.0159037724 -0.0099999998 0.1821565198
-0.0155000007 -0.0122189211 0.3801675624
-0.0155000007 -0.0139673868 0.3081260683
-0.0155000007 -0.0115486333 0.2040395242
-0.0134044698 -0.0149999997 0.1945747817
-0.0151815835 -0.0149999997 0.2974526985
-0.0100000007 0.0066976279 0.1321945282
-0.0100000007 0.0137938084 0.2936109046
-0.0100000007 0.0122327033 0.2913755164
-0.0100000007 0.0043115268 0.3741426794
-0.0100000007 0.0057746252 0.2247006774
-0.0100000007 0.0001561933 0.1275285542
-0.0100000007 -0.0041845219 0.1222002646
-0.0100000007 -0.0101120957 0.1801869505
-0.0100000007 -0.0048351715 0.2094983756
-0.0100000007 -0.0076344142 0.3798578308
-0.0100000007 -0.0068830717 0.2911607443
-0.0100000007 -0.0125074103 0.3048237178
-0.0100000007 -0.0054876511 0.3217825926
-0.0146995004 0.0149999997 0.1378821759
-0.0117836459 0.0149999997 0.2465486363
-0.0155000007 0.0116106292 0.3796106000
-0.0155000007 0.0117986961 0.1434434432
-0.0181580349 0.0099999998 0.3150283634
-0.0222546040 0.0140223448 0.3288357371
-0.0188766033 0.0106443308 0.3717410899
-0.0197135128 0.0114812435 0.2011835907
-0.0225000009 0.0183537311 0.2343296025
-0.0225000009 0.0186227668 0.1112576786
-0.0227601655 0.0200690006 0.3954340735
-0.0225000009 0.0235119878 0.3592114665
-0.0225000009 0.0220337545 0.1078507653
-0.0221713174 0.0260609481 0.1957785642
-0.0189672153 0.0292650664 0.3655994024
-0.0155082131 0.0299999993 0.2797929183
-0.0162965969 0.0299999993 0.1772030820
-0.0155000007 0.0275910304 0.3367984723
-0.0155000007 0.0287698247 0.3883569940
-0.0118212266 0.0250000004 0.3539153590
-0.0139149686 0.0250000004 0.2642189661
-0.0100000007 0.0345725459 0.2195676847
-0.0100000007 0.0312665278 0.1318332580
-0.0100000007 0.0298775075 0.3176923046
-0.0100000007 0.0342438185 0.3321494874
-0.0100000007 0.0276592527 0.1839147977
-0.0100280419 0.0371046522 0.3097507848
-0.0114080354 0.0395061129 0.2667116854
-0.0235828737 0.0399999991 0.1732468119
-0.0220771897 0.0399999991 0.3122017369
-0.0168379173 0.0399999991 0.1503068534
-0.0159033831 0.0399999991 0.2820119355
-0.0199599556 0.0399999991 0.3952331952
-0.0250000004 0.0345907894 0.2731652344
-0.0250000004 0.0374450955 0.2650511536
-0.0250000004 0.0390694049 0.3675033510
-0.0213409876 0.0344999991 0.2800143300
-0.0227525997 0.0344999991 0.3666359140
-0.0200000014 0.0340267412 0.2516010779
-0.0227632026 0.0290046012 0.1154656097
-0.0212422344 0.0305255702 0.2372570461
-0.0288753995 0.0274999999 0.2365915034
-0.0270043315 0.0274999999 0.2827440527
-0.0243494916 0.0274999999 0.2860576017
-0.0348733855 0.0274999999 0.2582776042
-0.0322390620 0.0274999999 0.1106084157
-0.0386617935 0.0304295674 0.3399135023
-0.0396332206 0.0314009928 0.1732973755
-0.0385150829 0.0302828570 0.1771682028
-0.0399999991 0.0338336173 0.3278382262
-0.0380303895 0.0344999991 0.2965619625
-0.0381033744 0.0344999991 0.1135056351
-0.0350000001 0.0392848047 0.1353338425
-0.0350000001 0.0373067344 0.1664146999
-0.0350000001 0.0350921332 0.2688696507
-0.0580927580 0.0399999991 0.2307365829
-0.0576114707 0.0399999991 0.1166205876
-0.0582613505 0.0399999991 0.1445550166
-0.0587472276 0.0399999991 0.3215676939
-0.0552297091 0.0399999991 0.3201862259
-0.0584677623 0.0399999991 0.2751734726
-0.0492522646 0.0399999991 0.1984752779
-0.0412300120 0.0399999991 0.1714341211
-0.0422747441 0.0399999991 0.1749847340
-0.0382887190 0.0399999991 0.2986898811
-0.0434372491 0.0399999991 0.2825246676
-0.0486615138 0.0399999991 0.3919780800
-0.0649652784 0.0398295871 0.3563220164
-0.0649999976 0.0368216583 0.2135985611
-0.0649999976 0.0393197001 0.2372752426
-0.0635906122 0.0344999991 0.3170964241
-0.0649246171 0.0344999991 0.3859432839
-0.0599999987 0.0343425154 0.1803786722
-0.0640312927 0.0277364837 0.2565107507
-0.0635727374 0.0281950382 0.1162903582
-0.0618178242 0.0299499483 0.1036623130
-0.0692695364 0.0274999999 0.2869605799
-0.0664862603 0.0274999999 0.1170873196
-0.0739061252 0.0274999999 0.2883387734
-0.0742087499 0.0274999999 0.2990926733
-0.0706657760 0.0274999999 0.1292401018
-0.0771749011 0.0289427060 0.1511391143
-0.0781644260 0.0299322320 0.2364234469
-0.0799999982 0.0343488227 0.2990824480
-0.0756447270 0.0344999991 0.2654351766
-0.0759132604 0.0344999991 0.3015184854
-0.0789023367 0.0344999991 0.3221112652
-0.0750000030 0.0373959921 0.2780285332
-0.0750000030 0.0346989153 0.2936928394
-0.0861687102 0.0399999991 0.0988617607
-0.0862314926 0.0399999991 0.3225695758
-0.0800075179 0.0399999991 0.2594925039
-0.0825365060 0.0399999991 0.3532906324
-0.0759234653 0.0399999991 0.2409599849
-0.0884789142 0.0396037276 0.3488463042
-0.0898545900 0.0375426665 0.1110659290
-0.0899999961 0.0271982930 0.2971480569
-0.0899999961 0.0279179531 0.3325760452
-0.0899999961 0.0325376179 0.2296244147
-0.0899999961 0.0312883241 0.3966682942
-0.0899999961 0.0324979120 0.3674443178
-0.0860932111 0.0250000004 0.2237237642
-0.0873829635 0.0250000004 0.3805842107
-0.0844999999 0.0294670286 0.2003753469
-0.0844999999 0.0264612108 0.1817574495
-0.0825382501 0.0299999993 0.2978276691
-0.0827178254 0.0299999993 0.1313097848
-0.0785612236 0.0267934924 0.2587505305
-0.0795511353 0.0277834065 0.1893404459
-0.0775000006 0.0227291477 0.3563918863
-0.0775000006 0.0244300848 0.1190755973
-0.0772918662 0.0201591238 0.2613748965
-0.0775000006 0.0153336438 0.3129760462
-0.0775000006 0.0162586046 0.1741226400
-0.0796119025 0.0121558306 0.3122726486
-0.0776943525 0.0140733898 0.1327921772
-0.0789557001 0.0128120362 0.1933543141
-0.0826175662 0.0099999998 0.2665828368
-0.0844999999 0.0123215055 0.3609005137
-0.0844999999 0.0107715017 0.2190179915
-0.0888506355 0.0149999997 0.2678554649
-0.0861196590 0.0149999997 0.1793633374
-0.0899627028 0.0148391941 0.3973564443
-0.0899999961 -0.0111889326 0.2707794910
-0.0899999961 -0.0086088570 0.1079771753
-0.0899999961 -0.0114038040 0.1975617901
-0.0899999961 -0.0012789339 0.3366955830
-0.0899999961 -0.0006940249 0.2953184539
-0.0899999961 -0.0064271810 0.3288403353
-0.0899999961 0.0040122490 0.2470940439
-0.0899999961 0.0077724852 0.1825481238
-0.0899999961 0.0053670113 0.2604152397
-0.0899999961 0.0146562140 0.1561451129
-0.0899999961 0.0140862877 0.2988304133
-0.0899999961 0.0058631238 0.3439343322
-0.0868357619 -0.0149999997 0.1077035442
-0.0869531972 -0.0149999997 0.1990630118
-0.0844999999 -0.0103361995 0.3322348126
-0.0844999999 -0.0106352887 0.3919360621
-0.0844999999 -0.0125525899 0.1177443997
-0.0829250287 -0.0099999998 0.1700135399
-0.0785137521 -0.0132539863 0.2982044348
-0.0816299302 -0.0101377932 0.1151919019
-0.0775000006 -0.0189980755 0.3570140769
-0.0775000006 -0.0145578150 0.1600634436
-0.0775000006 -0.0170829440 0.1304256991
-0.0775000006 -0.0255027979 0.2807621985
-0.0775000006 -0.0252396392 0.1237933581
-0.0810755687 -0.0293078486 0.2437839734
-0.0794784971 -0.0277107679 0.1912237054
-0.0789200287 -0.0271522983 0.3820639264
-0.0835221942 -0.0299999993 0.2989949049
-0.0844999999 -0.0268621098 0.1050033793
-0.0844999999 -0.0277288323 0.1890878548
-0.0890785040 -0.0250000004 0.2110326457
-0.0876571937 -0.0250000004 0.2349453884
-0.0241859362 0.0390137654 0.3980000019
-0.0464555895 0.0391200776 0.3980000019
-0.0199639317 -0.0314761892 0.3980000019
-0.0425226750 -0.0393143545 0.0979999974
-0.0144802350 0.0251187224 0.0979999974
-0.0879758813 0.0370900099 0.2812207782
-0.0879999995 0.0361813580 0.1855397714
-0.0879999995 0.0348790457 0.1435060499
-0.0879397255 0.0327750566 0.1731846180
-0.0840855911 0.0320000015 0.2979501660
-0.0821428212 0.0324911488 0.1604864015
-0.0820000023 0.0341990732 0.2050243895
-0.0820000023 0.0367763783 0.3808863213
-0.0831614476 0.0379999988 0.1196786108
-0.0865694667 0.0379999988 0.1001219095
-0.0867471883 0.0074337968 0.3708828693
-0.0874999985 0.0023885199 0.1716030460
-0.0874999985 0.0035830845 0.3367620884
-0.0874999985 -0.0013082071 0.2575194661
-0.0874999985 -0.0000151148 0.1252683158
-0.0874999985 -0.0052994862 0.2119550292
-0.0870638138 -0.0073022405 0.3087450054
-0.0863883933 -0.0075000315 0.3338291057
-0.0814637714 -0.0075000315 0.1269900139
-0.0794122929 -0.0088199321 0.2747292364
-0.0776071339 -0.0106250923 0.3388614225
-0.0787922506 -0.0094399749 0.1440241337
-0.0765713446 -0.0116608824 0.2549609726
-0.0719671849 -0.0140000004 0.3810241318
-0.0702822239 -0.0140000004 0.1910734146
-0.0643240429 -0.0187908825 0.2663010345
-0.0655662054 -0.0162377020 0.1695896657
-0.0665640552 -0.0152398530 0.2186374158
-0.0692271014 -0.0142071139 0.2046712792
-0.0640000626 -0.0209209327 0.3289434433
-0.0640000626 -0.0213214581 0.1118771266
-0.0610061295 -0.0272261281 0.3540236159
-0.0627977067 -0.0254345524 0.2265707304
-0.0591561300 -0.0290761258 0.1965590196
-0.0614400318 -0.0267922261 0.1368062382
-0.0575000010 -0.0332174278 0.2175521745
-0.0575000010 -0.0342142743 0.1319197991
-0.0571390110 -0.0372270142 0.2375768943
-0.0525752001 -0.0375000015 0.1102584425
-0.0553420509 -0.0375000015 0.3529442338
-0.0538438759 -0.0375000015 0.2937936050
-0.0463014401 -0.0375000015 0.2240619384
-0.0468142765 -0.0375000015 0.3386886541
-0.0425355689 -0.0366788183 0.2930411196
-0.0425000004 -0.0360292836 0.1603295484
-0.0425000004 -0.0330959502 0.1179634728
-0.0422624080 -0.0305221248 0.3739283891
-0.0408311966 -0.0290634510 0.3202901831
-0.0408240928 -0.0290563472 0.2010755345
-0.0369349220 -0.0251671798 0.2297649670
-0.0359999388 -0.0227512147 0.3708356331
-0.0359999388 -0.0211352572 0.2214150000
-0.0306819691 -0.0141356645 0.1017752804
-0.0326936481 -0.0147223964 0.3136952478
-0.0352472185 -0.0172609051 0.1017093081
-0.0355515178 -0.0177456252 0.2488890693
-0.0296699016 -0.0140000004 0.2300236911
-0.0272182974 -0.0140000004 0.2391629673
-0.0244007031 -0.0126329277 0.1739402533
-0.0209289663 -0.0091611897 0.3973722376
-0.0197770491 -0.0080092721 0.1924382838
-0.0228269918 -0.0110592158 0.2366155751
-0.0188200079 -0.0075000315 0.3739563230
-0.0143964171 -0.0075000315 0.1716445305
-0.0125315720 -0.0066587589 0.2908164953
-0.0124999983 -0.0038668054 0.1789567476
-0.0124999983 -0.0045389907 0.2501168481
-0.0124999983 -0.0028858373 0.3432367393
-0.0124999983 0.0004420539 0.1650962530
-0.0124999983 0.0052429289 0.1835771860
-0.0124999983 0.0032861766 0.3325622911
-0.0149687829 0.0075000315 0.2246494369
-0.0151942119 0.0075000315 0.3788238517
-0.0148589644 0.0075000315 0.1540228370
-0.0229009261 0.0111331502 0.3823743038
-0.0209365261 0.0091687494 0.2316859853
-0.0220218837 0.0102541075 0.1762551930
-0.0248540288 0.0130862537 0.1841356807
-0.0275102052 0.0140000004 0.2442023683
-0.0264469877 0.0140000004 0.1433866709
-0.0358707094 0.0193503166 0.3570120988
-0.0344130060 0.0160124178 0.1457228022
-0.0329271342 0.0148784067 0.3624801906
-0.0304185572 0.0140832686 0.2866113325
-0.0359999388 0.0232475372 0.1218305310
-0.0387215148 0.0269537711 0.3020354291
-0.0393451775 0.0275774332 0.3081528160
-0.0421224591 0.0303547123 0.1357868172
-0.0384567034 0.0266889599 0.1355064119
-0.0425000004 0.0312599014 0.3489818226
-0.0425000004 0.0335570037 0.2573333499
-0.0425000004 0.0330594739 0.1385783329
-0.0455061285 0.0375000015 0.1521756655
-0.0440752567 0.0375000015 0.3213238369
-0.0481397361 0.0375000015 0.3051838081
-0.0506580042 0.0375000015 0.2187143994
-0.0539492338 0.0375000015 0.1553252700
-0.0553661030 0.0375000015 0.2777775270
-0.0566897615 0.0374491542 0.3542214744
-0.0575000010 0.0360076008 0.2900699161
-0.0575000010 0.0337367887 0.2066596499
-0.0636494647 0.0245827951 0.3843474167
-0.0590883950 0.0291438608 0.3299309601
-0.0615990289 0.0266332291 0.2374196345
-0.0629285628 0.0253036964 0.1800997192
-0.0640000626 0.0237278110 0.1392425829
-0.0640000626 0.0200054284 0.2888884225
-0.0693620082 0.0141709658 0.3549504270
-0.0667334820 0.0150704263 0.1865234579
-0.0646977574 0.0173961539 0.3104965891
-0.0640275974 0.0198972379 0.3293832590
-0.0702631515 0.0140000004 0.2492166093
-0.0735340453 0.0140000004 0.2324370740
-0.0755875445 0.0126446831 0.3091815682
-0.0769725007 0.0112597260 0.1322719952
-0.0802403649 0.0079918596 0.1969435346
-0.0808205616 0.0075648457 0.1845771228
-0.0834740714 0.0075000315 0.2689359906
-0.0827289562 0.0075000315 0.1524108808
-0.0179321872 -0.0372530828 0.2899277043
-0.0169750904 -0.0379999988 0.2338127616
-0.0121283858 -0.0374791469 0.1707053308
-0.0120000010 -0.0356971680 0.2712582340
-0.0120000010 -0.0360951650 0.1587995867
-0.0138414471 -0.0320000015 0.2259502598
-0.0149759857 -0.0320000015 0.1033387568
-0.0177401272 -0.0323740994 0.1397144449
-0.0179999992 -0.0351200634 0.3161773622
-0.0331728739 -0.0191523571 0.2917066093
-0.0326722694 -0.0180277841 0.2026638353
-0.0300114891 -0.0166030779 0.1083336755
-0.0280410878 -0.0173144263 0.3387264743
-0.0269083418 -0.0188492581 0.2161575952
-0.0269951719 -0.0214747970 0.2502253085
-0.0276894035 -0.0223338889 0.1013914947
-0.0304173909 -0.0232881601 0.2837242180
-0.0326184269 -0.0220260590 0.1305947234
-0.0333934623 -0.0200243954 0.2285817038
-0.0721208331 -0.0174763478 0.3132817093
-0.0708946835 -0.0168397295 0.1988268398
-0.0686411762 -0.0169640957 0.1533638952
-0.0668800497 -0.0189548493 0.2803943380
-0.0670218259 -0.0215742675 0.2949284679
-0.0681727088 -0.0228171932 0.1876592548
-0.0706024089 -0.0232385844 0.3941544939
-0.0721353824 -0.0225091027 0.1877427900
-0.0733765119 -0.0200876519 0.2392226807
-0.0722467643 0.0223977208 0.3928120572
-0.0707170867 0.0232078565 0.1980726949
-0.0691050623 0.0231602013 0.1313930486
-0.0669517303 0.0213126668 0.3838848334
-0.0668590940 0.0190330569 0.1312761593
-0.0681942377 0.0171612771 0.3684788461
-0.0708475566 0.0168271019 0.2944302522
-0.0722790613 0.0176345763 0.1469940115
-0.0731957594 0.0192377702 0.1600002006
-0.0326122334 0.0220322525 0.2851117653
-0.0302858054 0.0233234183 0.3442877498
-0.0287770191 0.0230723025 0.1215244573
-0.0270296863 0.0216036065 0.2710070193
-0.0270076959 0.0184784637 0.3374696525
-0.0282026239 0.0171528900 0.1679629556
-0.0305972807 0.0167600404 0.2156099395
-0.0323991120 0.0177546262 0.1085599338
-0.0331165156 0.0189420250 0.1706934423
-0.0179999992 0.0359711903 0.3730454694
-0.0179999992 0.0355898150 0.1801476932
-0.0179514910 0.0328189616 0.3689612957
-0.0134335160 0.0320000015 0.3568314154
-0.0120272391 0.0328983441 0.1472607573
-0.0120000010 0.0338626896 0.1629980453
-0.0120000010 0.0349240865 0.1715803910
-0.0135527395 0.0379999988 0.1806715849
-0.0149135618 0.0379999988 0.2222931638
-0.0877497409 -0.0376162838 0.1085230674
-0.0841257297 -0.0379999988 0.3327397786
-0.0820168390 -0.0370628390 0.3280800935
-0.0820000023 -0.0351355212 0.3870281188
-0.0820000023 -0.0337888217 0.2783368884
-0.0820639780 -0.0327612286 0.1967036936
-0.0868391478 -0.0320000015 0.2563047251
-0.0878509109 -0.0324848865 0.1289842630
-0.0879999995 -0.0346023722 0.2985824317
-0.0879999995 -0.0352842688 0.2178916428
-0.0485147862 -0.0072270176 0.0324693486
-0.0572700016 0.0517944077 -0.0541456117
-0.0962452380 0.0508125508 -0.0599000044
-0.0904672582 -0.0420475053 -0.0599000044
-0.0807503387 0.0157564626 -0.0599000044
-0.0772725325 -0.0395661771 -0.0599000044
-0.0875034602 -0.0419270365 -0.0599000044
-0.0655409825 0.0217559135 -0.0599000044
-0.1024482085 -0.0412324346 -0.0599000044
-0.0567737902 0.0531999990 -0.0218331186
-0.0617138822 0.0510810136 -0.0316623143
-0.0804477997 0.0505904490 0.0273358192
-0.0767481712 0.0506873277 -0.0023516809
-0.0976999998 0.0509621419 -0.0181587022
-0.1030103527 0.0549999997 -0.0215342775
-0.0766699933 0.0549999997 0.0281875681
-0.0866425993 0.0549999997 -0.0034279406
-0.0660514662 0.0549999997 -0.0142897376
-0.0559560748 0.0549999997 0.0280818527
-0.0629641187 -0.0007059432 0.0340000018
-0.0827950917 -0.0445269227 0.0340000018
-0.0769800767 -0.0498172716 0.0340000018
-0.0971584565 0.0517946182 0.0340000018
-0.0886726965 -0.0399427246 0.0340000018
-0.0913437919 -0.0303421522 0.0340000018
-0.0976044549 0.0015045499 0.0340000018
-0.0610319141 -0.0549999997 -0.0595780259
-0.0611487348 -0.0549999997 0.0313882265
-0.0581740503 -0.0549999997 0.0081505833
-0.0569649628 -0.0549999997 -0.0203617231
-0.0900960889 -0.0549999997 -0.0329993843
-0.1031000018 0.0513048032 -0.0377544880
-0.1031000018 0.0179419291 -0.0257991423
-0.1031000018 -0.0393816655 -0.0538156569
-0.1031000018 0.0507597708 -0.0591537202
-0.1031000018 0.0198497427 0.0336117477
-0.1031000018 -0.0269979208 -0.0121145325
-0.1031000018 -0.0507540227 0.0297223303
-0.1002999991 0.0453402193 -0.0444990245
-0.1002999991 -0.0400565283 0.0013378827
-0.1002999991 0.0481093616 -0.0135332068
-0.1005055510 -0.0262876789 0.0291667370
-0.1009553222 0.0489270369 -0.0525146797
-0.1005233175 0.0325585428 -0.0578884862
-0.0992660498 -0.0125082741 0.0229301075
-0.1017473264 -0.0077481002 -0.0415374901
-0.1006999984 0.0036354483 0.0076769993
-0.1006999984 0.0009629791 -0.0239868624
-0.1006999984 0.0292179275 -0.0349280665
-0.1023911889 -0.0063965292 -0.0428894556
-0.1029223466 0.0530686686 0.0017041532
-0.1015624405 -0.0022709841 -0.0566804328
-0.1022181591 0.0328632888 -0.0350344964
-0.0983000025 0.0437208664 -0.0089506045
-0.0983000025 -0.0407807945 -0.0083698213
-0.0982999956 0.0312684436 0.0094892221
-0.0983000025 -0.0428297429 -0.0561709528
-0.0983000025 -0.0469649007 -0.0560159177
-0.0821394327 -0.0480638842 0.0313999988
-0.0896682072 -0.0503490045 -0.0260962255
-0.0611333186 -0.0510962163 -0.0427579032
-0.0604313678 -0.0511145973 -0.0096383592
-0.0710847809 -0.0508356306 0.0181958766
-0.0961924187 -0.0546164959 -0.0447148834
-0.0866346588 -0.0513754369 -0.0480584196
-0.0919551584 -0.0510496592 -0.0179865480
-0.0914381634 -0.0541070388 -0.0031353833
-0.0962695150 -0.0544927088 0.0099970967
-0.0699116880 -0.0343224337 0.0301664496
-0.0617583325 0.0103694937 0.0303799528
-0.0973175912 -0.0239065059 0.0294488014
-0.0760905178 0.0197800816 0.0300045791
-0.0718454196 0.0385158745 0.0301158048
-0.0741598275 0.0249248564 0.0315557223
-0.0775500014 -0.0463823118 -0.0550299571
-0.0626068572 -0.0067545169 -0.0582562487
-0.0607006771 -0.0107813906 -0.0583061642
-0.0649531129 -0.0251131167 -0.0581948093
-0.0975468635 -0.0184365680 -0.0573413137
-0.0844614319 -0.0178234106 -0.0576839660
-0.0926104057 -0.0028200970 -0.0574705763
-0.0834558990 0.0479076887 0.0313999988
-0.1018860130 0.0023370432 0.0135686673
-0.1011264608 -0.0373830017 -0.0268748175
-0.1028820399 -0.0530676168 -0.0434727633
-0.1028116678 0.0435658636 0.0296907523
-0.1003326213 -0.0514884291 -0.0536139432
-0.1004060646 -0.0311154154 -0.0444342723
-0.1013024586 -0.0407255971 -0.0579262520
-0.1017754442 -0.0054904665 0.0183141511
-0.1024615511 -0.0065290811 0.0264548781
-0.0876146311 0.0519186026 -0.0088148263
-0.0919896477 0.0548740271 0.0124723883
-0.0925295316 0.0527027257 0.0272594103
-0.0932212998 0.0525038505 -0.0444159429
-0.0837874468 0.0540410531 -0.0294471760
-0.0570299998 0.0544214617 0.0146904483
-0.0557500012 0.0542918898 -0.0706566145
-0.0668580508 0.0493170065 -0.0741999969
-0.0894838278 -0.0006454831 -0.0741999969
-0.0947097270 -0.0140720183 -0.0741999969
-0.0938995344 -0.0079274680 -0.0741999969
-0.0769568969 -0.0423254529 -0.0741999969
-0.0570666386 -0.0329497526 -0.0741999969
-0.0911893624 0.0532360264 -0.0700716638
-0.0583939701 -0.0512210977 -0.0633422473
-0.0725199796 -0.0532835505 -0.0646263984
-0.1022880397 0.0512379606 -0.0600499995
-0.1013521026 0.0095228277 -0.0682296702
-0.1013508701 -0.0079014480 -0.0683710452
-0.0710769364 0.0008113385 -0.0728786004
-0.0973699987 -0.0327665668 -0.0665302141
-0.0788507464 0.0260660774 -0.0663422436
-0.0943805256 0.0247499999 -0.0676307180
-0.0966724863 0.0195196419 -0.0644999966
-0.0633386866 -0.0549999997 -0.0652231932
-0.0948980466 -0.0432294746 -0.0759999976
-0.0829239475 -0.0206992997 -0.0759999976
-0.0722931715 -0.0314649759 -0.0759999976
-0.0752750176 0.0150847313 -0.0759999976
-0.0691018209 -0.0393015901 -0.0759999976
-0.1015804160 -0.0093823845 -0.0759999976
-0.0837781229 0.0426594767 -0.0759999976
-0.0930437799 0.0549999997 -0.0610688344
-0.0844145489 0.0549999997 -0.0619910779
-0.1031000018 0.0084457631 -0.0701428712
-0.1031000018 0.0482069942 -0.0628617628
-0.0326000005 -0.0538310020 -0.0364175906
-0.0326000005 -0.0375460245 -0.0533461149
-0.0330999978 0.0413062691 0.0263478710
-0.0330999978 0.0428327065 -0.0596072434
-0.0330999978 -0.0404466827 -0.0178262857
-0.0330999978 -0.0517631328 0.0149902580
-0.0535000004 0.0463966409 -0.0509557886
-0.0349102625 0.0463100481 -0.0505830784
-0.0484948908 -0.0495607038 0.0239312734
-0.0376416194 0.0419135015 0.0244250263
-0.0419956193 -0.0418824581 -0.0535743616
-0.0481580849 -0.0529997189 -0.0193058028
-0.0383014817 -0.0527416143 0.0314195092
-0.0346000008 -0.0497069046 0.0051258087
-0.0346000008 -0.0496690716 0.0152761849
-0.0346000008 0.0410054557 -0.0303760840
-0.0407092380 -0.0470877146 -0.0738046611
-0.0512826976 -0.0138320187 -0.0740815354
-0.0440910836 -0.0012227816 -0.0738932167
-0.0438139930 0.0477529285 -0.0738859603
-0.0401035283 0.0527888022 0.0166291562
-0.0456238000 0.0525302034 -0.0525375642
-0.0371257453 -0.0342123362 0.0317162344
-0.0430812367 0.0348916423 0.0318721837
-0.0555999987 -0.0365842605 -0.0752755086
-0.0328544863 -0.0549999997 -0.0227110606
-0.0393824314 -0.0549999997 -0.0660942705
-0.0548094570 -0.0549999997 -0.0551323642
-0.0526357624 0.0549999997 -0.0496479928
-0.0335988075 0.0549999997 0.0160282261
-0.0340724938 -0.0243376083 -0.0759999976
-0.0328649649 -0.0205599757 -0.0759999976
-0.0520161334 0.0107982350 -0.0759999976
-0.0542507823 0.0408482127 -0.0759999976
-0.0539232816 -0.0430283400 0.0340000018
-0.0342237270 -0.0341270244 0.0340000018
-0.0390793416 0.0259765783 0.0340000018
-0.0542013651 0.0144034703 0.0295087319
-0.0346078250 0.0380550295 0.0307079145
-0.0426137910 0.0387803815 -0.0462163789
-0.0347012522 0.0475902506 -0.0577289401
-0.0328999981 -0.0408247415 -0.0695330290
-0.0328999981 -0.0457034941 -0.0281116405
-0.0319999978 -0.0406404852 -0.0362994903
-0.0319999978 -0.0496793807 -0.0440745538
-0.0328999981 0.0425399968 -0.0374267023
-0.0328999981 0.0522923981 -0.0473082296
-0.0319999978 0.0420253429 -0.0526309839
-0.0323490535 0.0400500000 0.0112885479
-0.0035263019 0.0467804085 -0.0759999976
-0.0042695590 -0.0409208989 -0.0759999976
-0.0096689400 -0.0850000009 0.0833338978
-0.0001097689 -0.0850000009 0.0406113904
-0.0044066354 -0.0850000009 0.1600261110
-0.0005040205 0.0850000009 0.0636423364
-0.0037727119 0.0850000009 0.1272324654
-0.0046631891 0.0850000009 0.0471530369
-0.0075820542 0.0850000009 0.0904808338
-0.0000000001 -0.0773364850 0.1469257555
-0.0000000001 -0.0661276597 -0.0612071551
-0.0000000001 -0.0461667910 0.0485793278
-0.0000000001 0.0014849595 0.0423585678
-0.0000000001 0.0098492432 0.0350794018
-0.0000000001 -0.0753747571 -0.0149513269
-0.0000000001 -0.0790992856 -0.0546749125
-0.0000000001 -0.0362801821 0.1495596680
-0.0000000001 -0.0348561783 0.1590204113
-0.0000000001 -0.0162627864 0.1752654309
-0.0000000001 -0.0441638727 0.1416260667
-0.0000000001 -0.0650691453 0.1219184084
-0.0000000001 -0.0364093719 0.0966117013
-0.0000000001 -0.0707137707 0.1176530560
-0.0000000001 -0.0338283527 0.1258990634
-0.0000000001 -0.0156324419 0.1197169137
-0.0000000001 -0.0456687754 0.0938892839
-0.0000000001 -0.0723808632 0.0752854709
-0.0000000001 -0.0296497680 0.0808328767
-0.0000000001 0.0137632010 0.1742459911
-0.0000000001 0.0602465043 0.1484062346
-0.0000000001 0.0405364998 0.1606503967
-0.0000000001 0.0128539412 0.1441936933
-0.0000000001 0.0259067276 0.1285041117
-0.0000000001 0.0112740419 0.1297797486
-0.0000000001 0.0110634461 0.1141044054
-0.0000000001 0.0565338570 0.0962474395
-0.0000000001 0.0403329129 0.0870312319
-0.0000000001 0.0142990563 0.0817015001
-0.0000000001 -0.0708231738 0.0634321569
-0.0000000001 -0.0649549561 0.0599424974
-0.0000000001 -0.0146168497 0.0632156702
-0.0000000001 0.0060451033 0.0644908320
-0.0000000001 0.0422950161 0.0545780913
-0.0000000001 -0.0436866263 -0.0671787757
-0.0000000001 -0.0145135590 -0.0684402767
-0.0000000001 0.0707802754 -0.0702228718
-0.0000000001 0.0733597418 0.0841471932
-0.0000000001 0.0808016824 0.0449840763
-0.0000000001 0.0716321332 -0.0546486741
-0.0000000001 0.0824992749 0.1511311174
-0.0000000001 0.0809638739 0.0037832025
-0.0099999998 -0.0742692544 0.0593269421
-0.0099999998 -0.0623918859 0.0411210394
-0.0099999998 0.0412949118 0.0342667921
-0.0099999998 0.0457695070 0.0390477239
-0.0099999998 0.0526052347 -0.0610145372
-0.0099999998 0.0848890388 0.0258162172
-0.0099999998 0.0828330767 0.0343807842
-0.0099999998 0.0759567954 0.0033380252
-0.0099999998 0.0792609142 0.1582596602
-0.0099999998 0.0589816531 0.1662783652
-0.0099999998 0.0210540947 0.1316229366
-0.0099999998 0.0134317452 0.1373646118
-0.0099999998 0.0355659888 0.1212012650
-0.0099999998 0.0023730787 0.1159630066
-0.0099999998 0.0207220634 0.0926740197
-0.0099999998 0.0299769326 0.1019890722
-0.0099999998 0.0011629690 0.0891488188
-0.0099999998 0.0474603560 0.0742974211
-0.0099999998 -0.0062414390 0.1444926029
-0.0099999998 0.0327154044 0.1491733085
-0.0099999998 0.0083762077 0.1604508123
-0.0099999998 -0.0481058973 0.1716442398
-0.0099999998 -0.0304298350 0.1432181471
-0.0099999998 -0.0425237286 0.1303765938
-0.0099999998 -0.0639552391 0.1119936741
-0.0099999998 -0.0394855335 0.1147994322
-0.0099999998 -0.0307750781 0.0989000733
-0.0099999998 -0.0302622867 0.0888446079
-0.0099999998 -0.0274146623 0.0739451972
-0.0099999998 -0.0562782002 0.0772802384
-0.0099999998 -0.0665123575 0.0575161434
-0.0099999998 -0.0275976116 0.0561895135
-0.0099999998 0.0049153286 0.0522351184
-0.0099999998 0.0495476517 0.0580354785
-0.0099999998 0.0729101309 0.0596166420
-0.0099999998 -0.0132230260 -0.0718989062
-0.0099999998 0.0516277690 -0.0683197484
-0.0099999998 -0.0733055981 0.1426626052
-0.0099999998 -0.0761456683 0.1212677572
-0.0099999998 -0.0723722956 0.0350601005
-0.0099999998 -0.0821331840 -0.0022657076
-0.0047329973 -0.0740090431 0.1759999990
-0.0043840655 -0.0308701248 0.1759999990
-0.0010345571 0.0093130614 0.1759999990
-0.0051102380 0.0625193481 0.1538748656
-0.0022049326 0.0607608843 0.1191961237
-0.0030220700 0.0817028574 0.0661446337
-0.0058604931 0.0777724267 0.0005890217
-0.0078902820 0.0700000003 0.0095442010
-0.0048734361 -0.0663881015 0.0340000018
-0.0088168564 0.0017236805 0.0340000018
-0.0050751021 -0.0700000003 0.0262739374
-0.0070064515 -0.0672198111 -0.0590000004
-0.0050239906 0.0526972584 -0.0590000004
-0.0027494866 0.0689561734 0.0337437922
-0.0073858989 0.0740648898 0.1630741657
-0.0052220077 0.0835516556 -0.0515905119
-0.0376964639 -0.0861999989 -0.0682505293
-0.0532812349 -0.0861999989 -0.0670010229
-0.0797472014 -0.0861999989 0.1303462826
-0.0402010092 -0.0861999989 -0.0323306186
-0.0461410034 -0.0861999989 -0.0456192157
-0.0705038742 -0.0861999989 -0.0261488716
-0.0460020275 -0.0861999989 -0.0351823434
-0.0818160085 -0.0861999989 0.0225416238
-0.0207491068 -0.0861999989 -0.0287943625
-0.0699503575 -0.0861999989 -0.0590429132
-0.0452827496 -0.0861999989 0.0404509715
-0.0702066887 -0.0861999989 0.0114265250
-0.0592437023 -0.0861999989 -0.0597672592
-0.0309259396 -0.0861999989 -0.0542833058
-0.0225042830 -0.0861999989 -0.0350276483
-0.0865523339 -0.0861999989 0.0451011469
-0.0077995393 -0.0861999989 0.0185277561
-0.0170907816 -0.0861999989 0.0083248873
-0.0471021994 -0.0861999989 0.0676986512
-0.0347641134 -0.0861999989 0.0209315757
-0.0766425159 -0.0861999989 0.1365421955
-0.0104500758 -0.0861999989 -0.0187395966
-0.0037735912 -0.0861999989 0.0006723763
-0.0782521841 -0.0861999989 0.1446736685
-0.0404893537 -0.0861999989 0.1086840227
-0.0136858328 -0.0861999989 0.1270974065
-0.0513274126 -0.0861999989 0.1188037135
-0.0229163122 -0.0861999989 0.1338816273
-0.0086184063 -0.0861999989 0.1461896022
0.0000000036 -0.0861700205 0.0132974169
-0.0087238622 -0.0850000009 -0.0757261290
-0.0518570423 -0.0850000009 -0.0378558437
-0.0620042272 -0.0850000009 -0.0135575828
-0.0776105696 -0.0850000009 0.1065587342
-0.0425056758 -0.0850000009 0.0198812253
-0.0722435176 -0.0850000009 0.1127415846
-0.0517655287 -0.0850000009 0.0288866886
-0.0841600803 -0.0850000009 -0.0158680030
-0.0796659053 -0.0850000009 0.1115781019
-0.0275513578 -0.0850000009 -0.0136346855
-0.0484026768 -0.0850000009 -0.0125381511
-0.0349266638 -0.0850000009 -0.0293501360
-0.0631148455 -0.0850000009 0.0816855408
-0.0635863879 -0.0850000009 0.0005747324
-0.0716021598 -0.0850000009 0.0521184029
-0.0194503931 -0.0850000009 0.0442429536
-0.0805476263 -0.0850000009 0.1352107574
-0.0136178488 -0.0850000009 0.0235304697
-0.0095162496 -0.0850000009 -0.0261112638
-0.0426882241 -0.0850000009 0.0618353584
-0.0367665823 -0.0850000009 0.0799093033
-0.0362311376 -0.0850000009 0.0957356948
-0.0295999085 -0.0850000009 0.1016153700
-0.0396977272 -0.0850000009 0.1307278631
-0.0270013991 -0.0850000009 0.1026399487
-0.0087641182 -0.0850000009 0.1287208148
-0.0026273856 -0.0850000009 0.0484896395
-0.0043303063 -0.0850000009 0.1438182122
-0.0176529722 -0.0850000009 0.1373470621
-0.0900000036 0.0665597796 -0.0431664460
-0.0900000036 0.0660982362 -0.0480368675
-0.0900000036 0.0644662279 -0.0423027670
-0.0900000036 0.0627611239 0.0431854708
-0.0900000036 0.0677835040 0.0818437285
-0.0900000036 0.0786319940 -0.0519386845
-0.0900000036 0.0626984417 0.0285316011
-0.0900000036 -0.0816791121 -0.0377540930
-0.0900000036 -0.0719964723 0.0184670824
-0.0900000036 -0.0807184918 0.0155119093
-0.0900000036 -0.0813625173 0.1230546380
-0.0900000036 -0.0760855295 -0.0434967192
-0.0900000036 -0.0709637616 -0.0531849424
-0.0900000036 -0.0329317271 0.0906100648
-0.0900000036 -0.0540834495 0.1185544278
-0.0900000036 -0.0434139974 0.0894052379
-0.0900000036 -0.0538131123 0.0535285426
-0.0900000036 -0.0422325519 0.1062834612
-0.0900000036 -0.0330778116 0.1442771038
-0.0900000036 0.0081279849 0.0473341920
-0.0900000036 0.0020385597 0.0743825099
-0.0900000036 0.0077676344 0.0830418404
-0.0900000036 0.0199989976 0.0628637471
-0.0900000036 0.0052293697 0.0602012862
-0.0900000036 -0.0067706719 0.0455097635
-0.0900000036 0.0669813003 0.1492931264
-0.0900000036 0.0589265576 0.1496913496
-0.0900000036 0.0547287760 0.0716695898
-0.0900000036 0.0605659101 0.0734525356
-0.0900000036 0.0731413814 0.1231810298
-0.0900000036 0.0580359731 0.0707651848
-0.0900000036 -0.0329963628 0.0806730250
-0.0900000036 -0.0488671662 0.0538836787
-0.0900000036 0.0119321196 0.1464976748
-0.0900000036 0.0229960759 0.1459585592
-0.0900000036 0.0110937642 0.1315941587
-0.0897904380 0.0844361427 0.0786255178
-0.0355821752 0.0850000009 -0.0731079809
-0.0283843903 0.0850000009 -0.0700218814
-0.0453621611 0.0850000009 -0.0281293561
-0.0881063094 0.0850000009 -0.0589305738
-0.0467797902 0.0850000009 -0.0601102366
-0.0815522159 0.0850000009 -0.0667008146
-0.0877619067 0.0850000009 0.0456484822
-0.0718072906 0.0850000009 0.0630076123
-0.0444996539 0.0850000009 -0.0039271655
-0.0480756451 0.0850000009 -0.0460451722
-0.0269682221 0.0850000009 -0.0167547331
-0.0416223073 0.0850000009 0.0264271028
-0.0654768465 0.0850000009 -0.0447191267
-0.0610799579 0.0850000009 0.0443792289
-0.0838443648 0.0850000009 -0.0573815598
-0.0652479685 0.0850000009 -0.0125689366
-0.0203168920 0.0850000009 0.0577684881
-0.0322149004 0.0850000009 0.0504836728
-0.0213078765 0.0850000009 -0.0055837046
-0.0137846289 0.0850000009 0.0561530705
-0.0314783572 0.0850000009 0.0496423382
-0.0615103563 0.0850000009 0.1079540085
-0.0039775293 0.0850000009 0.0645755920
-0.0276708646 0.0850000009 0.0941365035
-0.0591093337 0.0850000009 0.1442852079
-0.0262218732 0.0850000009 0.0807445263
-0.0129613900 0.0850000009 0.1080182378
-0.0296053936 0.0850000009 0.1380280869
-0.0597568205 0.0850000009 0.1491414538
-0.0648019773 0.0861999989 -0.0701420162
-0.0695399199 0.0861999989 -0.0717354878
-0.0772936883 0.0861999989 0.0028005626
-0.0608316328 0.0861999989 -0.0272710246
-0.0451978775 0.0861999989 -0.0600036425
-0.0368577870 0.0861999989 -0.0488120759
-0.0565818556 0.0861999989 0.0144741510
-0.0845037011 0.0861999989 -0.0222606592
-0.0768904734 0.0861999989 -0.0435859838
-0.0852960359 0.0861999989 -0.0495394994
-0.0836658665 0.0861999989 0.0779721451
-0.0238852633 0.0861999989 -0.0130698721
-0.0535688179 0.0861999989 0.0204203026
-0.0706534664 0.0861999989 0.0861291534
-0.0614654036 0.0861999989 0.0859515005
-0.0119251579 0.0861999989 -0.0516709859
-0.0316305001 0.0861999989 0.0767920827
-0.0150472167 0.0861999989 -0.0073172476
-0.0146913482 0.0861999989 -0.0044458782
-0.0133187146 0.0861999989 0.0302548066
-0.0460616728 0.0861999989 0.0969581274
-0.0049838404 0.0861999989 0.0750185354
-0.0497658799 0.0861999989 0.1394874384
-0.0351374398 0.0861999989 0.0963101394
-0.0425273149 0.0861999989 0.1054957942
-0.0167945238 0.0861999989 0.0678419685
-0.0021717138 0.0861999989 0.1113282739
-0.0047452888 0.0861999989 0.0226289391
-0.0135427586 0.0861999989 0.1490519683
-0.0894568424 0.0860693451 -0.0654553883
-0.0910526802 0.0845406412 0.1439042539
-0.0912000015 0.0720204971 0.0509050163
-0.0912000015 0.0715412723 0.0137354333
-0.0912000015 0.0698536623 0.0230074067
-0.0912000015 0.0815444243 -0.0259862460
-0.0912000015 0.0691515727 -0.0610855251
-0.0912000015 0.0653670072 -0.0109663983
-0.0912000015 0.0507655589 0.0581891181
-0.0912000015 0.0387316101 0.0866959097
-0.0912000015 0.0612277231 0.1001591663
-0.0912000015 0.0572359067 0.1275660565
-0.0912000015 0.0424327840 0.1226635704
-0.0912000015 0.0264595474 0.1329446431
-0.0912000015 -0.0327547084 0.1368277590
-0.0912000015 0.0227733671 0.1463670890
-0.0912000015 -0.0053195653 0.1472794629
-0.0912000015 -0.0621349930 -0.0528013289
-0.0912000015 -0.0612798092 -0.0563792784
-0.0912000015 -0.0777762392 0.0471725979
-0.0912000015 -0.0733736279 0.0873698089
-0.0912000015 -0.0721345723 0.0727782203
-0.0912000015 -0.0751127987 0.0860434893
-0.0912000015 -0.0357260113 0.1112783555
-0.0912000015 -0.0403933281 0.1086773726
-0.0912000015 -0.0396875720 0.1132638926
-0.0912000015 -0.0663213658 0.1059244299
-0.0912000015 -0.0093228566 0.1191290326
-0.0912000015 -0.0147043586 0.1150984844
-0.0912000015 -0.0359628615 0.0657203425
-0.0912000015 -0.0460018089 0.0522313018
-0.0912000015 0.0286465377 0.0785562991
-0.0912000015 0.0398055189 0.0641305845
-0.0912000015 0.0131258011 0.0617171047
-0.0912000015 0.0023086846 0.0851872662
-0.0912000015 0.0107456720 0.0881662031
-0.0912000015 0.0146472935 0.1016727837
-0.0912000015 -0.0169490909 0.1148107359
-0.0899668402 -0.0858873476 0.0633107840
-0.0901978713 -0.0129880917 0.0390000008
