0.0167853398 0.0127501874 0.0043923086
0.0193752626 0.0114798324 0.0058330100
0.0158344436 0.0110999942 0.0048694274
0.0190626876 0.0081871890 0.0024674876
0.0170355464 0.0082329855 0.0046307544
0.0206566549 0.0114293161 0.0531087203
0.0157304656 0.0118027377 0.0513648724
0.0165276340 0.0085851441 0.0523254839
0.0194711327 0.0052559938 0.0523177546
0.0165494788 0.0073478010 0.0528124318
-0.0169979006 0.0126277012 0.0509946566
-0.0188509080 0.0050999969 0.0525751382
-0.0190495573 0.0101933997 0.0514543638
-0.0167296008 0.0061616881 0.0532700550
0.0083795347 0.0125897093 0.0930000022
0.0064377754 0.0120026959 0.0958327194
0.0054017050 0.0110999942 0.0930569860
0.0075759673 0.0085159983 0.0925671561
0.0083790573 0.0079290538 0.0954399610
-0.0170405684 0.0076828306 0.0032553219
0.0186226053 0.0021355230 0.0027224305
-0.0172269794 0.0017104119 0.0518728552
0.0187638877 0.0067818867 0.0518637091
-0.0079235364 0.0074502104 0.0929954870
0.0073924246 0.0069914769 0.0932073975
0.0186348625 0.0086846001 0.0512201093
0.0169357291 0.0093755199 0.0025835374
0.0315041063 0.0120125778 0.0784060363
-0.0304741084 0.0111721199 0.0781270396
0.0174630187 0.0114631496 0.0501438841
-0.0204366621 0.0119139372 0.0522636312
-0.0378832920 0.0103996161 0.0770186386
0.0404932822 0.0124387056 0.0761321735
-0.0385659064 -0.0103796003 0.0763842668
0.0429187033 -0.0101552709 0.0786966087
0.0156810232 -0.0124119701 0.0518244249
-0.0169119317 -0.0114304517 0.0502915441
0.0300936693 -0.0102894379 0.0780251008
-0.0281093540 -0.0116215658 0.0787925705
0.0165209870 -0.0062914947 0.0066916711
0.0156371954 0.0074415728 0.0490933198
0.0164356662 -0.0060761806 0.0496223759
-0.0122573860 0.0079599943 0.0034498780
0.0135087962 -0.0069395086 0.0058706500
0.0116423608 0.0075425335 0.0050277511
-0.0152468387 -0.0059861827 0.0059582426
-0.0159602628 0.0071656015 0.0050193749
-0.0171174415 -0.0064107091 0.0508108811
-0.0184501365 -0.0104145655 0.0021706131
-0.0186604324 -0.0098365913 0.0512269627
-0.0048398559 0.0009082902 0.0008987610
-0.0150066690 -0.0064330997 0.0494925710
0.0072415428 -0.0069845065 0.0933582793
0.0186803967 -0.0082050766 0.0504323097
-0.0172466021 -0.0035683293 0.0028532340
-0.0189349377 -0.0017412056 0.0521638706
0.0176214966 -0.0021543088 0.0025764192
-0.0183685011 -0.0013830453 0.0039247700
-0.0173587334 -0.0048237095 0.0532588966
0.0176947292 -0.0078892317 0.0534432038
-0.0189729325 -0.0068074704 0.0036943056
0.0164744107 -0.0080000013 0.0528268634
-0.0163590714 -0.0082478547 0.0539326400
0.0001656676 -0.0018051301 0.0012000015
0.0032091171 0.0017063235 0.0012000015
-0.0025804378 0.0036567027 0.0012000015
0.0072215351 -0.0056865904 0.0946217118
-0.0042885379 -0.0024376037 0.0011331206
0.0166375820 -0.0084999949 0.0517063416
-0.0004659668 -0.0084999949 0.0936763807
-0.0195000060 0.0005847279 0.0209099433
0.0036983497 -0.0033282488 0.0002072093
0.0169589864 -0.0103870091 0.0044397192
0.0172159999 -0.0090262632 0.0536967354
0.0134903054 0.0078235679 0.0536889093
0.0141600555 -0.0083081219 0.0538607982
0.0016575631 -0.0100000054 0.0532970032
0.0047961625 -0.0076157021 0.0535000004
0.0117158899 0.0010324693 0.0535000004
0.0107984367 -0.0099364840 0.0535000004
0.0021547304 0.0022195061 0.0535000004
0.0025985333 -0.0055016427 0.0535000004
0.0029385397 -0.0074210143 0.0535000004
-0.0095212488 0.0074918501 0.0535000004
0.0038324096 0.0073205033 0.0535000004
0.0035581508 0.0039935570 0.0535000004
0.0048869020 -0.0015267425 0.0535000004
-0.0056901065 0.0036154487 0.0535000004
-0.0025916194 0.0094331700 0.0535000004
-0.0049995103 0.0054486975 0.0535000004
-0.0078779072 0.0034301504 0.0535000004
-0.0016558443 -0.0098728547 0.0535000004
-0.0076764303 -0.0066819649 0.0535000004
-0.0119156480 -0.0053673633 0.0535000004
-0.0124540801 -0.0012445697 0.0535000004
-0.0151958228 0.0028331295 0.0546554658
-0.0137231150 0.0059737381 0.0537405173
-0.0126677093 -0.0034478126 0.0535065616
-0.0035000031 -0.0043279702 0.0947889048
0.0026888792 0.0064319194 0.0949999988
-0.0029153013 0.0081234914 0.0949999988
0.0005155018 0.0023875504 0.0949999988
-0.0018423126 -0.0072156988 0.0949999988
-0.0019362237 -0.0032607097 0.0949999988
0.0034999961 0.0047210934 0.0936705269
0.0034999961 -0.0031483751 0.0938817852
0.0088392167 0.0075112165 0.0920000002
0.0038685022 0.0014097584 0.0920000002
0.0096815833 -0.0031892539 0.0920000002
0.0072037616 -0.0038812489 0.0920000002
0.0035170325 -0.0085076744 0.0920000002
-0.0039861412 0.0012049060 0.0920000002
-0.0064149121 -0.0027789587 0.0920000002
-0.0080193008 0.0066052266 0.0920000002
-0.0066135116 0.0080717496 0.0920000002
-0.0071405427 0.0088635036 0.0920000002
-0.0100000091 0.0060380778 0.0939549824
-0.0100000091 0.0078864626 0.0931454466
-0.0100000091 -0.0060781180 0.0934753529
0.0100000016 -0.0083382365 0.0933948791
0.0100000016 -0.0043791691 0.0943331843
0.0100000016 0.0005241392 0.0942633258
-0.0213407595 -0.0076722929 0.0531387281
-0.0208775478 -0.0083349824 0.0543794467
-0.0206301558 0.0028909979 0.0546542213
-0.0186051100 -0.0064775192 0.0558937756
-0.0182318243 -0.0072857696 0.0559619528
-0.0162104220 0.0006736829 0.0553975114
-0.0203339744 -0.0070199960 0.0489803565
-0.0172208652 0.0060943023 0.0495547467
-0.0200463789 0.0061317859 0.0065319638
-0.0198834169 -0.0073784933 0.0069235834
-0.0195286114 0.0029567682 0.0202061467
0.0115692563 0.0066482205 0.0010239660
0.0131251705 -0.0077750008 0.0018045667
-0.0128335150 0.0060643631 0.0007147863
0.0156104829 0.0006532822 0.0549617028
0.0174630016 -0.0087496152 0.0558539496
0.0190204312 -0.0069181733 0.0557425927
0.0197054748 0.0015511613 0.0554932238
0.0209985557 -0.0048078968 0.0542450368
0.0214413196 -0.0075877955 0.0527353670
0.0164447533 -0.0079872000 0.0501410871
0.0167030837 0.0063929237 0.0492069018
0.0154451494 -0.0070087863 0.0070226453
0.0174851186 -0.0100000054 0.0855504082
0.0158463387 -0.0100000054 0.0681687710
0.0167659640 -0.0100000054 0.0714476784
0.0095485705 -0.0100000054 0.0634749149
0.0103305121 -0.0100000054 0.0648800853
-0.0229953054 -0.0100000054 0.0724481680
-0.0186361725 -0.0100000054 0.0694012199
0.0198795041 -0.0100000054 0.0776121069
0.0128687979 -0.0100000054 0.0691432298
-0.0018968326 -0.0100000054 0.0566624381
0.0102806600 -0.0100000054 0.0685767566
0.0035297097 -0.0100000054 0.0670167968
-0.0037346002 -0.0100000054 0.0774641158
0.0150032764 -0.0100000054 0.0771205074
-0.0145035924 -0.0100000054 0.0695684364
0.0012488957 -0.0100000054 0.0670977040
-0.0013276864 -0.0100000054 0.0719346433
-0.0000016859 -0.0100000054 0.0716222976
0.0117795500 -0.0100000054 0.0716313034
0.0107220254 -0.0100000054 0.0714282508
-0.0168297390 -0.0100000054 0.0721155977
-0.0135358519 -0.0100000054 0.0748426712
0.0086712281 -0.0100000054 0.0783584611
-0.0113034290 -0.0100000054 0.0645053386
-0.0000614717 -0.0100000054 0.0561903153
0.0039522850 -0.0100000054 0.0634215103
0.0109309899 -0.0100000054 0.0795263561
-0.0020124296 -0.0100000054 0.0721899972
-0.0009285299 -0.0100000054 0.0785919553
-0.0123522736 -0.0100000054 0.0703821658
0.0097238118 -0.0100000054 0.0722276490
-0.0145114811 -0.0100000054 0.0730420320
0.0015256550 -0.0100000054 0.0637232736
-0.0077208082 -0.0100000054 0.0729262546
0.0061380147 -0.0100000054 0.0805007038
0.0188369706 -0.0100000054 0.0813228042
0.0255530424 -0.0100000054 0.0814286860
0.0155949437 -0.0100000054 0.0846395460
-0.0219809439 -0.0100000054 0.0820611701
-0.0028613218 -0.0100000054 0.0849367044
-0.0047607626 -0.0100000054 0.0873706018
0.0204291037 -0.0100000054 0.0836186582
-0.0200199979 -0.0100000054 0.0812866488
-0.0006018569 -0.0100000054 0.0831116303
0.0002841882 -0.0100000054 0.0888938269
-0.0119461033 -0.0100000054 0.0821931128
-0.0039317801 -0.0100000054 0.0888129803
-0.0168734417 -0.0100000054 0.0882434130
-0.0145714258 -0.0100000054 0.0896152588
-0.0246403136 -0.0100000054 0.0861512701
-0.0158908817 -0.0100000054 0.0650292825
-0.0287833214 -0.0100000054 0.0723109307
-0.0176995038 -0.0100000054 0.0661554065
-0.0212287547 -0.0100000054 0.0680336530
0.0336978843 -0.0100000054 0.0792002060
0.0106710320 -0.0100000054 0.0898852309
0.0003172999 -0.0100000054 0.0902659367
0.0182051327 -0.0100000054 0.0864965483
0.0261542948 -0.0100000054 0.0861884699
0.0256532069 -0.0100000054 0.0897232963
0.0292682411 -0.0100000054 0.0881880167
0.0176527887 -0.0100000054 0.0912116116
0.0169602509 -0.0100000054 0.0935450795
0.0212914779 -0.0100000054 0.0934500306
-0.0413291949 -0.0100000054 0.0749562893
-0.0380463982 -0.0100000054 0.0736760396
-0.0209913279 -0.0100000054 0.0897778377
-0.0332594680 -0.0100000054 0.0880133895
-0.0238809723 -0.0100000054 0.0900321213
-0.0284897305 -0.0100000054 0.0857341394
-0.0320823712 -0.0100000054 0.0847531623
-0.0347941265 -0.0100000054 0.0824207594
0.0414742982 -0.0100000054 0.0744099039
0.0381871294 -0.0100000054 0.0855195069
0.0435902089 -0.0100000054 0.0843031650
-0.0384690448 -0.0100000054 0.0851031702
0.0183350000 -0.0100000054 0.0664617694
0.0129503095 -0.0100000054 0.0625552326
0.0269432576 -0.0100000054 0.0730345293
0.0099306047 -0.0100000054 0.0595855133
0.0225772932 -0.0100000054 0.0714958905
0.0218228279 -0.0100000054 0.0725283106
-0.0292837708 -0.0100000054 0.0689131595
-0.0096055004 -0.0100000054 0.0555895414
-0.0162062771 -0.0100000054 0.0579682527
-0.0194393887 -0.0100000054 0.0603887609
-0.0148987686 -0.0100000054 0.0588300013
-0.0097359761 -0.0100000054 0.0543044884
-0.0338325573 -0.0100000054 0.0726626089
-0.0223642789 -0.0100000054 0.0580035958
0.0372958907 -0.0100000054 0.0714925322
0.0112381331 -0.0100000054 0.0546883218
0.0087383785 -0.0100000054 0.0547674822
0.0129412455 -0.0100000054 0.0560973108
0.0254886563 -0.0100000054 0.0681446629
0.0238532287 -0.0100000054 0.0665755276
0.0233816678 -0.0100000054 0.0653956179
0.0315162682 -0.0100000054 0.0684977327
0.0219315093 -0.0100000054 0.0563102595
-0.0098842526 -0.0072214715 0.0964319573
0.0097249827 -0.0042871392 0.0966410416
-0.0313423600 -0.0103900553 0.0908801769
-0.0309728472 -0.0119755975 0.0909861331
-0.0434071247 -0.0119196168 0.0857156842
-0.0430113398 -0.0114508063 0.0727658102
-0.0316023073 -0.0118891720 0.0681446733
-0.0221377373 -0.0116742814 0.0567505041
-0.0215000100 -0.0119249690 0.0298964324
-0.0215000100 -0.0118392095 0.0372449987
-0.0215000100 -0.0117470882 0.0315759897
-0.0215000100 -0.0034986102 0.0394003027
-0.0215000100 -0.0024064198 0.0327569068
-0.0215000100 -0.0069996468 0.0459456806
-0.0215000100 -0.0084732733 0.0215570401
-0.0215000100 -0.0058589493 0.0268942824
-0.0215000100 -0.0089498826 0.0356337041
-0.0215000100 -0.0059068668 0.0249724965
-0.0215000100 -0.0044431565 0.0303669390
-0.0215000100 -0.0064636940 0.0260760110
-0.0215000100 -0.0055787107 0.0175968878
-0.0215000100 0.0032683923 0.0322091413
-0.0215000100 0.0027251594 0.0243821626
-0.0215000100 -0.0036664875 0.0454012482
-0.0215000100 0.0010104722 0.0375821787
-0.0215000100 -0.0012379725 0.0465847115
-0.0215000100 0.0007706242 0.0356400063
-0.0215000100 0.0027464389 0.0516550548
-0.0215000100 -0.0082763204 0.0141239745
-0.0215000100 -0.0022707305 0.0132444569
-0.0215000100 0.0041978635 0.0452396601
-0.0215000100 0.0044263743 0.0301847548
-0.0215000100 0.0050548330 0.0513674344
-0.0215000100 0.0064959986 0.0452920400
-0.0215000100 0.0092232078 0.0275898524
-0.0215000100 0.0109992098 0.0163198460
-0.0215000100 0.0070857366 0.0247248072
-0.0215000100 0.0086357817 0.0224402361
-0.0215000100 0.0077045329 0.0225440331
-0.0215000100 0.0093176717 0.0409449420
-0.0215000100 0.0100912008 0.0499781736
-0.0215000100 0.0092888750 0.0489356032
-0.0215000100 0.0093435713 0.0334310275
-0.0215000100 0.0117207436 0.0095655822
-0.0215000100 0.0072044674 0.0105471881
-0.0215000100 -0.0030801114 0.0050290162
-0.0215000100 0.0018327243 0.0052447806
-0.0215000100 -0.0099937101 0.0048835892
-0.0215000100 -0.0106098497 0.0115507574
-0.0215000100 -0.0046240573 0.0104859093
-0.0214404497 0.0096633196 0.0032777204
-0.0212822947 -0.0001997052 0.0026874762
-0.0204644562 0.0082967869 0.0011833691
-0.0187622397 0.0020309657 0.0002042466
-0.0203926485 -0.0065484873 0.0011115626
-0.0082949850 -0.0060387269 0.0000000035
0.0030731473 -0.0079326160 0.0000000035
-0.0076785778 -0.0082915812 0.0000000035
0.0094253942 -0.0101745516 0.0000000035
-0.0018926920 -0.0111596503 0.0000000035
0.0149486325 -0.0090661529 0.0000000035
-0.0090924399 -0.0081617914 0.0000000035
-0.0128839975 -0.0099562540 0.0000000035
0.0157206638 0.0099909539 0.0000000035
0.0054064970 0.0098479985 0.0000000035
0.0129574161 0.0119881544 0.0000000035
0.0178074422 0.0059560364 0.0000000035
0.0076361502 0.0088115144 0.0000000035
0.0052933850 -0.0003458334 0.0000000035
0.0079514899 0.0002188313 0.0000000035
0.0083693453 -0.0016395290 0.0000000035
0.0066922343 -0.0017621668 0.0000000035
0.0019090936 0.0091050475 0.0000000035
0.0050844279 0.0074855326 0.0000000035
-0.0054718694 0.0073490933 0.0000000035
0.0026352248 -0.0047436923 0.0000000035
-0.0080351222 0.0085939366 0.0000000035
-0.0076614388 -0.0032134846 0.0000000035
-0.0094413920 0.0083398273 0.0000000035
-0.0178030030 0.0049068260 0.0000000035
-0.0174887831 -0.0045815773 0.0000000035
-0.0126685448 0.0000979869 0.0000000035
-0.0096333711 -0.0019938644 0.0000000035
-0.0129237273 0.0082009039 0.0000000035
0.0190682964 -0.0014096767 0.0002557352
0.0202499249 -0.0114397242 0.0008525187
0.0206507315 -0.0047129694 0.0012543067
0.0212422020 0.0046917599 0.0024327860
0.0215000026 0.0057044877 0.0057360838
0.0215000026 0.0082643517 0.0517280342
0.0215000026 -0.0013347515 0.0501235728
0.0215000026 0.0049576698 0.0466636434
0.0215000026 -0.0045685187 0.0275321287
0.0215000026 -0.0066759884 0.0218640662
0.0215000026 -0.0007842140 0.0415304590
0.0215000026 -0.0062270391 0.0190079135
0.0215000026 -0.0006247231 0.0329784846
0.0215000026 -0.0033578894 0.0364880859
0.0215000026 -0.0026639088 0.0466796186
0.0215000026 -0.0037411485 0.0483540593
0.0215000026 -0.0065071864 0.0218145413
0.0215000026 -0.0053812948 0.0494098519
0.0215000026 0.0118688142 0.0487031520
0.0215000026 0.0115573746 0.0468676665
0.0215000026 0.0103386497 0.0293003768
0.0215000026 0.0114978010 0.0346221405
0.0215000026 0.0100779706 0.0422431531
0.0215000026 0.0099741497 0.0395130903
0.0215000026 0.0079212559 0.0110981443
0.0215000026 0.0084145463 0.0235555295
0.0215000026 0.0070631218 0.0195227374
0.0215000026 -0.0042879211 0.0159225184
0.0215000026 0.0052944474 0.0093908049
0.0215000026 0.0047749188 0.0247757255
0.0215000026 0.0009225138 0.0215223572
0.0215000026 0.0052499681 0.0379079974
0.0215000026 0.0000852027 0.0227999111
0.0215000026 -0.0000382611 0.0241244912
0.0215000026 0.0025304136 0.0097028485
0.0215000026 0.0065959804 0.0305758499
0.0215000026 0.0013570550 0.0169638391
0.0215000026 -0.0010664394 0.0152706004
0.0215000026 -0.0031077178 0.0068509414
0.0215000026 -0.0101901506 0.0045079568
0.0215000026 -0.0091717037 0.0373774358
0.0215000026 -0.0104740068 0.0440162590
0.0215000026 -0.0110341563 0.0237188407
0.0215000026 -0.0090691719 0.0342097016
0.0215000026 -0.0082380516 0.0310080640
0.0215000026 -0.0095567111 0.0055358999
0.0215000026 -0.0082556219 0.0241244191
0.0215000026 -0.0073534763 0.0260465441
0.0263108487 -0.0112893521 0.0643386246
0.0219444555 -0.0116996244 0.0557194455
0.0449999981 -0.0101225643 0.0797359414
0.0269329291 -0.0111380175 0.0921445623
0.0243137495 -0.0105848157 0.0928956003
0.0153404976 -0.0113002724 0.0954686397
-0.0178900878 -0.0110999942 0.0548477152
0.0183517450 -0.0110999942 0.0539489596
-0.0094304236 -0.0110999942 0.0949416678
0.0070050163 0.0053735094 0.0970000029
0.0069947162 -0.0025712768 0.0970000029
0.0050470492 0.0028949641 0.0970000029
0.0058506077 0.0090638764 0.0970000029
-0.0052975468 -0.0046209867 0.0970000029
-0.0027866029 -0.0057851787 0.0970000029
-0.0083092285 -0.0061065976 0.0970000029
-0.0020381627 0.0119619628 0.0970000029
-0.0043097767 0.0108485397 0.0970000029
-0.0007018523 -0.0016929841 0.0970000029
-0.0042348872 0.0066556670 0.0970000029
-0.0019821992 -0.0067222570 0.0970000029
0.0000188295 -0.0070361768 0.0970000029
0.0058531558 -0.0100027545 0.0970000029
0.0001055441 0.0006848334 0.0970000029
0.0007213072 0.0105398806 0.0970000029
0.0063127970 -0.0120813984 0.0970000029
-0.0401385116 -0.0121139702 0.0880609727
-0.0274290838 -0.0121349247 0.0654777760
-0.0214043822 -0.0120956195 0.0354523039
-0.0060746932 -0.0122780128 0.0002780136
0.0211118231 -0.0123881740 0.0051661979
0.0210966955 -0.0124033016 0.0348805404
0.0439118690 -0.0122527804 0.0746981498
0.0306481099 -0.0121371741 0.0909365444
-0.0326237595 -0.0108595155 0.0824041223
0.0201036676 -0.0113614357 0.0048114015
0.0067023375 -0.0118533836 0.0961173992
-0.0057606894 -0.0121864490 0.0949729281
0.0376883571 -0.0110516353 0.0807864325
-0.0428846043 -0.0121466984 0.0794306755
-0.0320906101 -0.0125000030 0.0774117117
-0.0341400746 -0.0125000030 0.0871826687
-0.0243989729 -0.0125000030 0.0864876988
0.0238524195 -0.0125000030 0.0778562996
0.0241823881 -0.0125000030 0.0855883908
0.0353646270 -0.0125000030 0.0795924049
-0.0365666051 -0.0125000030 0.0786538312
-0.0358664598 -0.0125000030 0.0737483537
0.0428205824 -0.0125000030 0.0816770917
0.0380442111 -0.0125000030 0.0712335142
0.0344072320 -0.0125000030 0.0724231381
0.0284659574 -0.0125000030 0.0692661560
0.0292594492 -0.0125000030 0.0762332630
0.0277351209 -0.0125000030 0.0681413926
0.0246262940 -0.0125000030 0.0656604446
0.0203294437 -0.0125000030 0.0559605477
0.0177822788 -0.0125000030 0.0348065216
0.0162917853 -0.0125000030 0.0389205224
0.0188672979 -0.0125000030 0.0324295090
0.0184022080 -0.0125000030 0.0368163155
0.0142896791 -0.0125000030 0.0366101844
0.0132299350 -0.0125000030 0.0478820026
0.0139054944 -0.0125000030 0.0444173398
0.0154878122 -0.0125000030 0.0528257504
0.0199055781 -0.0125000030 0.0594025920
0.0208269802 -0.0125000030 0.0546187229
0.0136841606 -0.0125000030 0.0165912149
0.0209004889 -0.0125000030 0.0040972498
0.0161629425 -0.0125000030 0.0051114653
0.0140915976 -0.0125000030 0.0247949691
0.0161593405 -0.0125000030 0.0149667322
0.0146550045 -0.0125000030 0.0244347425
0.0190240430 -0.0125000030 0.0065067302
-0.0191672206 -0.0125000030 0.0007998134
-0.0142704064 -0.0125000030 0.0070379417
-0.0202124517 -0.0125000030 0.0118332344
-0.0180393846 -0.0125000030 0.0254867211
-0.0149054544 -0.0125000030 0.0207441416
-0.0177453160 -0.0125000030 0.0123489901
-0.0167872270 -0.0125000030 0.0088259197
-0.0134534239 -0.0125000030 0.0669588785
-0.0139006019 -0.0125000030 0.0439761140
-0.0130155693 -0.0125000030 0.0500301744
-0.0188839175 -0.0125000030 0.0289315728
-0.0176011790 -0.0125000030 0.0352746686
-0.0139483424 -0.0125000030 0.0325265167
-0.0183768418 -0.0125000030 0.0326984191
-0.0194508377 -0.0125000030 0.0395295497
-0.0209782906 -0.0125000030 0.0556044474
-0.0209262971 -0.0125000030 0.0659867791
-0.0162702351 -0.0125000030 0.0668301063
-0.0175817281 -0.0125000030 0.0605737558
-0.0133847851 -0.0125000030 0.0762950872
-0.0147680703 -0.0125000030 0.0680065375
-0.0303315680 -0.0125000030 0.0724834837
-0.0307228692 -0.0125000030 0.0760129126
-0.0311679341 -0.0125000030 0.0686203045
-0.0410613189 -0.0125000030 0.0736863643
-0.0398002797 -0.0125000030 0.0858567568
-0.0288082615 -0.0125000030 0.0884295541
-0.0243773488 -0.0125000030 0.0910053591
-0.0018484967 -0.0125000030 0.0911236003
-0.0124310514 -0.0125000030 0.0935913978
0.0022874021 -0.0125000030 0.0932732451
0.0019144145 -0.0125000030 0.0958768349
0.0055926292 -0.0125000030 0.0969146006
0.0277974168 -0.0125000030 0.0876967819
0.0310641848 -0.0125000030 0.0879927433
0.0383966286 -0.0125000030 0.0850926816
0.0350703289 -0.0125000030 0.0886321242
0.0192154792 -0.0125000030 0.0926663863
0.0141965783 -0.0125000030 0.0914767785
0.0232442094 -0.0125000030 0.0866677464
0.0141923898 -0.0125000030 0.0850482461
0.0228364052 -0.0125000030 0.0829194886
0.0146791946 -0.0125000030 0.0790713936
0.0162655616 -0.0125000030 0.0703562407
0.0169464833 -0.0125000030 0.0694108318
0.0181697051 -0.0125000030 0.0711264494
0.0218799156 -0.0125000030 0.0767597464
0.0170478899 -0.0125000030 0.0628983077
-0.0175505803 -0.0125000030 0.0938685281
-0.0141285172 -0.0125000030 0.0945343189
-0.0212429910 -0.0125000030 0.0881245756
-0.0195356415 -0.0125000030 0.0860811305
-0.0233715984 -0.0125000030 0.0850816023
-0.0196901348 -0.0125000030 0.0821878962
-0.0166591298 -0.0125000030 0.0785432139
-0.0169515665 -0.0125000030 0.0760204892
-0.0222085556 -0.0125000030 0.0690623946
-0.0226441787 -0.0125000030 0.0766410292
-0.0243020249 -0.0125000030 0.0745859247
0.0017382168 -0.0125000030 0.0885587735
0.0098115101 -0.0125000030 0.0866301716
0.0017860268 -0.0125000030 0.0836563763
0.0076139572 -0.0125000030 0.0826155178
0.0004559961 -0.0125000030 0.0789061368
0.0008306846 -0.0125000030 0.0813113986
0.0099701310 -0.0125000030 0.0708418392
0.0069404379 -0.0125000030 0.0752079254
0.0051853966 -0.0125000030 0.0671180917
0.0067919543 -0.0125000030 0.0675211399
0.0061401234 -0.0125000030 0.0558268469
0.0013426477 -0.0125000030 0.0749769050
0.0077922850 -0.0125000030 0.0607617971
0.0078046898 -0.0125000030 0.0686000112
0.0076250751 -0.0125000030 0.0719500560
0.0070247623 -0.0125000030 0.0651300176
0.0060201518 -0.0125000030 0.0751346815
0.0128647615 -0.0125000030 0.0717399704
0.0046378678 -0.0125000030 0.0381791655
0.0042561161 -0.0125000030 0.0543451430
0.0004667883 -0.0125000030 0.0694459335
0.0039804381 -0.0125000030 0.0588783318
0.0067752328 -0.0125000030 0.0353809728
0.0035679375 -0.0125000030 0.0439962842
0.0011404698 -0.0125000030 0.0699844297
0.0006340871 -0.0125000030 0.0442562718
0.0025926264 -0.0125000030 0.0660427761
0.0005982920 -0.0125000030 0.0734368703
0.0074017173 -0.0125000030 0.0301963994
0.0102139744 -0.0125000030 0.0241392446
0.0080466573 -0.0125000030 0.0146261892
0.0040318366 -0.0125000030 0.0235086090
0.0088141077 -0.0125000030 0.0192821304
0.0129866305 -0.0125000030 0.0145778921
0.0117622659 -0.0125000030 0.0082708200
0.0123874888 -0.0125000030 0.0122016798
0.0064788812 -0.0125000030 0.0122611031
0.0014683291 -0.0125000030 0.0014022473
0.0097620849 -0.0125000030 0.0068584226
0.0056702788 -0.0125000030 0.0080333917
0.0020902825 -0.0125000030 0.0017664908
0.0085377598 -0.0125000030 0.0067707281
0.0062916422 -0.0125000030 0.0034580316
-0.0049462083 -0.0125000030 0.0879534692
-0.0013285260 -0.0125000030 0.0840572815
-0.0127980217 -0.0125000030 0.0849946608
-0.0045326611 -0.0125000030 0.0810296244
-0.0097348586 -0.0125000030 0.0818151158
-0.0079645619 -0.0125000030 0.0783191767
-0.0103803153 -0.0125000030 0.0746626311
-0.0085956678 -0.0125000030 0.0609372396
-0.0040885472 -0.0125000030 0.0701675001
-0.0042755697 -0.0125000030 0.0444901058
-0.0051436022 -0.0125000030 0.0721198989
-0.0022655012 -0.0125000030 0.0721293657
-0.0085491937 -0.0125000030 0.0647510629
-0.0018826132 -0.0125000030 0.0543512988
-0.0063721870 -0.0125000030 0.0601407556
-0.0005597913 -0.0125000030 0.0592471738
-0.0073269830 -0.0125000030 0.0674590000
-0.0034894816 -0.0125000030 0.0663087244
-0.0082542048 -0.0125000030 0.0569689887
-0.0126250181 -0.0125000030 0.0381381297
-0.0091606035 -0.0125000030 0.0512409882
-0.0055380070 -0.0125000030 0.0454028874
-0.0063751785 -0.0125000030 0.0467303249
-0.0109516852 -0.0125000030 0.0375093865
-0.0078376298 -0.0125000030 0.0528330482
-0.0104383965 -0.0125000030 0.0542495797
-0.0125518972 -0.0125000030 0.0379986609
-0.0129201848 -0.0125000030 0.0334853244
-0.0009477594 -0.0125000030 0.0313567758
-0.0123204912 -0.0125000030 0.0689157039
-0.0064728418 -0.0125000030 0.0205381363
-0.0021910261 -0.0125000030 0.0275849782
-0.0017929252 -0.0125000030 0.0079112615
-0.0059014260 -0.0125000030 0.0239472459
-0.0077424377 -0.0125000030 0.0250845773
-0.0026598689 -0.0125000030 0.0121718243
-0.0109073461 -0.0125000030 0.0023028968
-0.0100841267 -0.0125000030 0.0093066690
-0.0111602205 -0.0125000030 0.0071648903
-0.0068687734 -0.0125000030 0.0036691397
-0.0123632653 -0.0125000030 0.0064666913
-0.0119810573 -0.0125000030 0.0045492297
-0.0064689591 -0.0125000030 0.0030951772
0.0263394794 0.0125000030 0.0790426308
0.0302258810 0.0125000030 0.0856764287
0.0318648107 0.0125000030 0.0840309659
-0.0257139760 0.0125000030 0.0856309792
-0.0325933833 0.0125000030 0.0861186592
-0.0368914907 0.0125000030 0.0772423035
0.0375880159 0.0125000030 0.0737577192
-0.0408701926 0.0125000030 0.0828580462
-0.0406063726 0.0125000030 0.0739849695
-0.0353614546 0.0125000030 0.0756028298
-0.0303829719 0.0125000030 0.0751457621
-0.0284633139 0.0125000030 0.0692008052
-0.0202459154 0.0125000030 0.0492379355
-0.0193838307 0.0125000030 0.0477489874
-0.0139501319 0.0125000030 0.0301096832
-0.0191651783 0.0125000030 0.0282552897
-0.0188457317 0.0125000030 0.0437688168
-0.0162730224 0.0125000030 0.0440078892
-0.0170457870 0.0125000030 0.0548313070
-0.0167050683 0.0125000030 0.0591479098
-0.0178835446 0.0125000030 0.0560379056
-0.0226064941 0.0125000030 0.0615465479
-0.0200186311 0.0125000030 0.0075786404
-0.0160829443 0.0125000030 0.0109778094
-0.0168077404 0.0125000030 0.0218171040
-0.0168417387 0.0125000030 0.0230891386
-0.0174187576 0.0125000030 0.0226274731
-0.0188539181 0.0125000030 0.0107714303
0.0199416526 0.0125000030 0.0092186944
0.0168220165 0.0125000030 0.0115296232
0.0194223919 0.0125000030 0.0180489302
0.0157605059 0.0125000030 0.0167731749
0.0142885985 0.0125000030 0.0225237136
0.0179294837 0.0125000030 0.0492169254
0.0151905112 0.0125000030 0.0290435981
0.0183416668 0.0125000030 0.0388171556
0.0151231167 0.0125000030 0.0404959438
0.0160960070 0.0125000030 0.0509251267
0.0202707490 0.0125000030 0.0468167386
0.0260778640 0.0125000030 0.0653289772
0.0171793138 0.0125000030 0.0554248285
0.0197359221 0.0125000030 0.0627550285
0.0194139557 0.0125000030 0.0565219451
0.0280494284 0.0125000030 0.0750511287
0.0278750118 0.0125000030 0.0757092944
0.0431107932 0.0125000030 0.0751848364
0.0422388497 0.0125000030 0.0842818301
0.0352150253 0.0125000030 0.0858121934
0.0310096363 0.0125000030 0.0891055578
0.0198678312 0.0125000030 0.0879036332
0.0173866961 0.0125000030 0.0918928188
0.0170009068 0.0125000030 0.0912030049
0.0036063031 0.0125000030 0.0960145670
0.0057187115 0.0125000030 0.0910943072
0.0001163262 0.0125000030 0.0953391080
-0.0013478727 0.0125000030 0.0892776074
-0.0067645621 0.0125000030 0.0969839040
-0.0090880263 0.0125000030 0.0880886419
-0.0117311880 0.0125000030 0.0928986587
-0.0165057569 0.0125000030 0.0916653919
-0.0219140047 0.0125000030 0.0892632171
-0.0291126338 0.0125000030 0.0889893556
-0.0416130590 0.0125000030 0.0844206414
-0.0374851555 0.0125000030 0.0849801137
-0.0134517220 0.0125000030 0.0200450683
-0.0078662439 0.0125000030 0.0100409329
-0.0124074612 0.0125000030 0.0157718883
-0.0017826343 0.0125000030 0.0040504814
-0.0104962757 0.0125000030 0.0076699594
-0.0071965641 0.0125000030 0.0104375449
-0.0108886111 0.0125000030 0.0098165607
-0.0111251207 0.0125000030 0.0209480322
-0.0018076031 0.0125000030 0.0083546599
-0.0046951089 0.0125000030 0.0134375654
-0.0047276346 0.0125000030 0.0204430302
-0.0062182954 0.0125000030 0.0269909145
-0.0056048448 0.0125000030 0.0126863825
-0.0021881546 0.0125000030 0.0084786995
-0.0033047676 0.0125000030 0.0202755666
0.0058736236 0.0125000030 0.0069522522
0.0000051417 0.0125000030 0.0012254568
0.0071480303 0.0125000030 0.0100178899
0.0042764510 0.0125000030 0.0153602783
0.0047280960 0.0125000030 0.0118162231
0.0010812365 0.0125000030 0.0216332733
0.0121677142 0.0125000030 0.0099261863
0.0128502304 0.0125000030 0.0094268096
0.0077761494 0.0125000030 0.0237149437
0.0113275094 0.0125000030 0.0263868071
0.0106794869 0.0125000030 0.0247160397
0.0080549469 0.0125000030 0.0248105373
0.0069834629 0.0125000030 0.0239452789
0.0148879389 0.0125000030 0.0096473375
0.0164335504 0.0125000030 0.0071090501
-0.0131516921 0.0125000030 0.0315904810
-0.0149873411 0.0125000030 0.0535788356
-0.0118925473 0.0125000030 0.0322321570
-0.0084651438 0.0125000030 0.0395448854
-0.0067749533 0.0125000030 0.0357695333
-0.0078102827 0.0125000030 0.0406328771
-0.0074528423 0.0125000030 0.0426297497
-0.0103712083 0.0125000030 0.0297642147
-0.0067265199 0.0125000030 0.0299739265
-0.0050419162 0.0125000030 0.0350962900
-0.0118655800 0.0125000030 0.0456911385
-0.0069558486 0.0125000030 0.0582675651
-0.0012847128 0.0125000030 0.0525971260
-0.0003996031 0.0125000030 0.0336039065
-0.0061709926 0.0125000030 0.0640525401
-0.0029803216 0.0125000030 0.0422390937
-0.0044017567 0.0125000030 0.0424739734
-0.0088906301 0.0125000030 0.0648171501
-0.0015367412 0.0125000030 0.0473654072
-0.0012001318 0.0125000030 0.0552571083
0.0010436228 0.0125000030 0.0624867969
0.0046375556 0.0125000030 0.0288070636
0.0002684871 0.0125000030 0.0444633389
0.0008871687 0.0125000030 0.0602242369
0.0096932147 0.0125000030 0.0368163510
0.0005383470 0.0125000030 0.0502948928
0.0062490486 0.0125000030 0.0416078504
0.0031731371 0.0125000030 0.0334373238
0.0099643628 0.0125000030 0.0296594169
0.0087117163 0.0125000030 0.0533738190
0.0036619814 0.0125000030 0.0637439773
0.0125337445 0.0125000030 0.0472439870
0.0111857567 0.0125000030 0.0509164239
0.0070745875 0.0125000030 0.0498610212
0.0094381691 0.0125000030 0.0488393104
0.0113470220 0.0125000030 0.0456601132
0.0114105408 0.0125000030 0.0382644182
0.0062443465 0.0125000030 0.0564767181
0.0132700763 0.0125000030 0.0345033478
0.0135356253 0.0125000030 0.0346886059
-0.0276827292 0.0125000030 0.0699123510
-0.0227686130 0.0125000030 0.0681116653
-0.0237075500 0.0125000030 0.0705542457
-0.0151412706 0.0125000030 0.0763570069
-0.0151012723 0.0125000030 0.0718289517
-0.0152709203 0.0125000030 0.0768285812
-0.0061638542 0.0125000030 0.0694051087
-0.0083772794 0.0125000030 0.0684052841
-0.0128053025 0.0125000030 0.0698885192
-0.0068913874 0.0125000030 0.0727070460
-0.0026428267 0.0125000030 0.0699944595
0.0010929912 0.0125000030 0.0693704442
0.0045061453 0.0125000030 0.0702351497
0.0051011617 0.0125000030 0.0707327476
0.0103758453 0.0125000030 0.0718750516
0.0127975387 0.0125000030 0.0734892122
0.0108973221 0.0125000030 0.0712242659
0.0228913716 0.0125000030 0.0663456835
0.0168869468 0.0125000030 0.0671213118
0.0221425507 0.0125000030 0.0726498042
0.0236474597 0.0125000030 0.0695773498
0.0252352275 0.0125000030 0.0673811445
0.0243533852 0.0125000030 0.0712175682
0.0316044745 0.0125000030 0.0689200579
-0.0236294749 0.0125000030 0.0789653710
-0.0147265522 0.0125000030 0.0823535208
-0.0042931238 0.0125000030 0.0771633793
-0.0069128919 0.0125000030 0.0789442787
-0.0118513029 0.0125000030 0.0824759411
0.0016555428 0.0125000030 0.0788969516
0.0010756555 0.0125000030 0.0805138420
0.0095721683 0.0125000030 0.0825632770
0.0138600967 0.0125000030 0.0817883249
0.0170489026 0.0125000030 0.0812488375
0.0233028841 0.0125000030 0.0801409312
-0.0244816953 0.0125000030 0.0861233245
-0.0199751170 0.0125000030 0.0854541052
-0.0094315167 0.0125000030 0.0830968167
-0.0045693572 0.0125000030 0.0838777591
-0.0020433240 0.0125000030 0.0872262064
0.0075141331 0.0125000030 0.0831915516
0.0060154136 0.0125000030 0.0862550097
0.0179663516 0.0125000030 0.0842130875
0.0183233092 0.0125000030 0.0856845684
0.0273500926 0.0125000030 0.0851680158
-0.0429255221 0.0122079164 0.0792779643
0.0095266900 0.0122463185 0.0958883674
-0.0099067927 0.0118602818 0.0955082615
-0.0163661005 0.0117996487 0.0052811630
0.0271481641 0.0103755353 0.0815529470
-0.0426630834 0.0123187871 0.0728184545
-0.0211458494 0.0123541446 0.0078628013
-0.0211550899 0.0123449044 0.0428622317
-0.0015020033 0.0124632241 0.0004632193
0.0213445594 0.0121554377 0.0300174883
0.0246800158 0.0124880418 0.0630299251
0.0384509472 0.0121786091 0.0886560121
-0.0239365057 0.0122275674 0.0927670303
0.0061041426 0.0110999942 0.0941228390
-0.0181348402 0.0110999942 0.0546969273
0.0172225802 0.0110999942 0.0510303622
-0.0450000055 0.0109282933 0.0805987920
-0.0363232765 0.0110534002 0.0697149767
-0.0258378428 0.0108586968 0.0637441998
0.0376569366 0.0102590599 0.0700120543
0.0244996180 0.0110220474 0.0618472185
0.0445810830 0.0111048412 0.0757529549
0.0446633699 0.0113955838 0.0830024902
0.0301456234 0.0105516972 0.0912233368
0.0268310653 0.0115780532 0.0921737713
-0.0249721817 0.0100474140 0.0927067977
-0.0134553893 0.0100507016 0.0960091877
-0.0216666013 0.0110150203 0.0936546585
0.0067415994 0.0107614873 0.0947150600
-0.0177245130 0.0091923082 0.0538761855
-0.0167357603 0.0103670094 0.0041932241
0.0168586180 0.0084999949 0.0045209001
-0.0195999940 0.0084999949 0.0023001641
-0.0221262767 0.0100000054 0.0860943084
-0.0343031736 0.0100000054 0.0785174575
0.0182629167 0.0100000054 0.0560487319
0.0443310116 0.0100000054 0.0825400126
0.0404200705 0.0100000054 0.0732881985
0.0353832123 0.0100000054 0.0706780950
-0.0444444253 0.0100000054 0.0764221887
-0.0405453660 0.0100000054 0.0854727329
0.0128201719 0.0100000054 0.0902638142
0.0108241650 0.0100000054 0.0944352473
0.0180985367 0.0100000054 0.0897504103
0.0249085585 0.0100000054 0.0910914080
0.0181132963 0.0100000054 0.0920766959
0.0246081156 0.0100000054 0.0877262986
0.0287776306 0.0100000054 0.0857907708
0.0104383918 0.0100000054 0.0959222744
0.0394931971 0.0100000054 0.0820342585
-0.0136188156 0.0100000054 0.0954142310
-0.0348966347 0.0100000054 0.0875865697
-0.0404743894 0.0100000054 0.0841698756
-0.0354622343 0.0100000054 0.0894509305
-0.0113496847 0.0100000054 0.0924367421
-0.0216361109 0.0100000054 0.0902277643
-0.0115907073 0.0100000054 0.0917916777
-0.0241625459 0.0100000054 0.0867910662
-0.0159362781 0.0100000054 0.0572156073
-0.0208934796 0.0100000054 0.0649375024
-0.0276527645 0.0100000054 0.0731671404
-0.0330395657 0.0100000054 0.0758938548
-0.0338956124 0.0100000054 0.0770345837
-0.0349712148 0.0100000054 0.0751529971
0.0028266038 0.0100000054 0.0540641768
0.0115659448 0.0100000054 0.0859821770
0.0088467949 0.0100000054 0.0908274360
0.0002423982 0.0100000054 0.0908472270
0.0059723063 0.0100000054 0.0919867961
0.0036236932 0.0100000054 0.0900174722
-0.0118411380 0.0100000054 0.0809396133
0.0193985539 0.0100000054 0.0800733501
-0.0041301612 0.0100000054 0.0887401542
-0.0065085815 0.0100000054 0.0858444929
-0.0088467263 0.0100000054 0.0879038981
0.0143022133 0.0100000054 0.0827105886
-0.0052770351 0.0100000054 0.0835921627
0.0061112942 0.0100000054 0.0818822728
-0.0077040881 0.0100000054 0.0875816936
0.0231573744 0.0100000054 0.0787733439
-0.0127298156 0.0100000054 0.0870689888
-0.0223283604 0.0100000054 0.0827612510
-0.0021951078 0.0100000054 0.0791240669
-0.0062025082 0.0100000054 0.0797555327
0.0037591310 0.0100000054 0.0646738181
-0.0029711301 0.0100000054 0.0674776375
0.0000916358 0.0100000054 0.0759130141
-0.0053669231 0.0100000054 0.0681493163
-0.0257474130 0.0100000054 0.0791681659
-0.0110575082 0.0100000054 0.0565759874
0.0059406440 0.0100000054 0.0778496264
-0.0199461950 0.0100000054 0.0752526769
0.0007893110 0.0100000054 0.0713010100
0.0040391275 0.0100000054 0.0722802299
0.0055589219 0.0100000054 0.0709619344
0.0261215603 0.0100000054 0.0747823009
0.0176477217 0.0100000054 0.0683248004
-0.0145218496 0.0100000054 0.0788918645
0.0253229869 0.0100000054 0.0764617967
-0.0179904791 0.0100000054 0.0771054003
-0.0086858462 0.0100000054 0.0674309007
-0.0036668282 0.0100000054 0.0757309077
0.0269848877 0.0100000054 0.0754067222
-0.0088914040 0.0100000054 0.0786073508
-0.0102414553 0.0100000054 0.0715360668
-0.0028483822 0.0100000054 0.0705725201
-0.0104595002 0.0100000054 0.0681481144
-0.0002463141 0.0100000054 0.0755647608
0.0267170149 0.0100000054 0.0767811289
-0.0106614724 0.0100000054 0.0737448011
-0.0045924009 0.0100000054 0.0590535002
0.0103312539 0.0100000054 0.0682915429
-0.0102871257 0.0100000054 0.0706706122
-0.0135525606 0.0100000054 0.0730313985
0.0051685612 0.0100000054 0.0728578516
0.0153425075 0.0100000054 0.0626675397
0.0219197916 0.0100000054 0.0638099812
0.0188969658 0.0100000054 0.0600284629
0.0245600869 0.0100000054 0.0642933023
0.0141870036 0.0100000054 0.0587055263
0.0189391263 0.0100000054 0.0607412895
0.0288402463 0.0100000054 0.0705033387
0.0168935091 0.0100000054 0.0596346316
0.0032596425 0.0100000054 0.0559717241
0.0117284475 0.0100000054 0.0557473627
-0.0089016233 0.0100000054 0.0551496023
0.0361034248 0.0100000054 0.0738384197
0.0200280208 0.0100000054 0.0567261710
-0.0385645304 0.0100000054 0.0741673739
-0.0337753957 0.0100000054 0.0723539880
-0.0206788831 0.0100000054 0.0571400757
0.0088321777 0.0066176543 0.0945679957
-0.0069862388 0.0041151542 0.0940418988
0.0190235060 0.0047280437 0.0525055529
-0.0180611174 0.0018429470 0.0535086234
-0.0185934006 0.0085923589 0.0545909978
0.0176560558 0.0080000013 0.0015974169
-0.0178950296 0.0032498975 0.0044968745
-0.0142744144 -0.0108000040 0.0080262125
-0.0197417959 -0.0108000040 0.0401577110
0.0082521115 -0.0108000040 0.0014200606
0.0039718199 -0.0108000040 0.0481036738
0.0005413421 -0.0108000040 0.0486600846
0.0195740790 -0.0108000040 0.0145759036
0.0149576397 -0.0108000040 0.0078568599
-0.0204999931 -0.0102979901 0.0373491991
0.0114999972 -0.0106106900 0.0044730046
0.0205000006 -0.0103052545 0.0435930609
0.0099179947 -0.0102501055 0.0489999987
-0.0195000060 -0.0106201889 0.0238384428
0.0053028047 -0.0101333168 0.0480000004
0.0120923964 -0.0106459827 0.0080999993
0.0116705508 -0.0101999938 0.0487823704
0.0201459544 -0.0101999938 0.0228536004
0.0164649394 -0.0101999938 0.0071692126
-0.0198671763 -0.0101999938 0.0125456358
-0.0141075595 -0.0101999938 0.0481756748
0.0050341007 -0.0101999938 0.0014577386
0.0048723437 -0.0100000054 0.0487129516
-0.0160173284 -0.0095886525 0.0047120023
-0.0178067056 -0.0098369864 0.0550351913
0.0160366585 -0.0099142203 0.0541760489
-0.0154250739 0.0099966424 0.0028591425
0.0189213481 0.0098172979 0.0011795822
-0.0194370744 0.0096968089 0.0505946613
0.0153830637 0.0098862739 0.0524278260
-0.0041530890 0.0100000054 0.0016544958
-0.0170067567 0.0100000054 0.0080571905
-0.0198379550 0.0100000054 0.0441854484
-0.0170336644 0.0100000054 0.0487930790
0.0025045833 0.0100000054 0.0486315431
0.0198212361 0.0100000054 0.0177807594
0.0194326281 0.0105328415 0.0093485635
0.0194999985 0.0106354917 0.0443644158
-0.0071443538 0.0105278082 0.0480000004
-0.0195000060 0.0101758382 0.0132510103
-0.0043525827 0.0102822330 0.0017999967
-0.0114221649 0.0108000040 0.0057623573
0.0110001323 0.0108000040 0.0033836337
0.0201840094 0.0108000040 0.0207300489
0.0168282293 0.0108000040 0.0484443402
-0.0134827779 0.0108000040 0.0486556085
-0.0196241668 0.0108000040 0.0302210914
-0.0118629921 0.0108000040 0.0072202915
-0.0204999931 0.0104054185 0.0387404784
0.0049246391 0.0105901379 0.0008000022
0.0205000006 0.0101820016 0.0413451027
0.0195106367 0.0106088200 0.0484044277
0.0164197994 0.0101548783 0.0489999987
-0.0100520765 0.0111408901 0.0959547473
-0.0082524833 0.0050999969 0.0951391242
-0.0094387182 0.0069263569 0.0936131069
-0.0065062919 0.0100525783 0.0940397507
-0.0094904660 0.0077581487 0.0940601126
-0.0194414991 0.0122857523 0.0018680063
-0.0194072703 0.0050999969 0.0034266809
-0.0190695990 0.0053724563 0.0024744065
-0.0169192425 0.0099253357 0.0045144430
-0.0178747995 -0.0122453645 0.0515000001
-0.0157471513 -0.0114415080 0.0540281119
-0.0195563640 -0.0110999942 0.0522468738
-0.0177659628 -0.0070115910 0.0510370665
-0.0182485945 -0.0108922567 0.0539606248
0.0172895487 -0.0118470582 0.0027305289
0.0173216801 -0.0120951636 0.0057394446
0.0191235891 -0.0110999942 0.0047478784
0.0172140909 -0.0071996764 0.0022376763
0.0186776494 -0.0087213547 0.0048174817
-0.0196986362 -0.0126284941 0.0040979459
-0.0187147224 -0.0111378021 0.0062456185
-0.0185369430 -0.0110999942 0.0052832441
-0.0193906062 -0.0063070694 0.0029658835
-0.0165983384 -0.0064174129 0.0040124358
-0.0084576584 -0.0126068713 0.0922249632
-0.0067692185 -0.0050999969 0.0947761131
-0.0065949834 -0.0110408277 0.0934941669
-0.0093856010 -0.0105562826 0.0945439584
0.0190161661 -0.0116589433 0.0525630648
0.0200255046 -0.0123601130 0.0519267910
0.0163290595 -0.0110999942 0.0535206934
0.0185811943 -0.0069658405 0.0511333720
0.0171602048 -0.0094945828 0.0537348695
0.0086815608 -0.0124099576 0.0948194912
0.0078209061 -0.0123532395 0.0961123335
0.0065086143 -0.0110999942 0.0916105041
0.0078172273 -0.0072999851 0.0925289470
0.0081029802 -0.0074223563 0.0954836885
