-0.0091227659 0.0174479176 -0.0177831877
-0.0140304325 0.0156000070 -0.0143785420
-0.0135358078 0.0156000070 -0.0164869538
-0.0120117727 0.0156000070 -0.0200304327
-0.0115351549 0.0156000070 -0.0152130280
-0.0087777051 0.0156000070 -0.0206862897
-0.0127475152 0.0166948230 -0.0207848818
-0.0517020548 0.0180000030 -0.0023164633
-0.0500353562 0.0180000030 -0.0033782649
-0.0374485889 0.0180000030 -0.0076355809
-0.0292225253 0.0180000030 -0.0094738390
-0.0310313207 0.0180000030 -0.0088005938
-0.0304299537 0.0180000030 -0.0086597797
-0.0289035557 0.0180000030 -0.0094590145
-0.0427111695 0.0180000030 -0.0099280767
-0.0374351323 0.0180000030 -0.0117894357
-0.0460645900 0.0180000030 -0.0082302315
-0.0455358334 0.0180000030 -0.0081851419
-0.0420759417 0.0180000030 -0.0098214142
-0.0316943138 0.0180000030 -0.0112623421
-0.0156914804 0.0180000030 -0.0167749198
-0.0149406926 0.0180000030 -0.0184174954
-0.0377190395 0.0180000030 -0.0098029902
-0.0190903182 0.0180000030 -0.0162659373
-0.0324652456 0.0180000030 -0.0115336356
-0.0507968222 0.0180000030 -0.0064025407
-0.0253971776 0.0180000030 -0.0128069047
-0.0137111906 0.0180000030 -0.0143047219
-0.0291892170 0.0180000030 -0.0105628457
-0.0224727339 0.0180000030 -0.0124695960
-0.0197969569 0.0180000030 -0.0134789665
-0.0175068464 0.0180000030 -0.0141067877
-0.0254641782 0.0180000030 -0.0108135744
-0.0138009939 0.0180000030 -0.0164555035
-0.0096277655 0.0180000030 -0.0146195856
-0.0073238454 0.0180000030 -0.0188264357
-0.0112233298 0.0180000030 -0.0193765983
-0.0121991573 0.0159251751 -0.0138821051
-0.0338725698 0.0179010272 -0.0070432009
-0.0445794961 0.0029631637 -0.0049367024
-0.0447863115 0.0126161373 -0.0039919613
-0.0450187357 0.0066317569 -0.0047097279
-0.0454886843 0.0087339657 -0.0061610109
-0.0447840296 0.0128196795 -0.0039849145
-0.0451773768 0.0119177147 -0.0051996393
-0.0448232931 0.0138474924 -0.0041061670
-0.0461314819 0.0127239929 -0.0081460820
-0.0449190900 0.0148623798 -0.0054191306
-0.0238855785 0.0155000053 -0.0126670395
-0.0233069981 0.0155000053 -0.0134965337
-0.0339470024 0.0155000053 -0.0119145662
-0.0269840896 0.0155000053 -0.0136597866
-0.0291266300 0.0155000053 -0.0115738679
-0.0354105297 0.0155000053 -0.0106952245
-0.0363361352 0.0155000053 -0.0106458537
-0.0371816346 0.0155000053 -0.0121867398
-0.0426224303 0.0155000053 -0.0083656501
-0.0391240383 0.0155000053 -0.0076011159
-0.0363046614 0.0155000053 -0.0094092210
-0.0340171282 0.0155000053 -0.0071053278
-0.0349080013 0.0155000053 -0.0078912389
-0.0375443816 0.0155000053 -0.0091317571
-0.0341797816 0.0155000053 -0.0082882208
-0.0393534627 0.0155000053 -0.0072497726
-0.0208494267 0.0154586485 -0.0133458712
-0.0191979268 0.0141797405 -0.0124574881
-0.0194957080 0.0137037307 -0.0135334288
-0.0194505716 0.0107165910 -0.0133940393
-0.0189681667 0.0122231972 -0.0119042844
-0.0200048841 0.0084120628 -0.0151058581
-0.0196523671 0.0073929582 -0.0140172209
-0.0207912332 0.0113373344 -0.0175342484
-0.0197682067 0.0037538167 -0.0141608299
-0.0201282575 0.0026786239 -0.0127816700
-0.0337419774 0.0024999941 -0.0077707195
-0.0228923997 0.0024999941 -0.0163708691
-0.0241987453 0.0024999941 -0.0139208797
-0.0380361145 0.0024999941 -0.0064457629
-0.0234542063 0.0024999941 -0.0138946747
-0.0244797715 0.0024999941 -0.0101036787
-0.0268997711 0.0024999941 -0.0115346109
-0.0225254823 0.0024999941 -0.0116165158
-0.0411908962 0.0024999941 -0.0054855907
-0.0437182291 0.0024999941 -0.0093697630
-0.0317557529 0.0024999941 -0.0131893550
-0.0339506420 0.0024999941 -0.0114295128
-0.0359811755 0.0024999941 -0.0090312487
-0.0425261629 0.0024999941 -0.0085334034
-0.0363223022 0.0024999941 -0.0123768392
-0.0408293916 0.0024999941 -0.0096609315
-0.0156937045 0.0072506251 -0.0131533355
-0.0171615996 0.0140351498 -0.0176864835
-0.0162767894 0.0124077978 -0.0149540159
-0.0170481168 0.0046173952 -0.0173360263
-0.0166670892 0.0040827419 -0.0161593385
-0.0168139035 0.0093992434 -0.0166127298
-0.0171041578 0.0093293932 -0.0175090919
-0.0160317772 0.0148609894 -0.0148853736
-0.0154163146 0.0174973903 -0.0193606826
-0.0172292500 0.0038130969 -0.0179709882
-0.0160678768 0.0024167930 -0.0189745819
-0.0113810404 0.0009269798 -0.0139347859
-0.0178722815 0.0142088423 -0.0122232523
-0.0140006828 0.0163088501 -0.0134769424
-0.0163630407 0.0035897198 -0.0127119623
-0.0261662620 0.0009945680 -0.0095375399
-0.0233410429 0.0020713977 -0.0104523845
-0.0275761498 0.0002360616 -0.0090810000
-0.0354186886 0.0009084688 -0.0065414619
-0.0250149809 0.0007568127 -0.0099103436
-0.0452449196 0.0001178537 -0.0033595804
-0.0422610357 0.0016654351 -0.0043258122
-0.0333572175 0.0020789101 -0.0072090000
-0.0161169609 0.0084917177 -0.0127916465
-0.0158187898 0.0097932996 -0.0128881981
-0.0174928189 0.0041943223 -0.0123461260
-0.0179148991 0.0059496491 -0.0122094511
-0.0361478673 0.0176463767 -0.0063053472
-0.0385841376 0.0163852153 -0.0055164498
-0.0342364552 0.0177005894 -0.0069242917
-0.0264349379 0.0172255024 -0.0094505451
-0.0272459844 0.0166371067 -0.0091879160
-0.0296380231 0.0158856135 -0.0084133338
-0.0364920980 0.0156998076 -0.0061938833
-0.0165231905 0.0169150503 -0.0126601149
-0.0447736652 0.0120124886 -0.0035121865
-0.0481967398 0.0039401974 -0.0018647350
-0.0478190322 0.0158187066 -0.0021026000
-0.0480514707 0.0026740389 -0.0019562196
-0.0467061090 0.0120950633 -0.0027610371
-0.0468274045 0.0041747377 -0.0027103091
-0.0465069758 0.0046315438 -0.0028443182
-0.0453997541 0.0016537746 -0.0033073784
-0.0515319642 0.0123179830 -0.0083860673
-0.0508455841 0.0128415366 -0.0084905180
-0.0480946430 0.0116837466 -0.0088212009
-0.0475694866 0.0133677792 -0.0089442725
-0.0480717378 0.0012128450 -0.0088265688
-0.0495197971 0.0101630166 -0.0086027995
-0.0495331336 0.0103805328 -0.0086019408
-0.0492690250 0.0015419043 -0.0086189476
-0.0166002128 0.0004850076 -0.0189418967
-0.0207643149 0.0155388159 -0.0175934865
-0.0408773281 0.0173130122 -0.0110805903
-0.0166298753 0.0177884514 -0.0189322927
-0.0267757794 0.0170207986 -0.0156468884
-0.0247784424 0.0171156074 -0.0162936575
-0.0463227683 0.0170663455 -0.0093172785
-0.0395811778 0.0163705419 -0.0115003070
-0.0431341401 0.0164931747 -0.0103498056
-0.0460050346 0.0163143741 -0.0094201684
-0.0469026517 0.0127831942 -0.0091295044
-0.0214509097 0.0002559187 -0.0173711683
-0.0300840659 0.0001645117 -0.0145756185
-0.0451267265 0.0002322362 -0.0097045726
-0.0317702990 0.0002551540 -0.0140295905
-0.0362169887 0.0004875852 -0.0125896845
-0.0332625682 0.0022605599 -0.0135463708
-0.0247522081 0.0021814112 -0.0163021497
-0.0324572549 0.0015775730 -0.0138071478
-0.0180887056 0.0025500624 -0.0184598896
-0.0186532240 0.0073707916 -0.0182771051
-0.0185481724 0.0075554479 -0.0183111231
-0.0196900406 0.0130537668 -0.0179413614
-0.0196684586 0.0128943428 -0.0179483501
-0.0156972637 0.0015996878 -0.0192431844
-0.0128416014 0.0024000073 -0.0164352620
-0.0123774635 0.0024000073 -0.0179011189
-0.0125482418 0.0024000073 -0.0153091949
-0.0094577195 0.0024000073 -0.0164535497
-0.0113095372 0.0024000073 -0.0192090613
-0.0225760659 0.0000312073 -0.0107723969
-0.0132993238 0.0000628315 -0.0204060651
-0.0100651256 0.0011535668 -0.0190884925
-0.0531444737 -0.0000000035 -0.0052486918
-0.0534627104 -0.0000000035 -0.0042415766
-0.0478605062 -0.0000000035 -0.0084355199
-0.0407595264 -0.0000000035 -0.0093699994
-0.0402369119 -0.0000000035 -0.0104793939
-0.0465664792 -0.0000000035 -0.0075006799
-0.0419965831 -0.0000000035 -0.0089177656
-0.0380930521 -0.0000000035 -0.0094084949
-0.0387892007 -0.0000000035 -0.0092455238
-0.0175659240 -0.0000000035 -0.0181582618
-0.0262622249 -0.0000000035 -0.0140908212
-0.0217410835 -0.0000000035 -0.0153082047
-0.0119601191 -0.0000000035 -0.0190095095
-0.0123567841 -0.0000000035 -0.0172639721
-0.0288592444 -0.0000000035 -0.0116028421
-0.0241716287 -0.0000000035 -0.0113903805
-0.0216079481 -0.0000000035 -0.0140464043
-0.0212370754 -0.0000000035 -0.0122975187
-0.0352689625 -0.0000000035 -0.0087836746
-0.0384886350 -0.0000000035 -0.0089004711
-0.0211023863 -0.0000000035 -0.0121089751
-0.0303037927 -0.0000000035 -0.0095536012
-0.0390339712 -0.0000000035 -0.0058627483
-0.0317083520 -0.0000000035 -0.0090219945
-0.0338908310 -0.0000000035 -0.0080199579
-0.0428533877 -0.0000000035 -0.0049518016
-0.0390272958 -0.0000000035 -0.0061827748
-0.0476765270 -0.0000000035 -0.0028645806
-0.0113550313 -0.0000000035 -0.0158447796
-0.0089229847 -0.0000000035 -0.0189991091
-0.0113800101 0.0166503118 -0.0189544931
-0.0105584272 0.0162019805 -0.0162811713
-0.0095315225 0.0172422162 -0.0212763565
-0.0069876276 0.0160010252 -0.0185430009
-0.0079629597 0.0163180462 -0.0151460457
-0.0114486252 0.0023787951 -0.0213407677
-0.0080716387 0.0015071888 -0.0204851221
-0.0071652162 0.0013807288 -0.0163873063
-0.0522993449 0.0121437950 -0.0080675011
-0.0523341592 0.0071004825 -0.0080436105
-0.0518967853 0.0019609344 -0.0082669932
-0.0530914474 0.0087863357 -0.0075203635
-0.0536568964 0.0037276778 -0.0068870435
-0.0539164123 0.0096374151 -0.0064099678
-0.0541362109 0.0062571884 -0.0058525476
-0.0539829857 0.0026062186 -0.0062037676
-0.0542601974 0.0067419150 -0.0052993610
-0.0542829666 0.0066770535 -0.0046839479
-0.0542892448 0.0171519017 -0.0044483849
-0.0541275523 0.0088721618 -0.0037187207
-0.0539182291 0.0163702455 -0.0031329071
-0.0538523650 0.0132026870 -0.0029954927
-0.0535409525 0.0093957042 -0.0025568452
-0.0531042622 0.0071118111 -0.0020385164
-0.0523249543 0.0068519848 -0.0015144406
-0.0524891970 0.0156848594 -0.0016008190
-0.0519337826 0.0138407283 -0.0013016008
-0.0513588526 0.0077617336 -0.0011668484
-0.0508056496 0.0100242960 -0.0010617802
-0.0499962432 0.0082117883 -0.0011289559
-0.0498616598 0.0151377364 -0.0011490366
-0.0492297118 0.0046349825 -0.0013133151
-0.0489715189 0.0047169497 -0.0014473778
-0.0487375465 0.0076465190 -0.0015674327
-0.0119546539 0.0009258823 -0.0182744671
-0.0500524420 0.0044060455 -0.0034328639
-0.0499438372 0.0140785841 -0.0034674314
-0.0495104331 0.0036596521 -0.0037951011
-0.0492207536 0.0099639773 -0.0041484331
-0.0492158526 0.0176386875 -0.0041708286
-0.0490970239 0.0000510773 -0.0049609613
-0.0492332048 0.0069359127 -0.0053887973
-0.0497624414 0.0083565141 -0.0060211474
-0.0500789183 0.0129262125 -0.0061679125
-0.0499048490 0.0177286329 -0.0061298202
-0.0511695838 0.0169624953 -0.0061183074
-0.0516194185 0.0009974048 -0.0057829725
-0.0518638733 0.0029314318 -0.0055147308
-0.0520586185 0.0103330461 -0.0047355751
-0.0519745849 0.0007280819 -0.0044474037
-0.0518412335 0.0103392048 -0.0040284468
-0.0516164721 0.0063057564 -0.0037901898
-0.0510022886 0.0052607362 -0.0034036308
-0.0505728411 0.0174952942 -0.0033096529
0.0075668281 0.0114355987 -0.0033377596
0.0127493046 0.0085369387 -0.0033686998
0.0107045495 0.0143360201 -0.0033564923
0.0121595306 0.0083025938 -0.0033651787
0.0157138357 0.0070589332 -0.0033863985
0.0116634355 0.0092730748 -0.0033622170
0.0142372897 0.0077988598 -0.0033775833
0.0065225545 0.0142655382 -0.0033315252
0.0145499129 0.0149655273 -0.0033794497
0.0146579238 0.0060172189 -0.0033800945
0.0039502002 0.0085403006 -0.0033161678
0.0083010703 0.0047883772 -0.0033421432
0.0041367066 0.0092816010 -0.0033172813
0.0026018256 0.0031686939 -0.0033081179
0.0050718417 0.0035226403 -0.0033228642
0.0033249926 0.0070340792 -0.0033124353
0.0124908431 0.0053357300 -0.0033671567
0.0070001864 0.0034929388 -0.0033343767
0.0098067071 0.0030532716 -0.0033511320
0.0077257326 0.0042222301 -0.0033387083
0.0066854906 0.0040884178 -0.0033324979
-0.0116256511 0.0136448021 -0.0032231777
-0.0032637704 0.0109049858 -0.0032730994
-0.0064428942 0.0116497013 -0.0032541195
-0.0046942836 0.0116158660 -0.0032645590
-0.0033334271 0.0136676069 -0.0032726835
-0.0003420487 0.0088463186 -0.0032905425
-0.0005273444 0.0113463816 -0.0032894363
-0.0019613359 0.0099134536 -0.0032808751
-0.0095386020 0.0141569742 -0.0032356377
-0.0097322575 0.0058602320 -0.0032344815
-0.0111566847 0.0091452360 -0.0032259775
-0.0104670812 0.0104168457 -0.0032300945
-0.0069474983 0.0055091629 -0.0032511070
-0.0123958015 0.0035464824 -0.0032185798
-0.0095696192 0.0070931434 -0.0032354525
-0.0061523495 0.0067324633 -0.0032558541
-0.0065197580 0.0070876357 -0.0032536606
-0.0083720024 0.0048516071 -0.0032426025
-0.0140283472 0.0097731598 -0.0047062380
-0.0140218362 0.0122742442 -0.0036156989
-0.0152837527 0.0149999978 -0.0004187169
-0.0028667109 0.0149999978 -0.0011903695
-0.0085385312 0.0149999978 -0.0017394467
-0.0100332604 0.0149999978 -0.0022534593
-0.0131052223 0.0149999978 -0.0027635572
-0.0145444036 0.0149999978 -0.0051483894
0.0104316464 0.0149999978 -0.0037006700
0.0075185562 0.0149999978 -0.0045014433
0.0028089147 0.0149999978 -0.0054639265
0.0013747984 0.0149999978 -0.0046766741
0.0120550139 0.0149999978 -0.0063556930
0.0159796854 0.0074677745 -0.0034506109
0.0159727177 0.0102137765 -0.0046176462
0.0144834317 0.0030000033 -0.0053010551
0.0099166843 0.0030000033 -0.0050820236
0.0106756983 0.0030000033 -0.0046283857
0.0127611381 0.0030000033 -0.0050290788
0.0144331852 0.0030000033 -0.0041129941
-0.0151693761 0.0030000033 -0.0048865881
-0.0099741553 0.0030000033 -0.0021366568
-0.0013199032 0.0030000033 -0.0032023446
-0.0118017494 0.0030000033 -0.0006811674
-0.0008580443 0.0030000033 -0.0010666909
-0.0139202790 0.0072221111 -0.0047095156
-0.0135935564 0.0144717498 -0.0047114663
-0.0155346186 0.0031023333 -0.0057523098
-0.0155221876 0.0066112230 -0.0036701262
-0.0155371453 0.0066727669 -0.0061755257
-0.0155078617 0.0067179860 -0.0012705698
-0.0155159112 0.0107055463 -0.0026188456
-0.0155151303 0.0147198627 -0.0024880384
-0.0155274645 0.0113564852 -0.0045540012
0.0067798413 0.0153048972 -0.0003744681
0.0108423932 0.0146132161 -0.0000574336
-0.0106927405 0.0149980448 -0.0004286120
-0.0030170858 0.0147524623 -0.0003840088
-0.0000069130 0.0028333493 -0.0011575557
-0.0000437951 0.0100701001 -0.0073353064
-0.0000437141 0.0125019030 -0.0073217419
-0.0000414260 0.0116209798 -0.0069384910
-0.0000065765 0.0007936139 -0.0011012023
-0.0000222091 0.0178889318 -0.0037196624
-0.0000223577 0.0010090093 -0.0037445418
-0.0138710684 0.0142547869 -0.0062098466
-0.0134975993 0.0125005428 -0.0062120762
-0.0131797809 0.0065972211 -0.0062139736
0.0149450641 0.0143154509 -0.0063818832
0.0010463424 0.0034843551 -0.0062989060
0.0016829865 0.0030848797 -0.0063027068
0.0073780401 0.0040846881 -0.0063367070
0.0054742753 0.0059441238 -0.0063253413
0.0112927417 0.0096148932 -0.0063600783
0.0119432936 0.0093807790 -0.0063639622
0.0149272852 0.0040907355 -0.0063817770
0.0120349414 0.0052163832 -0.0063645094
0.0123469644 0.0065702015 -0.0063663722
0.0002751217 0.0058169948 -0.0062943017
0.0014119061 0.0142886240 -0.0063010884
0.0024442493 0.0099163205 -0.0063072517
0.0068065166 0.0108409085 -0.0063332950
0.0022635970 0.0061842065 -0.0063061731
0.0078103403 0.0104778353 -0.0063392879
0.0079902418 0.0101013975 -0.0063403620
0.0046160192 0.0141999430 -0.0063202174
0.0005017817 0.0082679595 -0.0062956549
0.0061762416 0.0121364124 -0.0063295321
0.0153732378 0.0053823802 -0.0048844024
0.0123678050 0.0026265063 -0.0000267691
0.0099372109 0.0027582454 -0.0004591251
0.0164613776 0.0032332192 -0.0005029133
0.0021050796 0.0033704306 -0.0002363262
-0.0130355995 0.0081428302 -0.0059242706
-0.0130303455 0.0069423623 -0.0050442711
-0.0153850648 0.0139185661 -0.0005447570
-0.0154809447 0.0148599920 -0.0008567470
-0.0067662968 0.0144709698 0.0000000054
-0.0066774728 0.0134983145 0.0000000054
0.0117882270 0.0145878499 0.0000000093
0.0051138200 0.0135749414 0.0000000093
0.0073547339 0.0165264608 -0.0001364419
0.0001935607 0.0159042487 -0.0000936886
0.0035580626 0.0160118667 -0.0001137752
0.0116890038 0.0000000121 -0.0022896042
0.0163944426 0.0000000121 -0.0038818791
0.0167858341 0.0000000121 -0.0027895459
0.0165508798 0.0000000121 -0.0008568597
0.0093203679 0.0000000121 -0.0045630191
0.0021399325 0.0000000121 -0.0057068301
0.0026878911 0.0000000121 -0.0039341477
0.0100509531 0.0000000121 -0.0034471802
0.0048057071 0.0000000121 -0.0038108410
0.0002123320 0.0000000121 -0.0023762961
0.0129114076 0.0000000121 -0.0051146646
0.0001862644 0.0000000121 -0.0060795749
0.0074637308 0.0000000121 -0.0077827088
0.0112116316 0.0000000121 -0.0061798133
0.0103757271 0.0000000121 -0.0072944454
0.0173864406 0.0179999899 -0.0036595743
0.0140699994 0.0179999899 -0.0000102450
0.0173538935 0.0179999899 -0.0031866583
0.0085278359 0.0179999899 -0.0000574569
0.0015532306 0.0179999899 -0.0003927018
0.0087708828 0.0179999899 -0.0059320712
0.0061915981 0.0179999899 -0.0050454785
0.0060425686 0.0179999899 -0.0057258437
0.0045024420 0.0179999899 -0.0038682247
0.0055762758 0.0179999899 -0.0043662236
0.0009839821 0.0179999899 -0.0060556774
0.0123384791 0.0179999899 -0.0060836529
0.0084272353 0.0179999899 -0.0031276693
0.0125945526 0.0179999899 -0.0039963724
0.0104139829 0.0179999899 -0.0051969878
0.0009599371 0.0033613783 -0.0077983973
0.0007347471 0.0096863741 -0.0077970529
0.0082690288 0.0039897831 -0.0078420338
0.0019883665 0.0046953180 -0.0078045372
0.0084383833 0.0051681467 -0.0078430448
0.0076432208 0.0074108064 -0.0078382976
0.0000914629 0.0027232091 -0.0077932124
0.0021483023 0.0024592833 -0.0078054920
0.0003741357 0.0151366252 -0.0077949000
0.0083141365 0.0021311982 -0.0078423031
0.0066491718 0.0066833240 -0.0078323630
0.0102718758 0.0014298424 -0.0078539911
0.0047516193 0.0078922275 -0.0078210343
0.0044457554 0.0097007679 -0.0078192082
0.0128593487 0.0022672185 -0.0078694387
0.0130779218 0.0071243089 -0.0078707436
0.0146353835 0.0033224962 -0.0078800419
0.0081992742 0.0165448568 -0.0078416173
0.0129243285 0.0064320428 -0.0078698267
0.0122444739 0.0088059759 -0.0078657678
0.0037872160 0.0149924454 -0.0078152766
0.0106603685 0.0124310252 -0.0078563105
0.0089175965 0.0090650288 -0.0078459058
0.0120869965 0.0143758514 -0.0078648277
0.0123365718 0.0107866504 -0.0078663177
0.0127643217 0.0137952697 -0.0078688714
0.0135735875 0.0081313825 -0.0078737028
0.0095203233 0.0092906498 -0.0078495042
0.0008007022 0.0178024558 -0.0077974466
0.0118226091 0.0078409318 -0.0078632492
0.0149634940 0.0094232149 -0.0061593103
0.0149686688 0.0050714781 -0.0052924959
0.0044761132 0.0035359868 0.0000000093
0.0122974964 0.0046377552 0.0000000093
0.0011563634 0.0035629120 0.0000000087
-0.0046871874 0.0042542953 0.0000000063
0.0012228242 0.0024181366 0.0000000047
0.0071422231 0.0014187322 0.0000000042
0.0174569938 0.0019256141 0.0000000090
0.0055367520 0.0126145290 -0.0001368844
0.0107339124 0.0128246761 -0.0005050415
0.0032956197 0.0130560756 -0.0005025353
-0.0030330419 0.0133820682 -0.0001865778
-0.0124716939 0.0133878033 -0.0000771148
0.0158824740 0.0106135360 -0.0001780385
-0.0090440436 0.0106488295 -0.0002143384
-0.0032984966 0.0108834472 -0.0004536889
-0.0000393584 0.0113387157 -0.0002778660
-0.0072254798 0.0111084632 -0.0004328181
0.0140516411 0.0093699148 -0.0000338379
-0.0075447193 0.0086239113 -0.0001802451
0.0108074189 0.0088401364 -0.0005142600
-0.0147086955 0.0090307674 -0.0003969149
-0.0037841724 0.0092460260 -0.0003739248
-0.0025618972 0.0093854583 -0.0001416816
0.0075972171 0.0066146094 -0.0001694959
0.0064002365 0.0067380173 -0.0004296840
0.0168496940 0.0070962024 -0.0005801816
0.0045472974 0.0072935146 -0.0003884866
-0.0030879204 0.0073854446 -0.0001654844
-0.0007987216 0.0046142034 -0.0001647345
0.0011010162 0.0047056998 -0.0003688103
-0.0026166529 0.0049125845 -0.0004661053
-0.0027434112 0.0053740680 -0.0002018470
-0.0008040751 0.0051045540 -0.0004731441
0.0050817491 0.0166276299 -0.0002406286
0.0094700589 0.0169503252 -0.0005409590
0.0146762922 0.0173511154 -0.0003572437
0.0179870314 0.0071859811 -0.0022255286
0.0179879686 0.0134538218 -0.0020685577
0.0179787610 0.0146951591 -0.0036108289
0.0179873608 0.0146699844 -0.0021703716
0.0179787681 0.0048322413 -0.0036096278
0.0179957768 0.0142937553 -0.0007605801
0.0179859475 0.0039899225 -0.0024070864
0.0179884534 0.0174729108 -0.0019873163
0.0179863035 0.0008088579 -0.0023473464
0.0021098833 0.0005860798 0.0000000047
0.0170308649 0.0003689502 0.0000000087
0.0179690205 0.0162287228 -0.0049123390
0.0176037711 0.0028116925 -0.0062417434
0.0174580040 0.0083754453 -0.0065236452
0.0171572879 0.0037200197 -0.0068873832
0.0169581229 0.0112267042 -0.0070841864
0.0167107972 0.0147772588 -0.0073241263
0.0159469001 0.0129492117 -0.0077076465
0.0158285082 0.0093597811 -0.0077486806
0.0156938998 0.0161103818 -0.0077691739
0.0035680401 0.0178534659 0.0000000050
0.0109424527 0.0006115177 -0.0001915799
0.0173634383 0.0008337687 -0.0005480342
0.0136361193 0.0013011310 -0.0004211914
-0.0131065487 0.0122925779 0.0000000027
-0.0022870681 0.0121851325 0.0000000073
0.0123230468 0.0125204681 0.0000000093
0.0027728838 0.0115553604 0.0000000092
0.0055084030 0.0115922780 0.0000000093
-0.0013251582 0.0103524709 0.0000000077
-0.0018065350 0.0100268466 0.0000000075
0.0136794080 0.0104729946 0.0000000093
0.0115040162 0.0100444872 0.0000000093
-0.0036153881 0.0082280828 0.0000000067
-0.0097706203 0.0074744357 0.0000000041
0.0042911146 0.0083329344 0.0000000093
0.0106916591 0.0080147459 0.0000000093
0.0085748372 0.0076277467 0.0000000093
0.0149671236 0.0059782182 0.0000000093
0.0105944782 0.0065856657 0.0000000093
0.0016257927 0.0064880797 0.0000000089
-0.0077655464 0.0062841493 0.0000000050
0.0029709972 0.0090878445 -0.0051114502
0.0010034453 0.0092118859 -0.0047490652
-0.0094524831 0.0099238036 -0.0053976619
0.0129913289 0.0079802222 -0.0047594462
0.0129696435 0.0100235782 -0.0060168311
0.0128672596 0.0080035228 -0.0044397089
-0.0095129111 0.0060452659 -0.0079302231
-0.0088676647 0.0142293825 -0.0067957687
-0.0092857087 0.0063126447 -0.0084030844
-0.0114477529 0.0038023330 -0.0182213473
-0.0114860370 0.0132903207 -0.0181392064
-0.0113943185 0.0081751182 -0.0171175728
-0.0108163894 0.0069811291 -0.0186935317
-0.0097569160 0.0096774167 -0.0083184303
-0.0139731997 0.0094332684 -0.0170391585
0.0151234114 0.0124391453 -0.0033828736
0.0155568061 0.0120139914 -0.0033854610
-0.0040774090 0.0048956038 -0.0032682419
0.0013776511 0.0064320425 -0.0033008094
0.0018747773 0.0046019069 -0.0033037773
0.0011892982 0.0030051169 -0.0032996848
-0.0070726673 0.0034736711 -0.0032503597
-0.0020718869 0.0032344035 -0.0032802151
0.0076902959 0.0051015677 -0.0033384968
-0.0102480436 0.0031190828 -0.0032314022
0.0120946274 0.0041152085 -0.0033647913
0.0076410604 0.0093100989 -0.0033382029
0.0150085823 0.0040046352 -0.0033821880
0.0111128028 0.0074797658 -0.0033589297
0.0132251236 0.0059530969 -0.0033715405
0.0105441732 0.0050862358 -0.0033555349
0.0116592830 0.0137993835 -0.0033621922
0.0097281908 0.0128215263 -0.0033506634
0.0002664234 0.0113999752 -0.0032941752
0.0125982509 0.0109046324 -0.0033677981
0.0097851199 0.0119489674 -0.0033510032
0.0110220849 0.0101526654 -0.0033583881
-0.0111624824 0.0065652514 -0.0032259430
-0.0127595073 0.0064815221 -0.0032164084
-0.0127018757 0.0128525759 -0.0032167524
-0.0120354153 0.0119543183 -0.0032207313
-0.0101249972 0.0102672998 -0.0032321370
-0.0032321001 0.0117282935 -0.0032732885
0.0005709657 0.0142795386 -0.0032959933
-0.0012468084 0.0125614160 -0.0032851409
-0.0029352241 0.0147857716 -0.0032750608
-0.0053600639 0.0121960234 -0.0032605842
-0.0061317618 0.0136646034 -0.0032559770
-0.0097514187 0.0120587639 -0.0032343672
0.0099423077 0.0139706692 -0.0033519416
-0.0013013254 0.0113902167 -0.0032848154
-0.0034490867 0.0079371781 -0.0032719931
-0.0042776488 0.0077201284 -0.0032670464
-0.0106022837 0.0048412837 -0.0032292874
0.0159791987 0.0089184378 -0.0035321327
0.0159759012 0.0053645601 -0.0040844217
0.0144336246 0.0030000033 -0.0052365873
-0.0107110111 0.0030000033 -0.0189966608
-0.0100691380 0.0030000033 -0.0168560036
-0.0138167365 0.0030000033 -0.0176155045
-0.0129980544 0.0030000033 -0.0160460169
-0.0110306522 0.0030000033 -0.0154491693
0.0110988280 0.0030000033 -0.0044646760
0.0022115762 0.0030000033 -0.0035288810
-0.0019947279 0.0030000033 -0.0034411618
-0.0044255232 0.0030000033 -0.0056536063
-0.0048098771 0.0030000033 -0.0062864208
-0.0048349235 0.0030000033 -0.0052420555
-0.0062972450 0.0030000033 -0.0056830344
0.0021004563 0.0030000033 -0.0055106132
-0.0073357345 0.0030000033 -0.0073591498
-0.0074839513 0.0030000033 -0.0182586586
-0.0068044593 0.0030000033 -0.0100476045
-0.0057148193 0.0030000033 -0.0096340099
-0.0140234109 0.0117787399 -0.0038794506
-0.0140274288 0.0042510852 -0.0045524053
-0.0087681449 0.0149999978 -0.0191714412
-0.0076226761 0.0149999978 -0.0184367533
0.0061523415 0.0149999978 -0.0042706409
-0.0067831998 0.0149999978 -0.0052836318
-0.0056192388 0.0149999978 -0.0043051223
0.0012979361 0.0149999978 -0.0043479497
-0.0077572441 0.0149999978 -0.0039123588
-0.0097141504 0.0149999978 -0.0060678117
-0.0113095954 0.0149999978 -0.0169804466
-0.0075369406 0.0149999978 -0.0074547876
0.0140229783 0.0149999978 -0.0038020680
0.0140492735 0.0149999978 -0.0062326897
0.0031056670 0.0149999978 -0.0062937940
-0.0089175522 0.0149999978 -0.0179299929
-0.0072981789 0.0149999978 -0.0130973541
-0.0095739733 0.0149999978 -0.0146872879
-0.0095334592 0.0149999978 -0.0073008332
-0.0090345338 0.0149999978 -0.0094836994
-0.0107089779 0.0149999978 -0.0116544658
-0.0089997343 0.0079784294 -0.0045830054
0.0159429856 0.0058544065 -0.0048878037
0.0152479413 0.0075236152 -0.0048836544
-0.0077647981 0.0126942574 -0.0083306567
-0.0079813494 0.0131667758 -0.0069423227
-0.0077180965 0.0123687389 -0.0072337929
-0.0076146373 0.0089252002 -0.0080620098
-0.0100130073 0.0119838416 -0.0169554370
-0.0096653012 0.0087588204 -0.0175089863
-0.0099136990 0.0091237238 -0.0184033652
-0.0104873482 0.0149340092 -0.0186969126
0.0011384526 0.0106261225 -0.0062994557
-0.0001896830 0.0050721716 -0.0062915268
0.0144899662 0.0111941126 -0.0063791662
0.0137945584 0.0122165910 -0.0063750145
0.0143384296 0.0135429319 -0.0063782615
0.0137083513 0.0140624321 -0.0063744998
0.0051801033 0.0140156167 -0.0063235851
0.0137458338 0.0099759215 -0.0063747238
0.0080220127 0.0061312520 -0.0063405518
0.0111654482 0.0034173461 -0.0063593184
0.0118158507 0.0043371266 -0.0063632014
0.0111146388 0.0038855581 -0.0063590151
0.0032887877 0.0051783866 -0.0063122938
0.0066320608 0.0063261781 -0.0063322536
0.0017469880 0.0060042319 -0.0063030888
0.0087240036 0.0088554756 -0.0063447427
0.0030226511 0.0096600267 -0.0063107048
0.0056983734 0.0113099543 -0.0063266793
0.0055407824 0.0109734353 -0.0063257384
0.0006945391 0.0119162246 -0.0062968056
-0.0007750608 0.0049979602 -0.0063116775
-0.0025732444 0.0129276412 -0.0067176446
-0.0019968539 0.0034833811 -0.0065154509
-0.0037272988 0.0050431624 -0.0073917954
-0.0039587194 0.0139163520 -0.0076206515
-0.0043525174 0.0090903051 -0.0080222284
-0.0050344704 0.0089703952 -0.0090224821
-0.0051517827 0.0054735323 -0.0092328529
-0.0054016696 0.0061067366 -0.0099924744
-0.0068304665 0.0095827810 -0.0167503672
-0.0070567585 0.0077729775 -0.0178477205
-0.0060157799 0.0051682687 -0.0127997237
-0.0065138807 0.0071633183 -0.0152151541
-0.0071014887 0.0096640973 -0.0180646298
-0.0057132103 0.0149037940 -0.0113324789
-0.0059346073 0.0084398422 -0.0124060952
-0.0061038956 0.0126934021 -0.0132270216
-0.0060659111 0.0090143847 -0.0130428241
-0.0067468035 0.0136534347 -0.0163446619
-0.0057299267 0.0064274905 -0.0114135414
-0.0139122336 0.0130279690 -0.0187713493
-0.0072802423 0.0106360315 -0.0187955044
-0.0077911872 0.0092600372 -0.0198006211
-0.0078179476 0.0096823055 -0.0198423774
-0.0086508217 0.0115183843 -0.0206130098
-0.0091936070 0.0119494469 -0.0208984681
-0.0099044382 0.0067626613 -0.0211202083
-0.0104575864 0.0146786845 -0.0212263264
-0.0113720687 0.0108467380 -0.0211302534
-0.0123007605 0.0085155153 -0.0207722663
-0.0127115514 0.0056976125 -0.0204814197
-0.0132609649 0.0047801425 -0.0199924846
-0.0134076755 0.0142317407 -0.0197699502
-0.0130039829 0.0068953373 -0.0151640483
-0.0140903944 0.0105877145 -0.0174594897
-0.0136905116 0.0142960591 -0.0160721643
-0.0137204791 0.0051420084 -0.0161200970
-0.0124773999 0.0104353408 -0.0146184991
-0.0118860795 0.0094462789 -0.0138711500
-0.0116716595 0.0042520228 -0.0135197607
-0.0112386415 0.0141901336 -0.0124245620
-0.0111836281 0.0142718767 -0.0122243887
-0.0111652417 0.0035078369 -0.0120643116
-0.0110462156 0.0089907366 -0.0077085228
-0.0110636702 0.0087541660 -0.0106321436
-0.0110553182 0.0040866773 -0.0092331978
-0.0110545305 0.0047668816 -0.0091012526
-0.0110499152 0.0129713397 -0.0083281889
-0.0110702151 0.0144354496 -0.0065717960
-0.0113953690 0.0143683419 -0.0056461192
-0.0120132959 0.0127291862 -0.0050412898
-0.0119590599 0.0082916790 -0.0050780007
-0.0126193525 0.0053143811 -0.0047987369
-0.0131272009 0.0108710802 -0.0047142506
0.0149700564 0.0146311366 -0.0050600484
0.0149664154 0.0034631898 -0.0056699557
-0.0129560292 0.0089483748 -0.0185113156
-0.0433906532 0.0061270167 0.0067016406
-0.0437736556 0.0122733229 0.0068618191
-0.0446663287 0.0092921132 0.0072351512
-0.0457368305 0.0017432516 0.0078710793
-0.0449596232 0.0164697345 0.0073816257
-0.0462191179 0.0068329755 0.0081748043
-0.0426862796 0.0179561000 0.0064077461
-0.0410453294 0.0000859293 0.0059205639
-0.0465288858 0.0137151728 0.0083390386
-0.0468716549 0.0065802305 0.0085229214
-0.0082355105 0.0180000030 -0.0049263827
-0.0500377854 0.0180000030 0.0081184407
-0.0073805987 0.0180000030 -0.0061869097
-0.0498863328 0.0180000030 0.0026455893
-0.0460171443 0.0180000030 0.0078001007
-0.0286142417 0.0180000030 -0.0002536464
-0.0284554627 0.0180000030 -0.0000378778
-0.0404741276 0.0180000030 0.0043404178
-0.0352257058 0.0180000030 0.0023175833
-0.0333885431 0.0180000030 0.0013984906
-0.0134589284 0.0180000030 -0.0042848299
-0.0274882395 0.0180000030 0.0010485861
-0.0126494214 0.0180000030 -0.0046492522
-0.0114243345 0.0180000030 -0.0070121270
-0.0366299827 0.0180000030 0.0011470247
-0.0217231174 0.0180000030 -0.0032886751
-0.0261694147 0.0180000030 -0.0016531994
-0.0168954457 0.0180000030 -0.0042034040
-0.0165079486 0.0180000030 -0.0041361717
-0.0212548290 0.0180000030 -0.0061153754
-0.0293204046 0.0180000030 -0.0031638356
-0.0344895891 0.0180000030 -0.0017201765
-0.0454683114 0.0180000030 0.0021764080
-0.0432153024 0.0180000030 0.0018400364
-0.0198330161 0.0180000030 -0.0060909978
-0.0246814310 0.0180000030 -0.0044471980
-0.0262422605 0.0180000030 -0.0030344748
-0.0275259593 0.0180000030 -0.0023807623
-0.0191809617 0.0180000030 -0.0058609626
-0.0075657913 0.0180000030 -0.0096179015
-0.0108195482 0.0180000030 -0.0091592312
-0.0070826453 0.0178235125 -0.0074902629
-0.0113000710 0.0175757395 -0.0036444139
-0.0076449590 0.0009078674 -0.0089081905
-0.0408194921 0.0049488208 0.0058622280
-0.0411087708 0.0057088682 0.0059559011
-0.0421720331 0.0063094144 0.0063002001
-0.0432752811 0.0110689079 0.0066574439
-0.0425036070 0.0148933267 0.0064075673
-0.0352766510 0.0176398827 0.0040673699
-0.0340455833 0.0171684797 0.0036687299
-0.0273622424 0.0173985416 0.0015045683
-0.0122349635 0.0176891402 -0.0033938628
-0.0179222542 0.0165565297 -0.0015522413
-0.0184843184 0.0107084862 -0.0013702354
-0.0173507021 0.0061849485 -0.0017373166
-0.0190709496 0.0079241514 -0.0011802791
-0.0321564219 0.0071048621 0.0030569961
-0.0194471207 0.0052540463 -0.0010584714
-0.0213366922 0.0043371267 -0.0004465995
-0.0288238641 0.0058634038 0.0019778623
-0.0201319385 0.0062206572 -0.0008367166
-0.0380581892 0.0019240987 0.0049680725
-0.0397049847 0.0015651951 0.0055013294
-0.0327392790 0.0014439224 0.0032457280
-0.0326663299 0.0049380063 0.0032221103
-0.0346216551 0.0027640749 0.0038552716
-0.0295103259 0.0050267236 0.0022001484
-0.0331419279 0.0035496932 0.0033761145
-0.0368775935 0.0064620823 0.0045857833
-0.0357002492 0.0057587961 0.0042045405
-0.0364690199 0.0045972109 0.0044534787
-0.0392018914 0.0040192561 0.0053384232
-0.0189693953 0.0024049888 -0.0012131670
-0.0233154675 0.0001259032 0.0001941662
-0.0233701019 0.0016290340 0.0002118500
-0.0230382912 0.0010266415 0.0001044079
-0.0173344586 0.0021715596 -0.0017425818
-0.0175945770 0.0131814304 -0.0016583463
-0.0328255365 0.0145456847 0.0032736605
-0.0345127544 0.0160643090 0.0038200063
-0.0246445008 0.0145667888 0.0006245175
-0.0225757993 0.0137958889 -0.0000453589
-0.0346060196 0.0156773064 0.0038502072
-0.0242175806 0.0118302743 0.0004862759
-0.0261427173 0.0155833682 0.0011096620
-0.0258864221 0.0154392090 0.0010266699
-0.0331064148 0.0136771733 0.0033646143
-0.0409280722 0.0169414935 0.0058973827
-0.0314409231 0.0130279708 0.0028253033
-0.0371669696 0.0138120832 0.0046794841
-0.0387610569 0.0156636676 0.0051956716
-0.0329671044 0.0125412678 0.0033195049
-0.0378337646 0.0147646606 0.0048954013
-0.0324025899 0.0141063409 0.0031367044
-0.0116925579 0.0003138211 -0.0035524265
-0.0510584326 -0.0000000035 0.0041197450
-0.0055748395 -0.0000000035 -0.0082502291
-0.0473145160 -0.0000000035 0.0034116070
-0.0492546123 -0.0000000035 0.0070331736
-0.0170277025 -0.0000000035 -0.0050947536
-0.0417341317 -0.0000000035 0.0032082304
-0.0350069260 -0.0000000035 0.0007738805
-0.0315637016 -0.0000000035 -0.0006946562
-0.0475282966 -0.0000000035 0.0066469449
-0.0349461688 -0.0000000035 0.0035327513
-0.0309180004 -0.0000000035 0.0023587944
-0.0256825976 -0.0000000035 0.0003517371
-0.0325571621 -0.0000000035 0.0027706276
-0.0293011028 -0.0000000035 0.0009248802
-0.0156926472 -0.0000000035 -0.0028186444
-0.0120846774 -0.0000000035 -0.0056184768
-0.0275219625 -0.0000000035 0.0002221044
-0.0234799739 -0.0000000035 -0.0019170953
-0.0116889612 -0.0000000035 -0.0053936422
-0.0070923703 -0.0000000035 -0.0062062348
-0.0097086011 -0.0000000035 -0.0059833781
-0.0310787645 -0.0000000035 -0.0034205983
-0.0364312321 -0.0000000035 0.0000082694
-0.0285970394 -0.0000000035 -0.0034287305
-0.0349720055 -0.0000000035 -0.0017710493
-0.0115543026 -0.0000000035 -0.0084473570
-0.0179794706 -0.0000000035 -0.0073530369
-0.0182961323 -0.0000000035 -0.0055280419
-0.0302791184 -0.0000000035 -0.0021529992
-0.0130457264 -0.0000000035 -0.0073264545
-0.0088200374 -0.0000000035 -0.0095892380
-0.0244465723 0.0075000045 -0.0049003790
-0.0314189228 0.0075000045 0.0018554368
-0.0243451047 0.0075000045 -0.0039086611
-0.0323310104 0.0075000045 0.0008797544
-0.0326427053 0.0075000045 0.0007658808
-0.0375206121 0.0075000045 0.0047221882
-0.0328673685 0.0075000045 -0.0023092744
-0.0349154435 0.0075000045 -0.0008875982
-0.0374003914 0.0075000045 0.0033525321
-0.0303359565 0.0075000045 -0.0016307797
-0.0361641506 0.0075000045 0.0030729850
-0.0323107600 0.0075000045 -0.0006602296
-0.0398322456 0.0075000045 0.0008425145
-0.0214846988 0.0081887258 -0.0054591558
-0.0201382774 0.0091887832 -0.0019881876
-0.0212293918 0.0104008140 -0.0018544120
-0.0257779355 0.0104999952 -0.0011641912
-0.0231363937 0.0104999952 -0.0041914849
-0.0296985611 0.0104999952 -0.0021028871
-0.0273573732 0.0104999952 -0.0034786214
-0.0257287370 0.0104999952 -0.0013224712
-0.0245305341 0.0104999952 -0.0056116858
-0.0291751228 0.0104999952 0.0015777315
-0.0364783806 0.0104999952 0.0042586700
-0.0361544399 0.0104999952 0.0015978458
-0.0298846767 0.0104999952 0.0000238674
-0.0383152805 0.0104999952 0.0027950829
-0.0348174355 0.0104999952 0.0021733685
-0.0405026387 0.0104788016 0.0025711518
-0.0420312831 0.0094375547 0.0020821754
-0.0407818934 0.0082449702 0.0056524484
-0.0469827345 0.0013509022 0.0013543313
-0.0483967122 0.0084326793 0.0014453818
-0.0480462201 0.0164997795 0.0014228125
-0.0473497165 0.0113137766 0.0013779625
-0.0463877289 0.0059193367 0.0012493391
-0.0455939764 0.0100305305 0.0010633211
-0.0452986356 0.0036607585 0.0009941073
-0.0113361215 0.0178787798 -0.0104012158
-0.0052742056 0.0156000070 -0.0080881643
-0.0104056503 0.0156000070 -0.0062347966
-0.0145201763 0.0156000070 -0.0036038792
-0.0149016173 0.0156000070 -0.0060137629
-0.0054441261 0.0156000070 -0.0062762964
-0.0093901832 0.0156000070 -0.0060288400
-0.0114471982 0.0156000070 -0.0095740541
-0.0173370786 0.0142662783 -0.0049703246
-0.0169974433 0.0153637986 -0.0062270839
-0.0174891437 0.0081064116 -0.0053325633
-0.0180497482 0.0088856196 -0.0070638128
-0.0181984233 0.0052643907 -0.0075229489
-0.0175035947 0.0119432004 -0.0053771905
-0.0165173324 0.0123030561 -0.0023314315
-0.0166340486 0.0090665537 -0.0026918726
-0.0173212782 0.0121623657 -0.0048141637
-0.0171960287 0.0029537220 -0.0056054081
-0.0066780628 0.0024000073 -0.0065650820
-0.0064389215 0.0024000073 -0.0079494156
-0.0104756985 0.0024000073 -0.0093519196
-0.0103569008 0.0024000073 -0.0071879778
-0.0129750934 0.0024000073 -0.0043191365
-0.0145483725 0.0024000073 -0.0043163720
-0.0102034469 0.0024000073 -0.0044754202
-0.0121064039 0.0016802766 -0.0099161238
-0.0177622302 0.0000807501 -0.0078905627
-0.0202894383 0.0063196148 -0.0070924290
-0.0389028331 0.0001458099 -0.0010651417
-0.0143570429 0.0002635627 -0.0090134475
-0.0216210545 0.0001642070 -0.0066612488
-0.0258803871 0.0005976225 -0.0052820087
-0.0267030518 0.0018707862 -0.0050156122
-0.0196574031 0.0105539621 -0.0072970907
-0.0193462459 0.0097455447 -0.0073978478
-0.0448118650 0.0108977111 0.0008482956
-0.0449909372 0.0009033652 0.0009062811
-0.0451406263 0.0093682519 0.0009547521
-0.0214729231 0.0101138232 -0.0067091998
-0.0202888989 0.0050442128 -0.0070926103
-0.0246888400 0.0032330293 -0.0056678441
-0.0262582312 0.0048100793 -0.0051596502
-0.0320954116 0.0039975329 -0.0032694833
-0.0236859475 0.0061815661 -0.0059925937
-0.0219812813 0.0054217740 -0.0065445910
-0.0360031470 0.0025003838 -0.0020041005
-0.0243949895 0.0039438469 -0.0057629968
-0.0417978469 0.0007526133 -0.0001276901
-0.0369822765 0.0057007688 -0.0016870395
-0.0281939060 0.0062914031 -0.0045328480
-0.0356398599 0.0052157307 -0.0021217352
-0.0405696378 0.0062018104 -0.0005253962
-0.0251578933 0.0068819705 -0.0055159547
-0.0354210363 0.0052823199 -0.0021925936
-0.0398456356 0.0025671939 -0.0007598440
-0.0386579065 0.0068255809 -0.0011444433
-0.0256916884 0.0116901402 -0.0053431035
-0.0261952941 0.0134866610 -0.0051800292
-0.0230729494 0.0116006740 -0.0061910913
-0.0342038418 0.0108720448 -0.0025867371
-0.0234396993 0.0130263879 -0.0060723328
-0.0263583499 0.0144678005 -0.0051272305
-0.0247614124 0.0141446311 -0.0056443427
-0.0234326928 0.0144762247 -0.0060746027
-0.0357236562 0.0159666278 -0.0020946037
-0.0391733492 0.0149014629 -0.0009775393
-0.0429451688 0.0139396068 0.0002438344
-0.0415545521 0.0130852223 -0.0002064674
-0.0341844926 0.0140368314 -0.0025930059
-0.0387530386 0.0168884949 -0.0011136448
-0.0412293645 0.0164842374 -0.0003117723
-0.0419984140 0.0172818966 -0.0000627434
-0.0194385646 0.0154219791 -0.0073679626
-0.0393208408 0.0174652613 -0.0009297822
-0.0286100429 0.0170104809 -0.0043981018
-0.0231838152 0.0162613436 -0.0061551943
-0.0266612094 0.0162951686 -0.0050291604
-0.0516930698 0.0179057888 0.0071033738
-0.0473915961 0.0118436328 0.0087718005
-0.0483375014 0.0161388084 0.0089053666
-0.0486217639 0.0046957727 0.0089449081
-0.0489114753 0.0116341976 0.0088975002
-0.0491424123 0.0093941818 0.0088564522
-0.0501475510 0.0122753695 0.0085426560
-0.0503564783 0.0085886383 0.0084247032
-0.0509045977 0.0023335119 0.0080710326
-0.0512440263 0.0023100889 0.0077280897
-0.0517377140 0.0157588265 0.0070661572
-0.0518920562 0.0038430746 0.0067758567
-0.0519165030 0.0172605524 0.0066521750
-0.0521250744 0.0041494213 0.0061184598
-0.0521859338 0.0170839395 0.0047600573
-0.0522397099 0.0035459279 0.0050906979
-0.0521222087 0.0040924338 0.0042346222
-0.0519259015 0.0151036499 0.0037883312
-0.0517447503 0.0055182030 0.0033401780
-0.0515780593 0.0147926654 0.0030813122
-0.0512875690 0.0155914989 0.0027619992
-0.0512088565 0.0054244364 0.0026488998
-0.0499060486 0.0141217643 0.0017542547
-0.0502309483 0.0009082949 0.0019160270
-0.0491584729 0.0144151790 0.0015535507
-0.0488929064 0.0092629462 0.0015124304
-0.0491990621 0.0054731537 0.0015555475
-0.0096078051 0.0168536867 -0.0087876875
-0.0060866186 0.0167612926 -0.0049549606
-0.0050183737 0.0156796396 -0.0088343353
-0.0079502997 0.0161302185 -0.0113906803
-0.0097535955 0.0014928920 -0.0068884693
-0.0100471189 0.0020694525 -0.0111298122
-0.0049911163 0.0015951266 -0.0066818615
-0.0057168808 0.0021896107 -0.0101187683
-0.0091294940 0.0020978737 -0.0113890986
-0.0477907189 0.0120543862 0.0064906958
-0.0473123348 0.0028681608 0.0060408661
-0.0472765196 0.0149613565 0.0060015656
-0.0470417544 0.0158946052 0.0052941664
-0.0470344221 0.0090455840 0.0050361544
-0.0470683039 0.0177291428 0.0049297063
-0.0473045322 0.0178225034 0.0043296650
-0.0479605998 0.0129065564 0.0038327951
-0.0479296166 0.0164081467 0.0038395753
-0.0488613780 0.0097467395 0.0037904569
-0.0496361315 0.0061922175 0.0042887092
-0.0496734534 0.0129345154 0.0043296627
-0.0498527236 0.0113806217 0.0045841143
-0.0499675965 0.0121146371 0.0053750003
-0.0499686289 0.0164793489 0.0053717567
-0.0496830745 0.0149654106 0.0060826111
-0.0491717347 0.0065999665 0.0065341042
-0.0485592606 0.0069670804 0.0066681347
