-0.0120013195 0.0120000001 0.0257907814
0.0096742360 0.0120000001 -0.0183260089
-0.0042680941 0.0120000001 0.0138066228
-0.0088330275 0.0120000001 0.0122518526
-0.0077312088 0.0120000001 0.0090378069
-0.0050833876 0.0120000001 0.0104372722
-0.0040983647 0.0120000001 -0.0134271729
0.0042576338 0.0120000001 -0.0134199168
0.0093923484 0.0120000001 -0.0134066476
0.0093726803 0.0120000001 0.0131652104
0.0052040254 0.0120000001 0.0119720493
0.0089375224 0.0120000001 0.0090341523
-0.0162906329 0.0120000001 -0.0226480200
-0.0165602448 0.0120000001 -0.0216281404
-0.0188145018 0.0120000001 -0.0206721882
-0.0192141189 0.0120000001 -0.0227074434
-0.0172151123 0.0120000001 -0.0224152246
-0.0166497773 0.0120000001 -0.0239855810
-0.0179981354 0.0120000001 -0.0228684104
-0.0163836443 0.0120000001 -0.0305307566
-0.0194708811 0.0120000001 -0.0289688238
-0.0152019530 0.0120000001 -0.0308950535
-0.0155187760 0.0120000001 -0.0335768169
-0.0148534336 0.0120000001 -0.0350691504
-0.0077766268 0.0120000001 -0.0184484673
-0.0078323938 0.0120000001 -0.0262571369
-0.0058697736 0.0120000001 -0.0157775054
-0.0048140084 0.0120000001 -0.0182173845
-0.0074114642 0.0120000001 -0.0186738362
-0.0053518446 0.0120000001 -0.0349251156
-0.0043211151 0.0120000001 -0.0271071246
-0.0041780147 0.0120000001 -0.0264516595
-0.0046323629 0.0120000001 -0.0212852447
-0.0042169983 0.0120000001 -0.0172513105
-0.0074784225 0.0120000001 -0.0265063926
0.0065914470 0.0120000001 -0.0153848745
0.0052653513 0.0120000001 -0.0168843885
0.0047170197 0.0120000001 -0.0163118251
0.0095728779 0.0120000001 -0.0201248387
0.0080059917 0.0120000001 -0.0217083104
0.0081578311 0.0120000001 -0.0280257256
0.0068618814 0.0120000001 -0.0255748091
0.0055868015 0.0120000001 -0.0230335004
0.0060921511 0.0120000001 -0.0307021110
0.0043637276 0.0120000001 -0.0204729663
0.0039339625 0.0120000001 -0.0174143394
0.0056526435 0.0120000001 -0.0335592845
0.0164495098 0.0120000001 -0.0350277233
0.0144980882 0.0120000001 -0.0336234343
0.0168196825 0.0120000001 -0.0306629593
0.0186300074 0.0120000001 -0.0233697900
0.0181350522 0.0120000001 -0.0284708455
0.0167825861 0.0120000001 -0.0261848864
0.0179058172 0.0120000001 -0.0219033384
0.0181490374 0.0120000001 -0.0213096970
0.0199120019 0.0120000001 -0.0215009080
0.0177039946 0.0120000001 -0.0205482244
0.0174354837 0.0120000001 0.0343508474
0.0153579927 0.0120000001 0.0348724721
0.0164700044 0.0120000001 0.0259071749
0.0138568344 0.0120000001 0.0283788687
0.0179893454 0.0120000001 0.0273043952
0.0171412991 0.0120000001 0.0297655018
0.0186527875 0.0120000001 0.0294981258
0.0164494975 0.0120000001 0.0316813704
0.0147405137 0.0120000001 0.0330265277
-0.0048554904 0.0120000001 0.0352049324
-0.0064867507 0.0120000001 0.0274802660
-0.0043128859 0.0120000001 0.0251622927
-0.0048825736 0.0120000001 0.0286203896
-0.0047406020 0.0120000001 0.0346008057
-0.0184176648 0.0120000001 0.0325385155
-0.0179888158 0.0120000001 0.0300361957
-0.0193188565 0.0120000001 0.0265020418
-0.0183195656 0.0120000001 0.0341455965
-0.0142250587 0.0120000001 0.0331683434
0.0073363487 0.0120000001 0.0095782307
0.0191652541 0.0120000001 -0.0051753318
0.0184278729 0.0120000001 -0.0017002810
0.0199909478 0.0120000001 -0.0040393719
0.0181847918 0.0120000001 0.0027364864
0.0044870108 0.0120000001 -0.0106106181
0.0092009980 0.0120000001 -0.0103785196
-0.0087323923 0.0120000001 -0.0105432318
-0.0085972810 0.0120000001 -0.0092898859
-0.0109908682 0.0120000001 -0.0030155732
-0.0109414397 0.0120000001 -0.0009392755
-0.0018821104 0.0120000001 0.0104199719
0.0026365561 0.0120000001 0.0109836824
0.0040619960 0.0120000001 0.0099881252
0.0027248620 0.0120000001 0.0154580940
0.0036002545 0.0120000001 0.0222672631
0.0006929618 0.0120000001 0.0226072597
-0.0021990364 0.0120000001 0.0221545082
-0.0015823448 0.0120000001 0.0207346096
-0.0017174326 0.0120000001 0.0206051149
-0.0027883685 0.0120000001 0.0203187769
-0.0038592134 0.0120000001 0.0182142850
0.0021633379 0.0120000001 -0.0135326576
0.0034492892 0.0120000001 -0.0352994349
0.0038612422 0.0120000001 -0.0171348255
0.0032707774 0.0120000001 -0.0260012480
0.0014747810 0.0120000001 -0.0296807738
-0.0009555483 0.0120000001 -0.0355839383
-0.0034469660 0.0120000001 -0.0143768540
-0.0015686267 0.0120000001 -0.0211645980
-0.0021282090 0.0120000001 -0.0286086443
-0.0030458248 0.0120000001 -0.0235781195
-0.0033104892 0.0120000001 -0.0338167355
-0.0034210719 0.0120000001 -0.0262232397
0.0010894630 0.0120000001 -0.0168869450
0.0012862829 0.0120000001 -0.0247154558
0.0023418631 0.0120000001 -0.0214323898
0.0004854791 0.0120000001 -0.0190434088
0.0000616379 0.0120000001 -0.0234893269
-0.0010493817 0.0120000001 -0.0245708371
-0.0014596205 0.0120000001 -0.0267085688
0.0030757187 0.0120000001 -0.0116635252
-0.0023704647 0.0120000001 -0.0115666152
0.0153784607 0.0120000001 -0.0248206832
0.0167289538 0.0120000001 -0.0212203019
0.0154237399 0.0120000001 -0.0213091437
0.0121498594 0.0120000001 -0.0215289127
0.0119647980 0.0120000001 -0.0252531406
0.0165141269 0.0120000001 -0.0202558962
0.0128893998 0.0120000001 -0.0265233951
0.0126455042 0.0120000001 -0.0259933190
0.0153348913 0.0120000001 -0.0170644694
0.0128127004 0.0120000001 -0.0264230037
0.0165512802 0.0120000001 -0.0150407409
0.0118458070 0.0120000001 -0.0153184268
0.0121171959 0.0120000001 -0.0145848587
0.0103481004 0.0120000001 -0.0120500594
0.0127412828 0.0120000001 -0.0118209977
0.0124302391 0.0120000001 -0.0111778793
0.0163069166 0.0120000001 -0.0084030639
0.0173074020 0.0120000001 -0.0098677745
0.0149664201 0.0120000001 -0.0087482864
0.0110545180 0.0120000001 -0.0082809788
0.0110984620 0.0120000001 -0.0082259888
0.0102816381 0.0120000001 -0.0096567760
0.0145558434 0.0120000001 -0.0025012728
0.0134411790 0.0120000001 -0.0030905901
0.0095231221 0.0120000001 -0.0048881733
0.0129923952 0.0120000001 -0.0011382727
0.0113410309 0.0120000001 0.0011634807
0.0116932161 0.0120000001 0.0031563177
-0.0102065539 0.0120000001 -0.0120234645
-0.0100426963 0.0120000001 -0.0091926507
-0.0097985846 0.0120000001 -0.0053345931
-0.0092573214 0.0120000001 -0.0256406485
-0.0092642588 0.0120000001 -0.0261597144
-0.0113188267 0.0120000001 -0.0272558809
-0.0107090217 0.0120000001 -0.0158596611
-0.0096921921 0.0120000001 -0.0162372237
-0.0157329948 0.0120000001 -0.0163649896
-0.0145025135 0.0120000001 -0.0176607885
-0.0149272558 0.0120000001 -0.0223398240
-0.0176685702 0.0120000001 -0.0174772666
-0.0121845817 0.0120000001 -0.0229421239
-0.0141744714 0.0120000001 -0.0182632560
-0.0146175968 0.0120000001 -0.0143211712
-0.0143549502 0.0120000001 -0.0142567261
-0.0172098121 0.0120000001 -0.0123429110
-0.0171558536 0.0120000001 -0.0123989363
-0.0176164028 0.0120000001 -0.0115911427
-0.0170411704 0.0120000001 -0.0100697049
-0.0141167320 0.0120000001 -0.0080027149
-0.0151909437 0.0120000001 -0.0080927423
-0.0124944176 0.0120000001 -0.0063728142
-0.0181911871 0.0120000001 0.0012902607
-0.0198912839 0.0120000001 0.0026181778
-0.0191466654 0.0120000001 -0.0002703180
-0.0171839009 0.0120000001 0.0008991985
-0.0122998224 0.0120000001 -0.0015434615
-0.0131087992 0.0120000001 0.0031307424
-0.0165474709 0.0120000001 -0.0035280522
-0.0174276953 0.0120000001 -0.0057316801
-0.0146489082 0.0120000001 -0.0031165913
0.0177411437 0.0120000001 0.0049801244
0.0170402477 0.0120000001 0.0056925787
0.0169393922 0.0120000001 0.0062115591
0.0193919306 0.0120000001 0.0076333573
0.0110215820 0.0120000001 0.0068217311
0.0163627782 0.0120000001 0.0080784373
0.0177143328 0.0120000001 0.0094210984
0.0182601314 0.0120000001 0.0117492090
0.0107387903 0.0120000001 0.0070785751
0.0141283874 0.0120000001 0.0095827899
0.0196527600 0.0120000001 0.0143684159
0.0128716945 0.0120000001 0.0122547868
0.0116619731 0.0120000001 0.0151219928
0.0158014149 0.0120000001 0.0154894798
0.0169168646 0.0120000001 0.0145759639
0.0195732037 0.0120000001 0.0217339964
0.0143438704 0.0120000001 0.0190722337
0.0176747243 0.0120000001 0.0207236274
0.0148425479 0.0120000001 0.0160474772
0.0157147389 0.0120000001 0.0176533866
0.0122878651 0.0120000001 0.0228195851
0.0122558464 0.0120000001 0.0218183396
0.0117462307 0.0120000001 0.0179449996
0.0167919627 0.0120000001 0.0213873427
0.0168892149 0.0120000001 0.0218987311
0.0105858700 0.0120000001 0.0260234529
0.0126928523 0.0120000001 0.0259609811
0.0122098067 0.0120000001 0.0238638013
0.0085851211 0.0120000001 0.0147759745
0.0077001408 0.0120000001 0.0179847461
0.0052901881 0.0120000001 0.0174997590
0.0061990403 0.0120000001 0.0157304673
0.0063484747 0.0120000001 0.0229760155
0.0044616466 0.0120000001 0.0210820956
0.0060729028 0.0120000001 0.0203100591
0.0047550897 0.0120000001 0.0240736063
0.0056126070 0.0120000001 0.0265894449
-0.0081185151 0.0120000001 0.0153934091
-0.0064646507 0.0120000001 0.0192941636
-0.0045412435 0.0120000001 0.0199387334
-0.0086470865 0.0120000001 0.0198311290
-0.0093384165 0.0120000001 0.0185784157
-0.0073835269 0.0120000001 0.0223907193
-0.0079636686 0.0120000001 0.0267335168
-0.0068135125 0.0120000001 0.0246697027
-0.0096183683 0.0120000001 0.0105756247
-0.0102078576 0.0120000001 0.0105024015
-0.0104999814 0.0120000001 0.0146463609
-0.0107886757 0.0120000001 0.0182895458
-0.0108215189 0.0120000001 0.0233235947
-0.0105707292 0.0120000001 0.0279897745
-0.0135687007 0.0120000001 0.0053728954
-0.0155056569 0.0120000001 0.0055643352
-0.0153584401 0.0120000001 0.0088757551
-0.0121917215 0.0120000001 0.0090615582
-0.0129669019 0.0120000001 0.0088106693
-0.0178790032 0.0120000001 0.0086230942
-0.0178406675 0.0120000001 0.0099810479
-0.0165915637 0.0120000001 0.0087309831
-0.0144631890 0.0120000001 0.0121780325
-0.0137127969 0.0120000001 0.0140880925
-0.0181863441 0.0120000001 0.0146018446
-0.0172441440 0.0120000001 0.0147884004
-0.0162833393 0.0120000001 0.0160076052
-0.0192419789 0.0120000001 0.0160855886
-0.0116986250 0.0120000001 0.0166227323
-0.0140529793 0.0120000001 0.0163224042
-0.0155398879 0.0120000001 0.0221410351
-0.0198984466 0.0120000001 0.0178254862
-0.0198744910 0.0120000001 0.0158315595
-0.0195201525 0.0120000001 0.0214845862
-0.0127988257 0.0120000001 0.0266729437
-0.0123256873 0.0120000001 0.0243814630
-0.0126120249 0.0120000001 0.0271907648
-0.0136532701 0.0120000001 0.0302714601
0.0049650336 0.0120000001 0.0341952979
0.0046801681 0.0120000001 0.0297539304
0.0033230405 0.0120000001 0.0310106749
0.0020822603 0.0120000001 0.0306559156
0.0013599527 0.0120000001 0.0257104201
-0.0002244841 0.0120000001 0.0273046838
-0.0011123508 0.0120000001 0.0241151876
0.0010487687 0.0120000001 0.0290783509
-0.0016427776 0.0120000001 0.0338572062
-0.0030648233 0.0120000001 0.0308539226
-0.0023692657 0.0120000001 0.0291060098
0.0055897543 0.0120000001 0.0350818967
-0.0146754080 0.0060000001 -0.0042030111
0.0102021184 0.0060000001 0.0299296685
0.0034409054 0.0060000001 0.0212936358
0.0035032305 0.0060000001 0.0113987159
0.0012806572 0.0060000001 0.0100490773
-0.0024554423 0.0060000001 0.0118371680
-0.0044446040 0.0060000001 0.0135756051
0.0175171843 0.0060000001 0.0339018021
0.0134527269 0.0060000001 0.0334378848
0.0165558275 0.0060000001 0.0284501774
0.0151788540 0.0060000001 0.0295177461
0.0161998501 0.0060000001 0.0293109670
0.0167102278 0.0060000001 0.0287093825
0.0116819932 0.0060000001 0.0303807474
0.0172228823 0.0060000001 -0.0289075677
0.0177279266 0.0060000001 -0.0303791421
0.0177049805 0.0060000001 -0.0293583571
0.0190964111 0.0060000001 -0.0273950144
0.0156459827 0.0060000001 -0.0321808146
0.0175011329 0.0060000001 -0.0329565571
-0.0174506639 0.0060000001 0.0328623927
-0.0158858651 0.0060000001 0.0279203378
-0.0169300698 0.0060000001 0.0297628227
-0.0177339442 0.0060000001 0.0263773284
-0.0172650380 0.0060000001 0.0267874036
-0.0190747466 0.0060000001 0.0224818092
-0.0197984853 0.0060000001 0.0182396199
-0.0062922752 0.0060000001 0.0155679581
-0.0087886574 0.0060000001 -0.0105135042
-0.0040053018 0.0060000001 -0.0101993658
-0.0044139580 0.0060000001 -0.0141100072
-0.0066478062 0.0060000001 -0.0158711403
0.0047493608 0.0060000001 -0.0155881922
0.0102483914 0.0060000001 -0.0100306390
0.0081248307 0.0060000001 -0.0156552366
0.0042536544 0.0060000001 0.0131409123
0.0080098265 0.0060000001 0.0082023145
0.0097469121 0.0060000001 0.0162401034
0.0089777462 0.0060000001 0.0090655486
0.0081393837 0.0060000001 0.0057854757
0.0091064166 0.0060000001 0.0027556448
0.0098977162 0.0060000001 -0.0022055023
-0.0092590100 0.0060000001 0.0037458981
-0.0041559849 0.0060000001 0.0079287866
-0.0087672620 0.0060000001 0.0066461221
-0.0094142477 0.0060000001 0.0053387301
-0.0019507799 0.0060000001 -0.0087478543
0.0055165440 0.0060000001 -0.0077107250
0.0151218874 0.0060000001 -0.0358898565
0.0067165823 0.0060000001 -0.0357953609
0.0081681568 0.0060000001 -0.0250674563
0.0075829811 0.0060000001 -0.0261064002
0.0134339710 0.0060000001 -0.0260230354
0.0191121361 0.0060000001 -0.0250002139
0.0115589110 0.0060000001 -0.0252000902
0.0173886515 0.0060000001 -0.0258490338
0.0161720252 0.0060000001 -0.0276944564
-0.0086465149 0.0060000001 -0.0249248178
-0.0065273162 0.0060000001 -0.0252137747
-0.0087376639 0.0060000001 -0.0352039967
-0.0141716115 0.0060000001 -0.0354923321
-0.0132111746 0.0060000001 -0.0306771504
-0.0143492914 0.0060000001 -0.0310100079
-0.0129342674 0.0060000001 -0.0295129463
-0.0103962861 0.0060000001 0.0303663160
-0.0141760156 0.0060000001 0.0306125443
-0.0138800520 0.0060000001 0.0280603753
-0.0153878254 0.0060000001 0.0282262992
-0.0125312129 0.0060000001 0.0349483749
0.0086992958 0.0060000001 0.0303797265
0.0066854242 0.0060000001 0.0324767639
0.0096550672 0.0060000001 0.0350228201
-0.0192403142 0.0060000001 0.0032309707
-0.0189597523 0.0060000001 -0.0024824986
-0.0112402407 0.0060000001 0.0044689364
-0.0106267385 0.0060000001 0.0000564020
-0.0101723741 0.0060000001 -0.0025681633
-0.0109495920 0.0060000001 -0.0019119825
0.0010437017 0.0060000001 -0.0191486189
0.0005626661 0.0060000001 -0.0193030711
-0.0027378274 0.0060000001 -0.0244450578
0.0033160555 0.0060000001 -0.0127901343
-0.0017761844 0.0060000001 -0.0101850795
-0.0041395634 0.0060000001 -0.0109155872
0.0134442499 0.0060000001 0.0354627836
-0.0094298591 0.0060000001 0.0356410795
0.0025159994 0.0060000001 0.0359370751
-0.0013068695 0.0060000001 0.0352003274
0.0027997970 0.0060000001 0.0326276890
0.0042255057 0.0060000001 0.0328249177
0.0012696085 0.0060000001 0.0303605945
0.0002170344 0.0060000001 0.0256616308
0.0009500982 0.0060000001 0.0273958211
-0.0078741188 0.0060000001 0.0336059677
-0.0070513654 0.0060000001 0.0327824852
-0.0059995829 0.0060000001 0.0296251526
-0.0042434396 0.0060000001 0.0320208926
-0.0031864677 0.0060000001 0.0306496859
-0.0043592104 0.0060000001 0.0272164331
0.0087751305 0.0060000001 0.0166029377
0.0092000645 0.0060000001 0.0177515214
0.0079997451 0.0060000001 0.0187666977
0.0063634979 0.0060000001 0.0193964375
0.0081405146 0.0060000001 0.0218269828
0.0091500687 0.0060000001 0.0279178703
0.0050108859 0.0060000001 0.0162862267
0.0050439306 0.0060000001 0.0191726186
0.0049946674 0.0060000001 0.0245854550
0.0053531091 0.0060000001 0.0295737606
0.0052793818 0.0060000001 0.0344147365
-0.0077077296 0.0060000001 0.0169045919
-0.0067870077 0.0060000001 0.0172145941
-0.0075904704 0.0060000001 0.0174703233
-0.0041843343 0.0060000001 0.0176361770
-0.0051520216 0.0060000001 0.0188017713
-0.0035024589 0.0060000001 0.0223300717
0.0019589345 0.0060000001 0.0241588055
0.0005486041 0.0060000001 0.0242843303
-0.0018519715 0.0060000001 0.0242039371
0.0022076018 0.0060000001 0.0218033696
-0.0136897070 0.0060000001 0.0259394425
-0.0123242651 0.0060000001 0.0271675541
-0.0125955573 0.0060000001 0.0239800454
-0.0141466060 0.0060000001 0.0222161330
-0.0168893943 0.0060000001 0.0222986475
-0.0164788692 0.0060000001 0.0175890696
-0.0199452872 0.0060000001 0.0088895973
-0.0177743860 0.0060000001 0.0168091934
-0.0183977264 0.0060000001 0.0111208297
-0.0141134178 0.0060000001 0.0053133313
-0.0104251391 0.0060000001 0.0143420918
-0.0114126807 0.0060000001 0.0065219719
-0.0104356027 0.0060000001 0.0133286841
-0.0102412047 0.0060000001 0.0120956817
-0.0079856534 0.0060000001 0.0308790794
-0.0092424107 0.0060000001 0.0261388191
-0.0093211140 0.0060000001 0.0214916094
-0.0089254851 0.0060000001 0.0215657832
-0.0118565376 0.0060000001 0.0208916567
-0.0122387972 0.0060000001 0.0204074919
-0.0118031011 0.0060000001 0.0162859173
-0.0117689953 0.0060000001 0.0160354940
-0.0144134808 0.0060000001 0.0139819074
-0.0147879100 0.0060000001 0.0109327308
-0.0158578483 0.0060000001 0.0098228555
-0.0158719113 0.0060000001 0.0084607996
-0.0180656926 0.0060000001 0.0063162721
-0.0187335263 0.0060000001 0.0030084551
0.0179502394 0.0060000001 -0.0041050315
0.0169874426 0.0060000001 0.0040585929
0.0105587836 0.0060000001 0.0028406875
0.0105960200 0.0060000001 0.0059415413
0.0195998856 0.0060000001 0.0051037386
0.0190361031 0.0060000001 -0.0016169933
0.0159520019 0.0060000001 0.0266082990
0.0147526910 0.0060000001 0.0257621635
0.0171490229 0.0060000001 0.0260623583
0.0126061963 0.0060000001 0.0222199070
0.0118253841 0.0060000001 0.0223764101
0.0103829621 0.0060000001 0.0180713785
0.0161410010 0.0060000001 0.0225968149
0.0182003186 0.0060000001 0.0234209521
0.0156098641 0.0060000001 0.0176204542
0.0186812038 0.0060000001 0.0219324508
0.0182392905 0.0060000001 0.0209202309
0.0127419754 0.0060000001 0.0182823860
0.0132665263 0.0060000001 0.0127536093
0.0150897765 0.0060000001 0.0159370720
0.0122130776 0.0060000001 0.0106204684
0.0141572304 0.0060000001 0.0125394659
0.0125275597 0.0060000001 0.0104850054
0.0155955022 0.0060000001 0.0132224477
0.0164685612 0.0060000001 0.0115804552
0.0108007070 0.0060000001 0.0066152285
0.0179650735 0.0060000001 0.0124261251
0.0154688618 0.0060000001 0.0105615715
0.0173317588 0.0060000001 0.0083125415
0.0188380103 0.0060000001 0.0066921175
0.0115360350 0.0060000001 0.0055229910
0.0181694435 0.0060000001 0.0063134919
0.0090475566 0.0060000001 -0.0091358462
0.0068254801 0.0060000001 -0.0086249657
-0.0063145849 0.0060000001 -0.0072889291
-0.0099966790 0.0060000001 -0.0078256718
-0.0084249193 0.0060000001 -0.0042338093
0.0156461741 0.0060000001 -0.0052753892
0.0156956095 0.0060000001 -0.0074817078
0.0105624843 0.0060000001 -0.0084144155
0.0130637566 0.0060000001 -0.0090543973
0.0157608360 0.0060000001 -0.0090949980
0.0171178448 0.0060000001 -0.0103567701
0.0116727460 0.0060000001 -0.0132037730
0.0146031953 0.0060000001 -0.0136046813
0.0126129234 0.0060000001 -0.0148695484
0.0168243462 0.0060000001 -0.0151113552
0.0180240131 0.0060000001 -0.0111965662
0.0179489715 0.0060000001 -0.0153789581
0.0198264899 0.0060000001 -0.0132049732
0.0035848246 0.0060000001 -0.0188030935
0.0047750288 0.0060000001 -0.0210678719
0.0054929510 0.0060000001 -0.0235461985
0.0070663572 0.0060000001 -0.0219973508
0.0100820972 0.0060000001 -0.0170518656
0.0094448682 0.0060000001 -0.0201131828
0.0134001555 0.0060000001 -0.0216521355
0.0137610704 0.0060000001 -0.0180167274
0.0151060162 0.0060000001 -0.0207656785
0.0126438544 0.0060000001 -0.0199235562
0.0163861440 0.0060000001 -0.0190108722
0.0198600823 0.0060000001 -0.0213342854
0.0172466553 0.0060000001 -0.0242470072
0.0148687256 0.0060000001 -0.0220955139
0.0180432600 0.0060000001 -0.0232586075
-0.0086802883 0.0060000001 -0.0200087456
-0.0091513343 0.0060000001 -0.0175676477
-0.0065918127 0.0060000001 -0.0223812180
-0.0062272350 0.0060000001 -0.0198180810
-0.0059976019 0.0060000001 -0.0220392192
-0.0045037859 0.0060000001 -0.0178603235
-0.0029604284 0.0060000001 -0.0218461958
-0.0024922590 0.0060000001 -0.0210031943
-0.0125523678 0.0060000001 -0.0253387479
-0.0120614778 0.0060000001 -0.0289988413
-0.0108406521 0.0060000001 -0.0211608513
-0.0150509996 0.0060000001 -0.0245720169
-0.0137366371 0.0060000001 -0.0181988716
-0.0127277356 0.0060000001 -0.0182534310
-0.0131874273 0.0060000001 -0.0185861727
-0.0121495679 0.0060000001 -0.0149976539
-0.0146216077 0.0060000001 -0.0169180964
-0.0140808097 0.0060000001 -0.0100881113
-0.0133208748 0.0060000001 -0.0133999089
-0.0150159904 0.0060000001 -0.0154867420
-0.0114918427 0.0060000001 -0.0074343687
-0.0123375766 0.0060000001 -0.0066220762
-0.0118855012 0.0060000001 -0.0049013930
-0.0166472283 0.0060000001 -0.0337402239
-0.0184937993 0.0060000001 -0.0330791188
-0.0184399824 0.0060000001 -0.0331661270
-0.0195716787 0.0060000001 -0.0268834568
-0.0161822367 0.0060000001 -0.0255772566
-0.0163015962 0.0060000001 -0.0243748431
-0.0155793709 0.0060000001 -0.0186628675
-0.0189146889 0.0060000001 -0.0209831599
-0.0193885311 0.0060000001 -0.0180544459
-0.0178831222 0.0060000001 -0.0165194019
-0.0157302153 0.0060000001 -0.0121457495
-0.0168203417 0.0060000001 -0.0099792430
-0.0189686810 0.0060000001 -0.0143094272
-0.0177755847 0.0060000001 -0.0093902809
-0.0173400308 0.0060000001 -0.0070916164
-0.0171587606 0.0060000001 -0.0059785131
-0.0019708557 0.0060000001 -0.0280930278
-0.0000636697 0.0060000001 -0.0297638807
0.0001948837 0.0060000001 -0.0269483655
0.0015032539 0.0060000001 -0.0279651852
0.0068675377 0.0060000001 -0.0333857498
0.0057086795 0.0060000001 -0.0307946528
0.0061017199 0.0060000001 -0.0299194825
0.0042700249 0.0060000001 -0.0346664805
0.0037382846 0.0060000001 -0.0336473654
0.0029501711 0.0060000001 -0.0294387202
0.0010196873 0.0060000001 -0.0344548358
-0.0078315955 0.0060000001 -0.0316728479
-0.0064273089 0.0060000001 -0.0295705125
-0.0049378268 0.0060000001 -0.0283721001
-0.0060031171 0.0060000001 -0.0343785430
-0.0041034580 0.0060000001 -0.0354476080
-0.0054817880 0.0060000001 -0.0337414187
-0.0030503078 0.0060000001 -0.0353853614
0.0138900553 0.0093809289 -0.0359999985
-0.0160822837 0.0068500748 -0.0359999985
-0.0143713077 0.0090553076 -0.0359999985
-0.0132720254 0.0110110698 -0.0359999985
-0.0132393936 0.0083798382 -0.0359999985
-0.0082445743 0.0060014391 -0.0359999985
0.0073108143 0.0086695694 -0.0359999985
0.0005112930 0.0085214706 -0.0359999985
-0.0000526705 0.0115248100 -0.0359999985
0.0126296064 0.0078860541 -0.0359999985
0.0168738808 0.0105404514 -0.0359999985
0.0127897494 0.0066106460 -0.0359999985
0.0066306630 0.0062251078 -0.0359999985
0.0044454545 0.0099405073 -0.0359999985
0.0035910458 0.0089038374 -0.0359999985
-0.0054623158 0.0084265442 -0.0359999985
-0.0045993774 0.0112776487 -0.0359999985
-0.0034696052 0.0085195725 -0.0359999985
-0.0013430168 0.0080919964 -0.0359999985
-0.0024782854 0.0104930113 -0.0359999985
-0.0199999996 0.0073191778 -0.0129956242
-0.0199999996 0.0107909144 -0.0118539749
-0.0199999996 0.0099672308 -0.0136115989
-0.0199999996 0.0087236534 -0.0152183251
-0.0199999996 0.0079733388 -0.0215987766
-0.0199999996 0.0083739693 -0.0171708912
-0.0199999996 0.0070456147 -0.0175014973
-0.0199999996 0.0114456510 -0.0207223123
-0.0199999996 0.0096422075 -0.0271942798
-0.0199999996 0.0110054059 -0.0230420589
-0.0199999996 0.0084321792 -0.0272960880
-0.0199999996 0.0105499695 -0.0211248383
-0.0199999996 0.0089196646 -0.0240286591
-0.0199999996 0.0095472232 -0.0299608649
-0.0199999996 0.0072414036 -0.0327598670
-0.0199999996 0.0088458353 -0.0305413088
-0.0199999996 0.0081309658 0.0144803819
-0.0199999996 0.0082935092 0.0139532028
-0.0199999996 0.0071644147 0.0092217891
-0.0199999996 0.0090407815 0.0134569913
-0.0199999996 0.0108177212 0.0093996131
-0.0199999996 0.0117931833 0.0074890403
-0.0199999996 0.0066716723 -0.0049844851
-0.0199999996 0.0064110337 0.0064308284
-0.0199999996 0.0110100863 0.0048885685
-0.0199999996 0.0089874646 0.0028530769
-0.0199999996 0.0071026227 -0.0043358061
-0.0199999996 0.0112507114 -0.0046022030
-0.0199999996 0.0096160839 -0.0006519915
-0.0199999996 0.0102153603 0.0011569339
-0.0199999996 0.0107127337 -0.0037742910
-0.0199999996 0.0063419220 -0.0088361458
-0.0199999996 0.0106542119 -0.0091147772
-0.0199999996 0.0111508708 -0.0113695908
-0.0199999996 0.0066427461 0.0294931546
-0.0199999996 0.0072587208 0.0268292307
-0.0199999996 0.0068365274 0.0264881976
-0.0199999996 0.0089856726 0.0250107778
-0.0199999996 0.0110875653 0.0291977345
-0.0199999996 0.0109283448 0.0263982675
-0.0199999996 0.0113741333 0.0238460712
-0.0199999996 0.0075789514 0.0202768329
-0.0199999996 0.0070149928 0.0199848107
-0.0199999996 0.0082731099 0.0186155002
-0.0199999996 0.0112164386 0.0204088585
-0.0199999996 0.0106616928 0.0182613850
-0.0199999996 0.0092787334 0.0152987843
0.0075224313 0.0065036879 0.0359999985
0.0144977560 0.0101380409 0.0359999985
0.0161002537 0.0063296841 0.0359999985
0.0165097239 0.0065353490 0.0359999985
0.0114320974 0.0071635911 0.0359999985
-0.0078185588 0.0081117447 0.0359999985
0.0017008237 0.0060696243 0.0359999985
0.0036632800 0.0103005863 0.0359999985
-0.0001766438 0.0103406370 0.0359999985
0.0018310993 0.0119559177 0.0359999985
0.0010923957 0.0100094492 0.0359999985
-0.0039273942 0.0114069110 0.0359999985
-0.0051947707 0.0101448456 0.0359999985
-0.0074515015 0.0061559101 0.0359999985
-0.0126996630 0.0072356976 0.0359999985
-0.0150611091 0.0097381931 0.0359999985
-0.0153124306 0.0095821553 0.0359999985
0.0072333377 0.0078910740 0.0359999985
0.0069962083 0.0106843700 0.0359999985
0.0049143693 0.0084298674 0.0359999985
0.0199999996 0.0075080789 0.0307660978
0.0199999996 0.0092860717 0.0327448825
0.0199999996 0.0089381384 0.0287119758
0.0199999996 0.0105064672 0.0261033959
0.0199999996 0.0108896610 0.0242361590
0.0199999996 0.0062803494 0.0267289505
0.0199999996 0.0089058932 0.0278957156
0.0199999996 0.0119811988 0.0201444581
0.0199999996 0.0119853239 0.0179386863
0.0199999996 0.0116612374 0.0175727843
0.0199999996 0.0071871955 0.0213415589
0.0199999996 0.0086323903 0.0167598441
0.0199999996 0.0099134013 0.0138779325
0.0199999996 0.0106125082 0.0155611515
0.0199999996 0.0110383927 0.0113170479
0.0199999996 0.0106817720 0.0121155016
0.0199999996 0.0075404202 0.0124809730
0.0199999996 0.0091403432 0.0100769030
0.0199999996 0.0063172129 0.0108204774
0.0199999996 0.0103081117 0.0054544732
0.0199999996 0.0083593475 0.0018628667
0.0199999996 0.0101176245 0.0028606004
0.0199999996 0.0095073498 0.0037110876
0.0199999996 0.0115149439 -0.0002961971
0.0199999996 0.0069989790 0.0041721494
0.0199999996 0.0061269050 -0.0042512447
0.0199999996 0.0062416891 0.0029803848
0.0199999996 0.0070215801 -0.0062195451
0.0199999996 0.0098610434 -0.0052134361
0.0199999996 0.0105521844 -0.0074975019
0.0199999996 0.0089851974 -0.0096301806
0.0199999996 0.0072367652 -0.0098146403
0.0199999996 0.0075533675 -0.0137223226
0.0199999996 0.0074684172 -0.0116620811
0.0199999996 0.0096135119 -0.0142413405
0.0199999996 0.0109158669 -0.0153220081
0.0199999996 0.0099183417 -0.0229312424
0.0199999996 0.0086679516 -0.0171306615
0.0199999996 0.0112253491 -0.0307939667
0.0199999996 0.0104356449 -0.0192614882
0.0199999996 0.0098318081 -0.0238543680
0.0199999996 0.0099672956 -0.0188504317
0.0199999996 0.0066732819 -0.0199023194
0.0199999996 0.0102862557 -0.0295550005
0.0199999996 0.0091772583 -0.0263115273
0.0199999996 0.0076487934 -0.0299724970
0.0199999996 0.0062201643 -0.0290179007
0.0199999996 0.0093411527 -0.0294107450
-0.0059140382 0.0113907174 0.0117418275
-0.0080435190 0.0104898658 0.0133006155
-0.0086380859 0.0098999999 0.0137844050
-0.0094998671 0.0097971166 0.0124995055
-0.0085667082 0.0064057792 0.0106516451
-0.0064254674 0.0065096056 0.0101539457
-0.0047131200 0.0082951536 0.0117046254
-0.0045775434 0.0065785456 0.0127893968
-0.0069199734 0.0085631952 0.0149785566
-0.0085364982 0.0098550712 0.0143785652
-0.0093654109 0.0066076990 0.0130022929
-0.0056838789 0.0117298296 -0.0126264373
-0.0080809310 0.0101507751 -0.0117367967
-0.0086963567 0.0098999999 -0.0128399514
-0.0093694598 0.0080950405 -0.0129871819
-0.0074175565 0.0090041306 -0.0148881159
-0.0058343609 0.0062700834 -0.0146876679
-0.0048161452 0.0096633605 -0.0136798700
-0.0049838570 0.0067997454 -0.0111010799
-0.0068589283 0.0091276197 -0.0100377999
-0.0085692063 0.0086993319 -0.0106541433
-0.0094306051 0.0072244540 -0.0122410158
0.0082890704 0.0104542197 -0.0127273921
0.0057536896 0.0111807341 -0.0121130256
0.0062404823 0.0098999999 -0.0110668623
0.0048173061 0.0078126672 -0.0136842024
0.0065152007 0.0091619859 -0.0148700982
0.0076602955 0.0077197954 -0.0148230742
0.0092561896 0.0078132460 -0.0134099126
0.0086552820 0.0095145871 -0.0107402190
0.0070384233 0.0093171937 -0.0100102952
0.0053046299 0.0080487028 -0.0107803070
0.0056772121 0.0115185639 0.0123984438
0.0083414311 0.0112889474 0.0125319791
0.0057736932 0.0099382395 0.0129616292
0.0060602645 0.0098999999 0.0135900994
0.0048040159 0.0070652607 0.0113653974
0.0058503487 0.0063133730 0.0103080485
0.0082230979 0.0084247973 0.0103277285
0.0093529552 0.0081072656 0.0119512223
0.0091026159 0.0065486793 0.0138124476
0.0072938785 0.0060751333 0.0149212553
0.0053789696 0.0074198259 0.0142940331
0.0025572305 0.0057653587 0.0085336088
-0.0018807773 0.0050836245 0.0087322334
-0.0072537932 0.0045663765 0.0052321688
-0.0088821129 0.0049948012 0.0008199215
-0.0076211133 0.0055774632 -0.0047566518
-0.0025655597 0.0052697594 -0.0085311632
0.0024398520 0.0054166569 -0.0085680743
0.0061070619 0.0053744408 -0.0065555672
0.0088380299 0.0049109797 -0.0011265261
0.0081342877 0.0046907273 0.0036329569
-0.0071705591 0.0039999997 -0.0002927926
-0.0062835061 0.0039999997 -0.0012444563
-0.0051279063 0.0039999997 0.0055418450
-0.0020218495 0.0039999997 0.0006894705
-0.0080354355 0.0039999997 0.0017150855
0.0005498047 0.0039999997 0.0076454032
0.0001415951 0.0039999997 0.0083802621
-0.0028712140 0.0039999997 0.0074353332
-0.0026655548 0.0039999997 0.0037910085
0.0012824630 0.0039999997 0.0014255324
0.0037469979 0.0039999997 0.0062472477
0.0013222094 0.0039999997 0.0049451138
0.0013655941 0.0039999997 0.0030765699
0.0075504278 0.0039999997 -0.0008939522
0.0032574248 0.0039999997 0.0004490795
0.0033460852 0.0039999997 0.0011923396
0.0031451130 0.0039999997 -0.0045132249
0.0030715617 0.0039999997 -0.0041027368
0.0036441719 0.0039999997 -0.0029165783
0.0056502219 0.0039999997 -0.0016979233
-0.0019690729 0.0039999997 -0.0052440674
0.0010240992 0.0039999997 -0.0083601844
0.0014472822 0.0039999997 -0.0039818295
0.0018482057 0.0039999997 -0.0049089978
-0.0053322818 0.0039999997 -0.0015895067
-0.0023362783 0.0039999997 -0.0022713761
-0.0030482634 0.0039999997 -0.0039197074
0.0127366759 0.0074000000 -0.0343395833
0.0086339854 0.0074000000 -0.0348896929
0.0069240602 0.0074000000 -0.0303560593
0.0116191300 0.0074000000 -0.0311172417
0.0074525173 0.0088906147 -0.0354586396
0.0067579371 0.0115935378 -0.0348422084
0.0060768296 0.0088543306 -0.0330205390
0.0061926510 0.0100939471 -0.0313715440
0.0078347758 0.0086129229 -0.0292391348
0.0084346504 0.0110710512 -0.0288495262
0.0101442557 0.0102674451 -0.0285322109
0.0130224267 0.0098080487 -0.0299031207
0.0137140510 0.0114433653 -0.0311889460
0.0139007811 0.0113919050 -0.0323422011
0.0132554076 0.0087564568 -0.0348111982
0.0121776206 0.0112331939 -0.0357863498
0.0090939671 0.0072456181 -0.0344072296
0.0106213615 0.0060564582 -0.0305164928
-0.0076335757 0.0074000000 -0.0348632731
-0.0123473104 0.0074000000 -0.0334024090
-0.0121248327 0.0074000000 -0.0301833374
-0.0077920783 0.0074000000 -0.0300567384
-0.0120194925 0.0111475661 -0.0359264566
-0.0134497383 0.0111664707 -0.0343596147
-0.0139042153 0.0111963654 -0.0324462472
-0.0134761693 0.0116287138 -0.0307233747
-0.0118597152 0.0096237967 -0.0290024882
-0.0106166617 0.0119506406 -0.0286376941
-0.0087948585 0.0090865639 -0.0287690955
-0.0073477754 0.0102343671 -0.0296163636
-0.0061853639 0.0080528315 -0.0313858059
-0.0060918626 0.0105699471 -0.0325650764
-0.0067421537 0.0099556211 -0.0348055311
-0.0078373553 0.0111540207 -0.0357996192
-0.0119376852 0.0066371933 -0.0332923685
-0.0087939211 0.0066197906 -0.0307691238
-0.0106029818 0.0074000000 0.0358232931
-0.0068870489 0.0074000000 0.0344163284
-0.0089649557 0.0074000000 0.0295952918
-0.0132181661 0.0074000000 0.0308198759
-0.0073188821 0.0099833299 0.0353402342
-0.0066693771 0.0115241039 0.0346364134
-0.0061073698 0.0096492906 0.0320952486
-0.0065652141 0.0109857311 0.0306423805
-0.0073367699 0.0111457152 0.0296248884
-0.0095306497 0.0100958269 0.0286048010
-0.0107209095 0.0110295299 0.0286609715
-0.0130985553 0.0096417807 0.0299843255
-0.0138744408 0.0114557541 0.0315441682
-0.0138560416 0.0096654530 0.0334154517
-0.0123349357 0.0074630542 0.0356469633
-0.0080606021 0.0069083674 0.0317140220
-0.0121373763 0.0070150719 0.0325471107
-0.0079046889 0.0071888776 0.0327041013
0.0095871786 0.0074000000 0.0348073845
0.0133341422 0.0074000000 0.0325339626
0.0099544022 0.0074000000 0.0292916611
0.0063180315 0.0074000000 0.0316186447
0.0130815148 0.0092586714 0.0349854687
0.0138802177 0.0095937293 0.0333592716
0.0134095275 0.0082803582 0.0305929463
0.0125876401 0.0079434538 0.0295663365
0.0108582313 0.0093262995 0.0286916341
0.0099070631 0.0079101892 0.0285207518
0.0073044254 0.0076189479 0.0296499423
0.0069040755 0.0094515337 0.0299791765
0.0061029966 0.0090299712 0.0322277462
0.0064884724 0.0075361905 0.0342160290
0.0071189500 0.0074653025 0.0351630875
0.0109666274 0.0061207395 0.0306090063
0.0085130995 0.0073614135 0.0339500531
0.0081528858 0.0043339820 -0.0031966574
-0.0025053338 0.0041639978 -0.0082022247
-0.0086911284 0.0042547161 -0.0004422646
-0.0012783674 0.0043300849 0.0087338314
0.0072241527 0.0040648357 0.0045889963
0.0096450368 0.0109512372 -0.0025825515
0.0089443501 0.0102298708 -0.0042745874
0.0048862316 0.0091260455 -0.0086772669
0.0035440256 0.0094939377 -0.0092543766
0.0016701347 0.0113922362 -0.0098157680
-0.0029417638 0.0107409444 -0.0095071918
-0.0059695748 0.0107585342 -0.0079803233
-0.0085681713 0.0098854745 -0.0049771502
-0.0096215941 0.0114375450 -0.0023797907
-0.0099068591 0.0112563592 0.0013306556
-0.0095037343 0.0112184617 0.0028004379
-0.0068818766 0.0098184267 0.0071282929
-0.0055596178 0.0093417599 0.0082770535
-0.0021904964 0.0106245693 0.0096633070
0.0014849828 0.0095080988 0.0098284328
0.0049229733 0.0101311488 0.0086513318
0.0080089245 0.0091417173 0.0058537736
0.0095080965 0.0094940092 0.0029767141
0.0097225138 0.0110427397 0.0020188631
0.0069295749 0.0089999996 -0.0013315669
0.0033378310 0.0089999996 0.0005844149
0.0068480297 0.0089999996 0.0001014889
0.0034671196 0.0089999996 0.0048847861
0.0036353761 0.0089999996 0.0028741788
0.0061467648 0.0089999996 0.0057449827
0.0009523467 0.0089999996 0.0003145567
0.0082243959 0.0089999996 0.0039059508
-0.0002195425 0.0089999996 0.0019693775
0.0005311665 0.0089999996 0.0055578302
-0.0002319676 0.0089999996 0.0063284287
0.0026970937 0.0089999996 0.0057939909
0.0026006886 0.0089999996 0.0066800432
-0.0075051702 0.0089999996 0.0047143211
-0.0050275347 0.0089999996 0.0055391517
-0.0075668376 0.0089999996 0.0061879065
-0.0033436153 0.0089999996 0.0088418552
-0.0093105562 0.0089999996 -0.0026671514
-0.0083067244 0.0089999996 -0.0013559616
-0.0062411969 0.0089999996 -0.0000802962
-0.0056477694 0.0089999996 -0.0001140687
-0.0053116919 0.0089999996 0.0015280648
-0.0031507549 0.0089999996 -0.0082061600
-0.0020926001 0.0089999996 -0.0058136767
-0.0046462787 0.0089999996 -0.0065525063
-0.0016087063 0.0089999996 -0.0011233474
-0.0068940933 0.0089999996 -0.0053282826
0.0015995687 0.0089999996 -0.0052267519
0.0026668343 0.0089999996 -0.0083342380
0.0001162113 0.0089999996 -0.0017882413
-0.0005180457 0.0089999996 -0.0071509818
-0.0013194264 0.0089999996 -0.0078368900
0.0061551517 0.0089999996 -0.0027760383
0.0051102749 0.0089999996 -0.0025873036
0.0049921590 0.0089999996 -0.0034132433
0.0010928839 0.0089999996 -0.0013247380
0.0049293783 0.0089999996 -0.0060826859
0.0022568981 0.0119119147 -0.0101449057
-0.0077141623 0.0117532625 -0.0066943026
-0.0089371539 0.0117431788 0.0048340509
-0.0000644621 0.0118026931 0.0102349922
0.0095189115 0.0117735777 0.0036321080
0.0136956606 0.0110887071 -0.0016326151
0.0164451075 0.0118747263 0.0014918473
0.0132431279 0.0105999997 0.0013658421
0.0170526361 0.0105999997 -0.0004321197
0.0156618322 0.0105999997 0.0035913292
0.0146288045 0.0105999997 -0.0022329039
0.0174570386 0.0105999997 -0.0011035403
0.0120097651 0.0100093467 -0.0025407916
0.0129513686 0.0082918927 -0.0033350926
0.0150848441 0.0097605225 -0.0039430595
0.0154371044 0.0063668790 -0.0039719173
0.0173063919 0.0072625728 -0.0031882255
0.0184812952 0.0086155960 -0.0018003511
0.0189125910 0.0070020132 0.0002865603
0.0185025119 0.0065601393 0.0017526976
0.0173775835 0.0071578679 0.0031241242
0.0156521073 0.0084502029 0.0039020586
0.0138851060 0.0060391290 0.0038169621
0.0118601716 0.0105501444 0.0023348939
0.0110412421 0.0104602311 0.0001940293
-0.0015001105 0.0112615454 0.0135631560
0.0020292589 0.0108917201 0.0154506121
-0.0020774265 0.0113605209 0.0152708478
-0.0021635581 0.0105999997 0.0145411531
0.0011588281 0.0105999997 0.0171574669
-0.0004522570 0.0105999997 0.0121455404
0.0033383553 0.0105999997 0.0142486709
-0.0038218908 0.0075636074 0.0141620620
-0.0027489477 0.0062795330 0.0121271059
-0.0004618191 0.0094815569 0.0111143971
0.0005520440 0.0098487076 0.0110654287
0.0023900017 0.0091800470 0.0118870577
0.0037406114 0.0097930149 0.0137820818
0.0039125904 0.0102158167 0.0141939065
0.0034388128 0.0077749820 0.0168957689
0.0028239573 0.0070161625 0.0177222072
0.0005622842 0.0067615740 0.0189312435
-0.0008760705 0.0084242545 0.0188420632
-0.0021665360 0.0060236014 0.0182670200
-0.0037358514 0.0102816257 0.0162427213
-0.0171270058 0.0111140448 -0.0000858146
-0.0129006020 0.0109951616 -0.0001888503
-0.0168970767 0.0116915411 0.0009439230
-0.0133584234 0.0105999997 0.0020507736
-0.0170992477 0.0105999997 0.0014400551
-0.0171410321 0.0105999997 -0.0019414610
-0.0124220453 0.0105999997 -0.0025124920
-0.0188383986 0.0060309384 -0.0007602750
-0.0182969372 0.0061994928 -0.0021186525
-0.0168030564 0.0075959456 -0.0034768756
-0.0134428461 0.0103585505 -0.0036079909
-0.0120967714 0.0099306919 -0.0026508308
-0.0111907859 0.0104030792 -0.0010638344
-0.0110874092 0.0103114647 -0.0003738613
-0.0111055688 0.0069518323 0.0008724339
-0.0120125245 0.0086200295 0.0025749746
-0.0142311807 0.0091223102 0.0038641365
-0.0156836482 0.0090578599 0.0038622878
-0.0165322847 0.0062662247 0.0036332058
-0.0180091671 0.0073871098 0.0025147340
-0.0189239918 0.0064551397 0.0003575889
0.0020483819 0.0116385347 -0.0153792439
-0.0013520170 0.0107089559 -0.0134150625
-0.0027646517 0.0105999997 -0.0136726113
-0.0008609226 0.0105999997 -0.0182773690
0.0035013236 0.0105999997 -0.0165994406
0.0006211767 0.0105999997 -0.0127843089
-0.0036971194 0.0079995039 -0.0164249410
-0.0027311212 0.0065533372 -0.0178974304
-0.0015389741 0.0082688705 -0.0186293431
-0.0008021213 0.0061652508 -0.0188498356
0.0016401279 0.0089109039 -0.0185810310
0.0037198989 0.0095006899 -0.0162644396
0.0039125904 0.0103980848 -0.0155826573
0.0036095828 0.0095682469 -0.0134877869
0.0026599226 0.0088667647 -0.0121300956
0.0011611589 0.0091997898 -0.0112633424
-0.0000125240 0.0068030192 -0.0110671741
-0.0020383643 0.0065965792 -0.0116589803
-0.0033617387 0.0086013440 -0.0129705404
-0.0039901682 0.0069763981 -0.0149537437
-0.0198637699 0.0083296391 0.0331362295
-0.0175873301 0.0095751690 0.0354126692
-0.0181746902 0.0089113665 0.0348253091
-0.0179055883 0.0062728748 -0.0350944110
-0.0184328980 0.0115776792 -0.0345671013
-0.0184852761 0.0100884052 -0.0345147233
0.0184948678 0.0087819976 -0.0345051316
0.0176915826 0.0112092945 -0.0353084168
0.0188661110 0.0109425876 -0.0341338884
0.0196033196 0.0068623136 0.0333966794
0.0182044426 0.0106257575 0.0347955564
0.0175420265 0.0096213596 0.0354579721
0.0018997928 0.0093386853 -0.0334337844
0.0004951655 0.0067818428 -0.0345173218
-0.0007851172 0.0069560545 -0.0344396291
-0.0017036360 0.0109871183 -0.0337333174
-0.0020867541 0.0112982011 -0.0327360359
-0.0017646631 0.0090151948 -0.0313277077
-0.0008036128 0.0103949939 -0.0305653268
0.0001193655 0.0119408336 -0.0303819835
0.0012976839 0.0114562882 -0.0308607286
0.0021318341 0.0110909834 0.0324322025
0.0015554489 0.0092489132 0.0311184936
0.0003698131 0.0117700690 0.0304490907
-0.0007407029 0.0103115049 0.0305484702
-0.0018908094 0.0097935405 0.0315326869
-0.0021078137 0.0100382122 0.0326574404
-0.0017501494 0.0114931156 0.0336868039
-0.0008937675 0.0118616067 0.0344105161
0.0010967484 0.0081999893 0.0343402064
0.0019259497 0.0069893402 0.0333361657
