-0.0443120452 -0.0157656069 0.0070869834
-0.0445180025 -0.0153815924 0.0071731185
-0.0441038436 -0.0038440423 0.0069999097
-0.0448904311 -0.0087413257 0.0073380512
-0.0451968002 -0.0130451395 0.0075309901
-0.0455921395 -0.0018585668 0.0077799587
-0.0461052389 -0.0067442864 0.0081030879
-0.0183191281 -0.0179376515 -0.0014632982
-0.0467100295 -0.0005627896 0.0084331314
-0.0463002443 -0.0067684881 0.0082207515
-0.0075160226 0.0000000032 -0.0053188670
-0.0075465698 0.0000000032 -0.0093981692
-0.0510442069 0.0000000032 0.0038802802
-0.0497886685 0.0000000032 0.0036045122
-0.0473764544 0.0000000032 0.0066548815
-0.0344208336 0.0000000032 0.0016711790
-0.0431267099 0.0000000032 0.0049943068
-0.0419752429 0.0000000032 0.0048589027
-0.0389760976 0.0000000032 0.0034722919
-0.0287410679 0.0000000032 0.0010186320
-0.0136308745 0.0000000032 -0.0034002079
-0.0100455081 0.0000000032 -0.0053228059
-0.0323698733 0.0000000032 0.0027087491
-0.0154985118 0.0000000032 -0.0055334477
-0.0295637939 0.0000000032 -0.0011350179
-0.0171380069 0.0000000032 -0.0046545007
-0.0463144468 0.0000000032 0.0046250744
-0.0096085214 0.0000000032 -0.0065451834
-0.0259869585 0.0000000032 -0.0012262456
-0.0321778429 0.0000000032 -0.0024508523
-0.0332022969 0.0000000032 -0.0023052617
-0.0316185541 0.0000000032 -0.0029882404
-0.0255335859 0.0000000032 -0.0044184527
-0.0429473972 0.0000000032 0.0004660077
-0.0115531569 0.0000000032 -0.0076034531
-0.0273657145 0.0000000032 -0.0021909153
-0.0176562349 0.0000000032 -0.0072097289
-0.0161197261 0.0000000032 -0.0079601052
-0.0336624388 0.0000000032 -0.0000186550
-0.0111194502 0.0000000032 -0.0083880599
-0.0119121886 0.0000000032 -0.0097426722
-0.0072048112 -0.0011175348 -0.0083356857
-0.0111196576 -0.0011504342 -0.0036866975
-0.0082915738 -0.0178978981 -0.0092055471
-0.0079485855 -0.0162918976 -0.0064025249
-0.0164940011 -0.0147067710 -0.0020147376
-0.0430122021 -0.0047160522 0.0065722561
-0.0425751577 -0.0114990686 0.0064307363
-0.0418291724 -0.0101912109 0.0061891781
-0.0161163065 -0.0010460717 -0.0021370313
-0.0294766400 -0.0006921232 0.0021892404
-0.0208921649 -0.0012175232 -0.0005905399
-0.0231875634 -0.0004149431 0.0001527475
-0.0310905034 -0.0002289326 0.0027118352
-0.0174859760 -0.0117637816 -0.0016935130
-0.0164728668 -0.0106522461 -0.0020215723
-0.0175725491 -0.0123019262 -0.0016654806
-0.0227505158 -0.0125201663 0.0000112187
-0.0266552517 -0.0112296017 0.0012756326
-0.0255923411 -0.0131947926 0.0009314452
-0.0258813699 -0.0125183907 0.0010250373
-0.0255190272 -0.0113836210 0.0009077056
-0.0359104228 -0.0142586617 0.0042725954
-0.0339877206 -0.0155983127 0.0036499935
-0.0293966101 -0.0141823296 0.0021633240
-0.0392433153 -0.0167531669 0.0053518335
-0.0236509849 -0.0138851144 0.0003028038
-0.0312364631 -0.0148172040 0.0027590956
-0.0209911417 -0.0156208614 -0.0005584960
-0.0297916982 -0.0134477507 0.0022912605
-0.0249723613 -0.0136794555 0.0007306858
-0.0402926422 -0.0124484235 0.0056916268
-0.0344728355 -0.0141742815 0.0038070829
-0.0215351412 -0.0157566633 -0.0003823405
-0.0164564150 -0.0171395769 -0.0020268983
-0.0408377889 -0.0177820196 0.0058681478
-0.0316058641 -0.0172070407 0.0028787136
-0.0160602462 -0.0176166698 -0.0021551811
-0.0129993342 -0.0168687315 -0.0031463498
-0.0251276680 -0.0061599050 0.0007809760
-0.0250277154 -0.0039493858 0.0007486085
-0.0222606017 -0.0062265448 -0.0001474234
-0.0213245359 -0.0068175074 -0.0004505353
-0.0392070029 -0.0011618854 0.0053400744
-0.0247260517 -0.0026585712 0.0006509245
-0.0240367512 -0.0035893226 0.0004277191
-0.0209653899 -0.0053270135 -0.0005668331
-0.0339732682 -0.0068681383 0.0036453181
-0.0404299417 -0.0046832341 0.0057360852
-0.0359646097 -0.0062633103 0.0042901442
-0.0366979922 -0.0025308455 0.0045276198
-0.0365159715 -0.0074529587 0.0044686853
-0.0312815046 -0.0062723292 0.0027736829
-0.0390909097 -0.0057859265 0.0053024876
-0.0408394141 -0.0042604924 0.0058686781
-0.0117180493 -0.0164241863 -0.0035464520
-0.0080432782 -0.0160630152 -0.0040773077
-0.0059263519 -0.0180000030 -0.0090630792
-0.0482094119 -0.0180000030 0.0019457812
-0.0503398697 -0.0180000030 0.0080219421
-0.0108465121 -0.0180000030 -0.0072876204
-0.0232873596 -0.0180000030 -0.0028933004
-0.0443746691 -0.0180000030 0.0036566627
-0.0183086302 -0.0180000030 -0.0052385373
-0.0182594059 -0.0180000030 -0.0053103299
-0.0348897352 -0.0180000030 0.0028557166
-0.0422456574 -0.0180000030 0.0040565067
-0.0302884726 -0.0180000030 0.0021977594
-0.0252750508 -0.0180000030 -0.0001632162
-0.0350406737 -0.0180000030 0.0031653841
-0.0120890832 -0.0180000030 -0.0035659560
-0.0133379007 -0.0180000030 -0.0048964073
-0.0268686563 -0.0180000030 -0.0009554264
-0.0159282346 -0.0180000030 -0.0041689568
-0.0130494656 -0.0180000030 -0.0045235721
-0.0063051456 -0.0180000030 -0.0068212457
-0.0096686195 -0.0180000030 -0.0047907771
-0.0374138581 -0.0180000030 0.0001675827
-0.0401184276 -0.0180000030 -0.0000471761
-0.0353699303 -0.0180000030 -0.0005995740
-0.0270856068 -0.0180000030 -0.0044274160
-0.0432399440 -0.0180000030 0.0016989090
-0.0176317989 -0.0180000030 -0.0066196656
-0.0157888145 -0.0180000030 -0.0078363970
-0.0334284161 -0.0180000030 -0.0010556236
-0.0186432167 -0.0180000030 -0.0070691334
-0.0104199577 -0.0180000030 -0.0105007413
-0.0277938852 -0.0104999961 0.0009069163
-0.0234026760 -0.0104999961 -0.0049262341
-0.0241849974 -0.0104999961 -0.0015810210
-0.0235544698 -0.0104999961 -0.0045914461
-0.0226703609 -0.0104999961 -0.0046724442
-0.0376587749 -0.0104999961 0.0047485397
-0.0284725928 -0.0104999961 -0.0034256194
-0.0353159638 -0.0104999961 -0.0004343501
-0.0347375522 -0.0104999961 -0.0017040020
-0.0356936812 -0.0104999961 0.0012550588
-0.0325085841 -0.0104999961 -0.0027413946
-0.0330961697 -0.0104999961 -0.0019736062
-0.0333122833 -0.0104999961 -0.0018774180
-0.0204797306 -0.0101565071 -0.0012349772
-0.0217224309 -0.0083574314 -0.0064856433
-0.0224542099 -0.0075553261 -0.0051055259
-0.0362724717 -0.0075000045 -0.0003743906
-0.0232556067 -0.0075000045 -0.0058388124
-0.0273749822 -0.0075000045 -0.0024876542
-0.0264326112 -0.0075000045 -0.0030419472
-0.0292537702 -0.0075000045 -0.0041473652
-0.0291632924 -0.0075000045 -0.0024875507
-0.0379913218 -0.0075000045 0.0023365718
-0.0326296710 -0.0075000045 0.0009485461
-0.0320914172 -0.0075000045 0.0007154478
-0.0385240538 -0.0075000045 0.0043650637
-0.0397947562 -0.0075000045 0.0028207861
-0.0401139164 -0.0075000045 0.0000718805
-0.0391372282 -0.0075000045 0.0024913815
-0.0415674518 -0.0081613292 0.0029549935
-0.0410108974 -0.0093666027 0.0052950232
-0.0398437030 -0.0104702990 0.0047090824
-0.0483354662 -0.0079993598 0.0014414380
-0.0471215765 -0.0088913781 0.0013632718
-0.0473645782 -0.0056131349 0.0013789195
-0.0462069228 -0.0121698966 0.0012069667
-0.0453246939 -0.0060658060 0.0010002141
-0.0453505204 -0.0061811767 0.0010062666
-0.0361555598 -0.0000652015 -0.0019181735
-0.0056384802 -0.0023999927 -0.0081097561
-0.0103990319 -0.0023999927 -0.0059186259
-0.0121875816 -0.0023999927 -0.0056195354
-0.0106904520 -0.0023999927 -0.0076070389
-0.0105635647 -0.0023999927 -0.0078453281
-0.0091425678 -0.0023999927 -0.0057972183
-0.0120966937 -0.0023999927 -0.0091430238
-0.0078165076 -0.0023999927 -0.0112264882
-0.0169776725 -0.0026870877 -0.0059188187
-0.0172720847 -0.0125786094 -0.0046622453
-0.0180502680 -0.0077077589 -0.0070654180
-0.0178154179 -0.0127440042 -0.0063401580
-0.0173375525 -0.0066099534 -0.0048644219
-0.0170177134 -0.0101890758 -0.0038767000
-0.0167022891 -0.0104306590 -0.0029026119
-0.0164725214 -0.0110018145 -0.0021930469
-0.0165101307 -0.0151793589 -0.0038261537
-0.0062398647 -0.0155999931 -0.0049928198
-0.0056283519 -0.0155999931 -0.0075235898
-0.0106398038 -0.0155999931 -0.0092008972
-0.0110222513 -0.0155999931 -0.0077518509
-0.0159570915 -0.0155999931 -0.0080060193
-0.0134873756 -0.0155999931 -0.0069210631
-0.0100627184 -0.0155999931 -0.0046300334
-0.0109028487 -0.0171503629 -0.0106740732
-0.0171203474 -0.0179211550 -0.0080964111
-0.0428507068 -0.0045848314 0.0002132468
-0.0171889811 -0.0161896734 -0.0080964139
-0.0382313231 -0.0174074961 -0.0012825846
-0.0274606190 -0.0178224014 -0.0047703074
-0.0341728321 -0.0175452403 -0.0025967875
-0.0309673193 -0.0166416442 -0.0036347776
-0.0196974781 -0.0096749017 -0.0072841139
-0.0186677779 -0.0073210954 -0.0076175454
-0.0446050847 -0.0110512255 0.0007813379
-0.0434791031 -0.0077305059 0.0004167328
-0.0444797937 -0.0029510100 0.0007407673
-0.0192635326 -0.0053479128 -0.0074246328
-0.0207031261 -0.0125228025 -0.0069584770
-0.0320346433 -0.0151134754 -0.0032891619
-0.0198630972 -0.0140050296 -0.0072304922
-0.0351280135 -0.0156587885 -0.0022874821
-0.0280798746 -0.0141837613 -0.0045697752
-0.0245212012 -0.0157816805 -0.0057221288
-0.0206245030 -0.0134280075 -0.0069839370
-0.0327929052 -0.0143635996 -0.0030436246
-0.0340832263 -0.0162618962 -0.0026258005
-0.0357337676 -0.0135855207 -0.0020913276
-0.0426107338 -0.0166595450 0.0001355356
-0.0401276483 -0.0142888254 -0.0006685225
-0.0378316117 -0.0109308149 -0.0014120099
-0.0417267515 -0.0139350057 -0.0001507078
-0.0354503605 -0.0113588569 -0.0021830962
-0.0405798204 -0.0140151069 -0.0005221018
-0.0434522318 -0.0151387535 0.0004080276
-0.0236348025 -0.0053293398 -0.0060091552
-0.0205468756 -0.0045725991 -0.0070090738
-0.0277680376 -0.0065975986 -0.0046707496
-0.0207254605 -0.0040091249 -0.0069512455
-0.0274255110 -0.0071083101 -0.0047816647
-0.0299694817 -0.0033354036 -0.0039578913
-0.0413241888 -0.0047378213 -0.0002810627
-0.0346080606 -0.0015215714 -0.0024558512
-0.0265914883 -0.0028360772 -0.0050517376
-0.0269345801 -0.0035285831 -0.0049406384
-0.0327128196 -0.0026273502 -0.0030695576
-0.0405222037 -0.0036702174 -0.0005407590
-0.0324817389 -0.0018076746 -0.0031443861
-0.0334613378 -0.0023627562 -0.0028271764
-0.0359314806 -0.0052012818 -0.0020273031
-0.0367210536 -0.0034431710 -0.0017716295
-0.0335798393 -0.0012566461 -0.0027888052
-0.0265066513 -0.0015828275 -0.0050792094
-0.0220066862 -0.0004829401 -0.0065363736
-0.0225954043 -0.0006259437 -0.0063457368
-0.0213338707 -0.0008991741 -0.0067542394
-0.0149296332 -0.0011268210 -0.0088280274
-0.0474275850 -0.0017207517 0.0087776805
-0.0484839733 -0.0154271071 0.0089460871
-0.0481623113 -0.0110411522 0.0088946536
-0.0489065331 -0.0144285378 0.0088983542
-0.0489939418 -0.0003171328 0.0088692334
-0.0499315655 -0.0008153638 0.0086618261
-0.0506940334 -0.0011259780 0.0081862117
-0.0508019508 -0.0085186454 0.0081428000
-0.0510684516 -0.0168147730 0.0079228912
-0.0516807341 -0.0076817654 0.0071666141
-0.0519108223 -0.0171800059 0.0067315248
-0.0521298841 -0.0076756751 0.0060652870
-0.0521761213 -0.0116643066 0.0058963394
-0.0522295728 -0.0126977153 0.0055396087
-0.0521781568 -0.0005990992 0.0045708622
-0.0521856178 -0.0126128060 0.0045499161
-0.0520439624 -0.0047188458 0.0040662545
-0.0519156990 -0.0169151005 0.0037030292
-0.0514398180 -0.0037150988 0.0029263951
-0.0516139299 -0.0058245693 0.0031123476
-0.0509881242 -0.0094050602 0.0024227854
-0.0506432725 -0.0052794410 0.0021429434
-0.0500101273 -0.0168105522 0.0018054205
-0.0495016882 -0.0162578038 0.0015981939
-0.0495488255 -0.0031046359 0.0016116955
-0.0489751378 -0.0134834547 0.0015240113
-0.0099971405 -0.0020423183 -0.0079261321
-0.0068428573 -0.0006974850 -0.0044648456
-0.0048330018 -0.0004768425 -0.0082415442
-0.0070900485 -0.0008319127 -0.0111870911
-0.0092433642 -0.0171931841 -0.0064414529
-0.0105610675 -0.0178460986 -0.0108628621
-0.0051137707 -0.0178055216 -0.0063791501
-0.0055389799 -0.0178897915 -0.0098905958
-0.0089458228 -0.0176657402 -0.0114147266
-0.0480043767 -0.0016326198 0.0065587003
-0.0472607284 -0.0159672078 0.0059842378
-0.0473497781 -0.0076864029 0.0060819531
-0.0470951417 -0.0129745542 0.0055381093
-0.0470839428 -0.0129238011 0.0048805728
-0.0472146602 -0.0117407778 0.0044698912
-0.0472540243 -0.0087694768 0.0043756954
-0.0478422072 -0.0125195742 0.0038587034
-0.0482516923 -0.0078736928 0.0037690940
-0.0490762786 -0.0167354665 0.0038588573
-0.0495512739 -0.0124878523 0.0041955945
-0.0497291486 -0.0092178532 0.0043907774
-0.0498573734 -0.0134326429 0.0046053624
-0.0499182371 -0.0037637393 0.0048834838
-0.0497939006 -0.0008197161 0.0059206960
-0.0495708590 -0.0122787421 0.0061848788
-0.0495151914 -0.0055986912 0.0062356115
-0.0488405214 -0.0061314502 0.0066065851
-0.0093507860 -0.0003703171 -0.0169764692
-0.0120574223 -0.0023999927 -0.0176070802
-0.0140327602 -0.0023999927 -0.0157543144
-0.0116766515 -0.0023999927 -0.0187681400
-0.0100154304 -0.0023999927 -0.0145075998
-0.0101042331 -0.0023999927 -0.0191844661
-0.0080531652 -0.0023999927 -0.0167886721
-0.0524708160 0.0000000032 -0.0022313461
-0.0498201206 0.0000000032 -0.0019959070
-0.0358075518 0.0000000032 -0.0071275482
-0.0376700505 0.0000000032 -0.0065232477
-0.0294804751 0.0000000032 -0.0090681494
-0.0342736809 0.0000000032 -0.0072635262
-0.0423573637 0.0000000032 -0.0065220611
-0.0275522069 0.0000000032 -0.0151798195
-0.0415882114 0.0000000032 -0.0091535659
-0.0246714868 0.0000000032 -0.0161375386
-0.0448287466 0.0000000032 -0.0090468050
-0.0404459727 0.0000000032 -0.0109371361
-0.0199468466 0.0000000032 -0.0173550480
-0.0163104263 0.0000000032 -0.0174007791
-0.0231276578 0.0000000032 -0.0155280732
-0.0224877142 0.0000000032 -0.0152873485
-0.0142890925 0.0000000032 -0.0166582618
-0.0183547667 0.0000000032 -0.0176071811
-0.0513446415 0.0000000032 -0.0082018960
-0.0361627671 0.0000000032 -0.0096252135
-0.0347262821 0.0000000032 -0.0101270557
-0.0152335537 0.0000000032 -0.0161693311
-0.0306126696 0.0000000032 -0.0101317583
-0.0128004806 0.0000000032 -0.0160840244
-0.0380895442 0.0000000032 -0.0077605498
-0.0259262360 0.0000000032 -0.0116138837
-0.0142361146 0.0000000032 -0.0144420591
-0.0108351777 0.0000000032 -0.0156004694
-0.0076540285 0.0000000032 -0.0176434984
-0.0108162923 0.0000000032 -0.0202286580
-0.0111745721 -0.0022840499 -0.0139480810
-0.0262478323 -0.0000632171 -0.0095497836
-0.0441313064 -0.0152685347 -0.0043047237
-0.0452077617 -0.0089133840 -0.0052934729
-0.0452244773 -0.0075774541 -0.0053450938
-0.0453640129 -0.0121998120 -0.0057760040
-0.0450227919 -0.0069179946 -0.0047222540
-0.0456245902 -0.0055168719 -0.0065807120
-0.0460296596 -0.0084988561 -0.0078316370
-0.0459912441 -0.0106650043 -0.0077130032
-0.0461127678 -0.0038437877 -0.0082241621
-0.0451744194 -0.0025602394 -0.0093297830
-0.0205161636 -0.0024999944 -0.0117268926
-0.0433413017 -0.0024999944 -0.0100281726
-0.0424337277 -0.0024999944 -0.0105320066
-0.0336106501 -0.0024999944 -0.0128635881
-0.0362221669 -0.0024999944 -0.0110406957
-0.0267998120 -0.0024999944 -0.0121625814
-0.0258455960 -0.0024999944 -0.0125946115
-0.0221181742 -0.0024999944 -0.0165818406
-0.0401465606 -0.0024999944 -0.0089216246
-0.0374005258 -0.0024999944 -0.0092305095
-0.0441559582 -0.0024999944 -0.0085384326
-0.0411206187 -0.0024999944 -0.0050689692
-0.0402226551 -0.0024999944 -0.0076576512
-0.0334399461 -0.0024999944 -0.0093680646
-0.0410725162 -0.0024999944 -0.0093439041
-0.0212804622 -0.0025200814 -0.0144193266
-0.0201272697 -0.0032924396 -0.0148683856
-0.0195311011 -0.0102308394 -0.0136427289
-0.0190241099 -0.0080303932 -0.0120770472
-0.0197233649 -0.0074710655 -0.0142364749
-0.0204390762 -0.0080212484 -0.0164467228
-0.0203297964 -0.0075557110 -0.0161092470
-0.0197853392 -0.0118239816 -0.0144278630
-0.0195347878 -0.0135374252 -0.0136541144
-0.0205817268 -0.0150342164 -0.0153123300
-0.0337900779 -0.0155000063 -0.0082904746
-0.0313088626 -0.0155000063 -0.0099442356
-0.0270872228 -0.0155000063 -0.0100551175
-0.0348334648 -0.0155000063 -0.0091706629
-0.0310962389 -0.0155000063 -0.0086542151
-0.0300446662 -0.0155000063 -0.0116541319
-0.0342469902 -0.0155000063 -0.0071785824
-0.0225422091 -0.0155000063 -0.0158942612
-0.0309212916 -0.0155000063 -0.0121138405
-0.0354514426 -0.0155000063 -0.0127695657
-0.0330582457 -0.0155000063 -0.0123656651
-0.0367395117 -0.0155000063 -0.0112672265
-0.0428367415 -0.0155000063 -0.0096903220
-0.0428733530 -0.0155000063 -0.0081376721
-0.0418569294 -0.0155000063 -0.0060655952
-0.0390447535 -0.0155000063 -0.0083989184
-0.0168411831 -0.0061726557 -0.0166969743
-0.0163859952 -0.0083800096 -0.0152912649
-0.0157952368 -0.0074693108 -0.0134668872
-0.0167158651 -0.0113639200 -0.0163099679
-0.0162001735 -0.0139716379 -0.0147174111
-0.0173343970 -0.0067663632 -0.0182201158
-0.0170784595 -0.0139738810 -0.0174297304
-0.0161162255 -0.0028870855 -0.0159639345
-0.0143819048 -0.0009328164 -0.0197932923
-0.0364360931 -0.0000470519 -0.0124630824
-0.0150901776 -0.0152781146 -0.0133315613
-0.0106794282 -0.0161069983 -0.0139799646
-0.0157814930 -0.0011822573 -0.0129002874
-0.0171312269 -0.0029131701 -0.0124632114
-0.0188433513 -0.0146985335 -0.0119088004
-0.0339790111 -0.0173108462 -0.0070076527
-0.0292828791 -0.0170425350 -0.0085283314
-0.0284159439 -0.0172523486 -0.0088090593
-0.0266931361 -0.0166830690 -0.0093669285
-0.0285433516 -0.0168344688 -0.0087678009
-0.0396411276 -0.0172000136 -0.0051741728
-0.0403457629 -0.0172153852 -0.0049460016
-0.0323993392 -0.0160235069 -0.0075191745
-0.0165414079 -0.0098213549 -0.0126542051
-0.0166816180 -0.0045836387 -0.0126088033
-0.0164731040 -0.0122071866 -0.0126763228
-0.0175931619 -0.0086596607 -0.0123136337
-0.0274722050 -0.0006319677 -0.0091146615
-0.0405498388 -0.0007260390 -0.0048799222
-0.0269758581 -0.0007890827 -0.0092753868
-0.0283730975 -0.0010881039 -0.0088229402
-0.0184312522 -0.0004851695 -0.0120422607
-0.0188853171 -0.0007790790 -0.0118952258
-0.0387412559 -0.0021855192 -0.0054655740
-0.0209996286 -0.0017218836 -0.0112105745
-0.0451055832 -0.0047932928 -0.0034047027
-0.0473443497 -0.0015139437 -0.0024015358
-0.0478604086 -0.0079045334 -0.0020765428
-0.0476624306 -0.0150239152 -0.0022012213
-0.0455913019 -0.0023420168 -0.0032272696
-0.0464927508 -0.0023253794 -0.0028502673
-0.0454102818 -0.0033855706 -0.0033029755
-0.0460662743 -0.0164610343 -0.0030286276
-0.0514465300 -0.0154923530 -0.0083987390
-0.0507051820 -0.0091918694 -0.0085102877
-0.0473690739 -0.0133505482 -0.0089912397
-0.0478787830 -0.0051942608 -0.0088717882
-0.0481904978 -0.0090643052 -0.0087987371
-0.0498444685 -0.0035012985 -0.0085818929
-0.0495422320 -0.0032051305 -0.0086013549
-0.0502521056 -0.0137419944 -0.0085556438
-0.0503413271 -0.0081410314 -0.0085498986
-0.0173241470 -0.0015741801 -0.0187074700
-0.0232998044 -0.0023644360 -0.0167724565
-0.0242683838 -0.0006009025 -0.0164588237
-0.0234516609 -0.0012153536 -0.0167232883
-0.0349601384 -0.0007567951 -0.0129966674
-0.0423842076 -0.0024560819 -0.0105926494
-0.0305402559 -0.0024969157 -0.0144278934
-0.0434903253 -0.0006104392 -0.0102344632
-0.0323795796 -0.0017918079 -0.0138322901
-0.0471092154 -0.0030730540 -0.0090626131
-0.0235639725 -0.0173510685 -0.0166869276
-0.0315020732 -0.0177508062 -0.0141164461
-0.0340958417 -0.0168245069 -0.0132765476
-0.0374479275 -0.0173759614 -0.0121910881
-0.0366928878 -0.0176258259 -0.0124355806
-0.0295571526 -0.0155769253 -0.0147462371
-0.0375197396 -0.0158564875 -0.0121678376
-0.0312908378 -0.0158240070 -0.0141848463
-0.0174382481 -0.0153917560 -0.0186705171
-0.0186757863 -0.0090268447 -0.0182697989
-0.0174970010 -0.0085170117 -0.0186515151
-0.0199990657 -0.0043928608 -0.0178412924
-0.0199675384 -0.0072319001 -0.0178515016
-0.0157555153 -0.0174338694 -0.0192188224
-0.0147160402 -0.0155999931 -0.0173596955
-0.0140577440 -0.0155999931 -0.0181933915
-0.0080839687 -0.0155999931 -0.0192454761
-0.0091606075 -0.0155999931 -0.0148179931
-0.0112023230 -0.0155999931 -0.0210460862
-0.0344176791 -0.0179218754 -0.0068885953
-0.0160028723 -0.0179034459 -0.0191317055
-0.0096873858 -0.0170264958 -0.0188851396
-0.0490529057 -0.0180000030 -0.0074237783
-0.0521709119 -0.0180000030 -0.0041284591
-0.0127925547 -0.0180000030 -0.0151165216
-0.0402638386 -0.0180000030 -0.0101850384
-0.0276407686 -0.0180000030 -0.0149740024
-0.0308107430 -0.0180000030 -0.0130826766
-0.0265080379 -0.0180000030 -0.0154808261
-0.0265255364 -0.0180000030 -0.0144218877
-0.0196832502 -0.0180000030 -0.0159605015
-0.0218120071 -0.0180000030 -0.0156887288
-0.0367828941 -0.0180000030 -0.0099539320
-0.0235761241 -0.0180000030 -0.0144331977
-0.0121346629 -0.0180000030 -0.0194249508
-0.0139347339 -0.0180000030 -0.0169077794
-0.0298543891 -0.0180000030 -0.0120590270
-0.0288501804 -0.0180000030 -0.0102818082
-0.0249393209 -0.0180000030 -0.0124761427
-0.0169870094 -0.0180000030 -0.0144424403
-0.0394981077 -0.0180000030 -0.0079696822
-0.0170554507 -0.0180000030 -0.0142898235
-0.0456592604 -0.0180000030 -0.0066989046
-0.0369871885 -0.0180000030 -0.0079898719
-0.0291977164 -0.0180000030 -0.0090909507
-0.0320699035 -0.0180000030 -0.0082750270
-0.0348842657 -0.0180000030 -0.0077587355
-0.0431255298 -0.0180000030 -0.0063122171
-0.0368748316 -0.0180000030 -0.0063814890
-0.0484896855 -0.0180000030 -0.0031115274
-0.0109605479 -0.0180000030 -0.0160676977
-0.0086222641 -0.0180000030 -0.0201519696
-0.0075781666 -0.0000959292 -0.0198456858
-0.0112467353 -0.0013482372 -0.0164298407
-0.0102990296 -0.0006573135 -0.0214402979
-0.0072598488 -0.0016171108 -0.0193836740
-0.0074965196 -0.0015891382 -0.0156630261
-0.0103509518 -0.0176773704 -0.0140283946
-0.0082136353 -0.0159156200 -0.0205887316
-0.0069578888 -0.0159776602 -0.0168989906
-0.0525098142 -0.0039389680 -0.0079620795
-0.0519567314 -0.0044657691 -0.0082391121
-0.0526908507 -0.0154545127 -0.0078467664
-0.0529143929 -0.0074747274 -0.0077017349
-0.0534585682 -0.0172756324 -0.0070968579
-0.0537309368 -0.0128904900 -0.0067966782
-0.0540468317 -0.0064856267 -0.0061119125
-0.0539485223 -0.0090479297 -0.0063356337
-0.0542473127 -0.0107999888 -0.0054191001
-0.0542668880 -0.0120435811 -0.0050694592
-0.0542788321 -0.0094927470 -0.0042940115
-0.0542517453 -0.0167965214 -0.0041819295
-0.0541051891 -0.0131293321 -0.0036912336
-0.0538276101 -0.0072135704 -0.0029559182
-0.0536566812 -0.0092939741 -0.0027087464
-0.0532296670 -0.0082814716 -0.0021776613
-0.0528962268 -0.0103346212 -0.0018695507
-0.0526607401 -0.0002851614 -0.0016954745
-0.0518508141 -0.0037977365 -0.0012717263
-0.0517089246 -0.0120723889 -0.0012458107
-0.0507337548 -0.0151558706 -0.0010493552
-0.0505623110 -0.0124498558 -0.0010539521
-0.0499891554 -0.0027812500 -0.0011282023
-0.0493872241 -0.0059108943 -0.0012300852
-0.0493425791 -0.0163384296 -0.0012563302
-0.0483600203 -0.0060053388 -0.0017670632
-0.0117282900 -0.0161366756 -0.0187176339
-0.0108629808 -0.0157104481 -0.0162655203
-0.0497871363 -0.0102485396 -0.0035173072
-0.0496798725 -0.0141424365 -0.0036091729
-0.0494302451 -0.0023074535 -0.0038830926
-0.0491794858 -0.0026157561 -0.0043370095
-0.0491403162 -0.0122041584 -0.0050969716
-0.0493002311 -0.0091155179 -0.0055993720
-0.0498197252 -0.0032541020 -0.0060733530
-0.0503141131 -0.0171519199 -0.0062193813
-0.0503124591 -0.0089707657 -0.0062190193
-0.0512714736 -0.0175691614 -0.0060858770
-0.0513857785 -0.0139650810 -0.0060393469
-0.0517559701 -0.0078511617 -0.0056331336
-0.0520288696 -0.0173285601 -0.0048715097
-0.0520329485 -0.0140230077 -0.0046307675
-0.0518496533 -0.0087115117 -0.0040548999
-0.0516227404 -0.0171034400 -0.0037959024
-0.0506626879 -0.0161605091 -0.0033293145
-0.0508123736 -0.0002796596 -0.0033620709
0.0029485296 -0.0088317083 -0.0052642382
0.0010571972 -0.0086162286 -0.0034599539
-0.0095062511 -0.0081023782 -0.0063564411
0.0130009509 -0.0100184550 -0.0039747600
0.0133187756 -0.0080657961 -0.0034050508
0.0128091526 -0.0099818153 -0.0050072711
-0.0095129987 -0.0131371779 -0.0076657574
-0.0090812405 -0.0060177273 -0.0069242088
-0.0093064631 -0.0140839091 -0.0083741612
-0.0115120622 -0.0114971823 -0.0181314026
-0.0114714351 -0.0037584193 -0.0181671062
-0.0113893069 -0.0114225404 -0.0171148842
-0.0107315429 -0.0144832697 -0.0187084698
-0.0101111394 -0.0083394461 -0.0083001101
-0.0134586248 -0.0086548875 -0.0170083898
0.0138231936 -0.0081105446 -0.0033751111
0.0155714378 -0.0134124596 -0.0033855483
0.0024293436 -0.0126403294 -0.0033070882
0.0088827500 -0.0132330743 -0.0033456159
0.0073842909 -0.0130982990 -0.0033366699
-0.0061875585 -0.0140345048 -0.0032556439
0.0060021532 -0.0124786868 -0.0033284184
0.0004630219 -0.0123348658 -0.0032953489
-0.0097205306 -0.0139848286 -0.0032345516
-0.0120441266 -0.0144430696 -0.0032206793
0.0148890390 -0.0146591821 -0.0033814743
0.0115484133 -0.0093743655 -0.0033615304
0.0087666438 -0.0111321226 -0.0033449228
0.0113215004 -0.0100143972 -0.0033601757
0.0137970406 -0.0136218925 -0.0033749549
0.0080218596 -0.0117485847 -0.0033404763
0.0005019631 -0.0076731147 -0.0032955815
0.0079653636 -0.0052514451 -0.0033401390
-0.0068431952 -0.0080769451 -0.0032517297
0.0117370155 -0.0057211829 -0.0033626563
0.0131719339 -0.0049075557 -0.0033712230
0.0090010483 -0.0058940259 -0.0033463222
-0.0129008952 -0.0136398639 -0.0032155643
-0.0134608863 -0.0048120089 -0.0032122210
-0.0136746452 -0.0095665767 -0.0032109449
-0.0106226118 -0.0081625848 -0.0032291659
-0.0120102126 -0.0052990584 -0.0032208819
-0.0095394163 -0.0074560465 -0.0032356329
0.0035361224 -0.0043092137 -0.0033136957
0.0045474387 -0.0038415988 -0.0033197334
-0.0092714494 -0.0043168836 -0.0032372326
-0.0022191474 -0.0058420598 -0.0032793359
0.0019348080 -0.0044634385 -0.0033041356
-0.0049906282 -0.0044655801 -0.0032627898
0.0061234368 -0.0039318330 -0.0033291424
-0.0037299751 -0.0071342805 -0.0032703160
-0.0014987453 -0.0103990601 -0.0032836370
0.0000933881 -0.0096064422 -0.0032931423
-0.0078449665 -0.0101863844 -0.0032457489
0.0159724894 -0.0041507375 -0.0046558834
0.0159712076 -0.0058392485 -0.0048705657
0.0105708298 -0.0149999969 -0.0063550244
-0.0110914472 -0.0149999969 -0.0197842237
-0.0094332632 -0.0149999969 -0.0150350656
-0.0139221929 -0.0149999969 -0.0174355401
-0.0132204513 -0.0149999969 -0.0156221240
-0.0101484327 -0.0149999969 -0.0101370673
0.0123752087 -0.0149999969 -0.0037589383
-0.0069118927 -0.0149999969 -0.0032934984
0.0073261184 -0.0149999969 -0.0038556444
-0.0001461178 -0.0149999969 -0.0052374159
-0.0021927753 -0.0149999969 -0.0053225743
-0.0067512533 -0.0149999969 -0.0041391180
-0.0008554559 -0.0149999969 -0.0045424572
-0.0123311603 -0.0149999969 -0.0040925630
-0.0046254642 -0.0149999969 -0.0067408209
-0.0076013213 -0.0149999969 -0.0191257914
-0.0059274892 -0.0149999969 -0.0122995906
-0.0071403097 -0.0149999969 -0.0082553972
-0.0140220818 -0.0060229496 -0.0036568377
-0.0140233539 -0.0091882132 -0.0038699078
-0.0091031800 -0.0030000021 -0.0191376532
-0.0072253254 -0.0030000021 -0.0185797305
-0.0080378597 -0.0030000021 -0.0034453817
-0.0045729214 -0.0030000021 -0.0054144570
-0.0005413648 -0.0030000021 -0.0034830048
-0.0108069880 -0.0030000021 -0.0044647908
0.0079370359 -0.0030000021 -0.0041623352
-0.0117947384 -0.0030000021 -0.0047132384
-0.0117067778 -0.0030000021 -0.0166632630
-0.0067123464 -0.0030000021 -0.0070707074
0.0071899541 -0.0030000021 -0.0050965684
0.0141447310 -0.0030000021 -0.0057585571
0.0049422632 -0.0030000021 -0.0058991827
-0.0080438757 -0.0030000021 -0.0150653416
-0.0067272807 -0.0030000021 -0.0121596319
-0.0076341785 -0.0030000021 -0.0119110326
-0.0065562195 -0.0030000021 -0.0083626820
-0.0091863303 -0.0030000021 -0.0101443752
-0.0098269769 -0.0030000021 -0.0085146892
-0.0086176023 -0.0099229750 -0.0066075912
0.0151606612 -0.0032313795 -0.0048831333
0.0150614218 -0.0072779136 -0.0048825409
-0.0077608153 -0.0059039648 -0.0083225646
-0.0079993741 -0.0058514752 -0.0069243590
-0.0077570329 -0.0050494807 -0.0071603867
-0.0076768113 -0.0089454725 -0.0081817104
-0.0100256702 -0.0084172190 -0.0169426227
-0.0096581527 -0.0093609661 -0.0175363174
-0.0099974463 -0.0128317314 -0.0184861199
-0.0104382601 -0.0060978307 -0.0186840743
0.0011495277 -0.0080876571 -0.0062995217
-0.0003747049 -0.0141291444 -0.0062904222
0.0144291621 -0.0085912182 -0.0063788032
0.0089652335 -0.0039562770 -0.0063461828
0.0087027936 -0.0054815344 -0.0063446160
0.0031891466 -0.0035582640 -0.0063116989
0.0113738604 -0.0065540162 -0.0063605626
0.0140529140 -0.0063069518 -0.0063765571
0.0084056112 -0.0131517036 -0.0063428419
0.0063145511 -0.0125206459 -0.0063303581
0.0082357858 -0.0149386517 -0.0063418279
0.0120418757 -0.0143772384 -0.0063645508
0.0045028473 -0.0111872933 -0.0063195417
0.0048883095 -0.0110871672 -0.0063218430
0.0121023179 -0.0100225415 -0.0063649119
0.0038710479 -0.0091773867 -0.0063157699
0.0039810117 -0.0083150608 -0.0063164264
0.0036100915 -0.0062529713 -0.0063142119
0.0037014153 -0.0076871189 -0.0063147569
0.0001556836 -0.0047435626 -0.0062935886
-0.0016914348 -0.0068953362 -0.0064114757
-0.0021811965 -0.0078220107 -0.0065801170
-0.0026434999 -0.0142960582 -0.0067422897
-0.0035738527 -0.0135669965 -0.0072942442
-0.0041485726 -0.0075646592 -0.0078142550
-0.0041754053 -0.0132306647 -0.0078416177
-0.0050027898 -0.0137479774 -0.0089704273
-0.0054472359 -0.0038098664 -0.0101309899
-0.0054743803 -0.0044013707 -0.0102135049
-0.0069044049 -0.0054607560 -0.0171089152
-0.0070348617 -0.0136457074 -0.0177415370
-0.0065913750 -0.0113056352 -0.0155909456
-0.0063726738 -0.0125137474 -0.0145304025
-0.0065066396 -0.0109574780 -0.0151800402
-0.0061522758 -0.0051980264 -0.0134616307
-0.0055751703 -0.0120088719 -0.0106630843
-0.0055845773 -0.0085774371 -0.0107087013
-0.0058143496 -0.0053832629 -0.0118229319
-0.0062895997 -0.0082916780 -0.0141275524
-0.0063960807 -0.0053143800 -0.0146439088
-0.0139695140 -0.0035396032 -0.0185685478
-0.0071991954 -0.0033688633 -0.0185104221
-0.0077902534 -0.0086962987 -0.0197989027
-0.0079191504 -0.0075565101 -0.0199422123
-0.0085831762 -0.0076316716 -0.0205774340
-0.0094323133 -0.0112067329 -0.0210240071
-0.0098503746 -0.0091969298 -0.0211098248
-0.0111051294 -0.0117222732 -0.0211582973
-0.0114782386 -0.0140357727 -0.0211190995
-0.0118361702 -0.0032582621 -0.0209681836
-0.0124406887 -0.0085161057 -0.0207065797
-0.0132525282 -0.0141306818 -0.0200052815
-0.0137682181 -0.0058212331 -0.0192230700
-0.0128743191 -0.0073686954 -0.0150317915
-0.0140899711 -0.0074110233 -0.0174497500
-0.0134395535 -0.0103310018 -0.0156707589
-0.0136896533 -0.0144689840 -0.0160707914
-0.0125948705 -0.0069584106 -0.0147409463
-0.0119733483 -0.0116197037 -0.0140141654
-0.0115624365 -0.0091580753 -0.0133407671
-0.0113763965 -0.0046746814 -0.0128252705
-0.0111748575 -0.0084696062 -0.0121480291
-0.0111009393 -0.0096685786 -0.0115044778
-0.0110442211 -0.0075967916 -0.0073744432
-0.0110598213 -0.0091751303 -0.0099874508
-0.0110521556 -0.0122744145 -0.0087034635
-0.0110443115 -0.0144606074 -0.0073895978
-0.0110608166 -0.0031996035 -0.0101541650
-0.0110784771 -0.0115943092 -0.0065289236
-0.0112272484 -0.0057252181 -0.0059010030
-0.0114288504 -0.0083213779 -0.0055953588
-0.0121352118 -0.0143290484 -0.0049587679
-0.0128789553 -0.0096041236 -0.0047454891
-0.0132396237 -0.0031788734 -0.0047135794
0.0149664105 -0.0070748974 -0.0056707794
0.0149644269 -0.0102987289 -0.0060030392
-0.0129092542 -0.0090799829 -0.0185112283
0.0144345964 -0.0093612784 -0.0033787612
0.0129796560 -0.0054395308 -0.0033700750
0.0146348584 -0.0070387258 -0.0033799568
0.0104341263 -0.0079410267 -0.0033548778
0.0097018110 -0.0084602591 -0.0033505058
0.0103402415 -0.0054222918 -0.0033543173
0.0051139985 -0.0031868828 -0.0033231159
0.0106038600 -0.0049409287 -0.0033558912
0.0012582811 -0.0038824555 -0.0033000967
0.0101949332 -0.0046918062 -0.0033534498
0.0023727845 -0.0104606649 -0.0033067504
0.0001329617 -0.0072546272 -0.0032933784
0.0018391015 -0.0076398050 -0.0033035643
0.0076269588 -0.0100536538 -0.0033381186
0.0002668224 -0.0105022004 -0.0032941775
0.0052212417 -0.0070652801 -0.0033237561
0.0025500487 -0.0137070448 -0.0033078087
0.0004160132 -0.0113638769 -0.0032950682
0.0051649966 -0.0125074286 -0.0033234204
0.0145663025 -0.0139518853 -0.0033795475
0.0050387932 -0.0083221026 -0.0033226669
-0.0011780402 -0.0100276870 -0.0032855515
-0.0093089741 -0.0061641473 -0.0032370086
-0.0011397728 -0.0125766530 -0.0032857800
-0.0012065906 -0.0104802901 -0.0032853810
-0.0067660870 -0.0034991113 -0.0032521900
-0.0095203376 -0.0054043251 -0.0032357467
-0.0049356938 -0.0091998445 -0.0032631177
-0.0038625729 -0.0032445994 -0.0032695244
-0.0090986520 -0.0052175032 -0.0032382643
-0.0118189472 -0.0136767242 -0.0032220237
-0.0134548358 -0.0104200541 -0.0032122572
-0.0064976856 -0.0112231787 -0.0032537924
-0.0104440508 -0.0116084816 -0.0032302320
-0.0069522185 -0.0097820661 -0.0032510788
-0.0091726154 -0.0111110133 -0.0032378227
-0.0026139763 -0.0135395622 -0.0032769787
-0.0042528431 -0.0128255734 -0.0032671945
-0.0064167154 -0.0129035596 -0.0032542758
-0.0140246057 -0.0090029986 -0.0040795739
-0.0140204355 -0.0091987908 -0.0033810902
-0.0098455497 -0.0030000021 -0.0005899656
-0.0097831223 -0.0030000021 -0.0008017746
-0.0059343914 -0.0030000021 -0.0014095028
-0.0142654315 -0.0030000021 -0.0013145125
-0.0090393125 -0.0030000021 -0.0025528219
-0.0146987618 -0.0030000021 -0.0053356460
0.0055102592 -0.0030000021 -0.0036013514
0.0081458918 -0.0030000021 -0.0045529072
0.0083330976 -0.0030000021 -0.0044281476
0.0038707491 -0.0030000021 -0.0059921325
0.0119931637 -0.0030000021 -0.0062165305
0.0159752604 -0.0071934111 -0.0041917594
0.0159723357 -0.0086795965 -0.0046816264
0.0085232427 -0.0149999969 -0.0061451710
0.0015156323 -0.0149999969 -0.0060683016
0.0076348672 -0.0149999969 -0.0051296003
0.0032776905 -0.0149999969 -0.0049856717
0.0046281937 -0.0149999969 -0.0035987937
-0.0151114158 -0.0149999969 -0.0041737331
-0.0113416427 -0.0149999969 -0.0026867146
-0.0143835261 -0.0149999969 -0.0019594668
-0.0014404485 -0.0149999969 -0.0029527003
-0.0061247455 -0.0149999969 -0.0018349712
-0.0044665430 -0.0149999969 -0.0005042623
-0.0133795393 -0.0062263025 -0.0047127440
-0.0155147562 -0.0144740963 -0.0024253788
-0.0155313899 -0.0070879756 -0.0052114985
-0.0155145744 -0.0134915994 -0.0023949334
-0.0155163520 -0.0078736483 -0.0026926740
-0.0155179871 -0.0099441497 -0.0029665588
-0.0155096609 -0.0136153042 -0.0015719317
-0.0155247326 -0.0044699971 -0.0040964221
0.0013112933 -0.0026857888 -0.0003274819
0.0026178722 -0.0033893434 -0.0000250184
-0.0111718025 -0.0033400104 -0.0002221582
-0.0123873784 -0.0032455617 -0.0003294297
-0.0000071771 -0.0151638593 -0.0012017978
-0.0000460977 -0.0048745240 -0.0077209947
-0.0000425301 -0.0162950548 -0.0071234309
-0.0000396107 -0.0065681042 -0.0066344227
-0.0000288877 -0.0177495465 -0.0048383183
-0.0000330505 -0.0000104048 -0.0055355992
-0.0000061373 -0.0156789687 -0.0010276250
-0.0142287859 -0.0083883256 -0.0062077110
-0.0147072165 -0.0148752369 -0.0062048547
-0.0138573101 -0.0135130757 -0.0062099287
0.0099371022 -0.0091131915 -0.0063519850
0.0051923082 -0.0109220414 -0.0063236579
0.0146792835 -0.0047823742 -0.0063802964
0.0038966220 -0.0144866497 -0.0063159225
0.0131151931 -0.0105742218 -0.0063709586
0.0018877677 -0.0143949770 -0.0063039294
0.0087858080 -0.0126290955 -0.0063451116
0.0135968426 -0.0046095449 -0.0063738341
0.0068064528 -0.0131681497 -0.0063332946
0.0134340022 -0.0065590357 -0.0063728619
0.0052751852 -0.0038714876 -0.0063241527
0.0057860724 -0.0032997860 -0.0063272028
0.0001332344 -0.0041694772 -0.0062934546
0.0067324340 -0.0043513851 -0.0063328527
0.0048729057 -0.0057945654 -0.0063217511
0.0020129563 -0.0123313356 -0.0063046768
0.0084461241 -0.0072020668 -0.0063430836
0.0029964986 -0.0125611222 -0.0063105487
0.0067492043 -0.0078320204 -0.0063329528
0.0008127219 -0.0060570980 -0.0062975112
0.0158595119 -0.0053712466 -0.0048873054
0.0114600972 -0.0153729887 -0.0000190018
0.0039162445 -0.0151926261 -0.0004511813
-0.0038565218 -0.0147570430 -0.0003756541
0.0076584551 -0.0146184846 -0.0002514748
-0.0130345755 -0.0077442481 -0.0057527674
-0.0130331453 -0.0124786733 -0.0055132176
-0.0153332807 -0.0064682092 -0.0004503671
-0.0154481215 -0.0137901413 -0.0006783981
-0.0086689075 -0.0040809469 0.0000000046
-0.0005024949 -0.0045734362 0.0000000080
0.0076045768 -0.0036505435 0.0000000093
0.0091974895 -0.0041553913 0.0000000093
0.0161917762 -0.0020502044 -0.0001892004
0.0049806289 -0.0022601239 -0.0001222681
0.0072012066 -0.0020066821 -0.0001355253
0.0118966078 -0.0179999880 -0.0020412862
0.0005637192 -0.0179999880 -0.0000448341
0.0167096689 -0.0179999880 -0.0042993522
0.0095732073 -0.0179999880 -0.0001097813
0.0014064335 -0.0179999880 -0.0015985915
0.0066362359 -0.0179999880 -0.0040378257
0.0077146851 -0.0179999880 -0.0040013145
0.0079314651 -0.0179999880 -0.0044495956
0.0143705847 -0.0179999880 -0.0048409284
0.0109264784 -0.0179999880 -0.0059589937
0.0035310565 -0.0179999880 -0.0010124251
0.0144164356 -0.0179999880 -0.0043468480
0.0133071275 -0.0179999880 -0.0076301817
0.0135128116 -0.0179999880 -0.0065269096
0.0102174846 -0.0179999880 -0.0075021580
0.0032532759 -0.0000000110 -0.0004541193
0.0129124441 -0.0000000110 -0.0000523658
0.0144207273 -0.0000000110 -0.0014193915
0.0124786401 -0.0000000110 -0.0015606036
0.0150218341 -0.0000000110 -0.0020718029
0.0017691749 -0.0000000110 -0.0039942780
0.0005461589 -0.0000000110 -0.0067535513
0.0030339865 -0.0000000110 -0.0032521247
0.0115418805 -0.0000000110 -0.0074609156
0.0058381844 -0.0000000110 -0.0069347980
0.0048311941 -0.0000000110 -0.0040314851
0.0066100799 -0.0000000110 -0.0024094035
0.0107095035 -0.0000000110 -0.0046430167
0.0116803549 -0.0000000110 -0.0045129016
0.0152137250 -0.0000000110 -0.0055970826
0.0108595235 -0.0167671380 -0.0078574994
0.0088922332 -0.0178329701 -0.0078457544
0.0096722521 -0.0144816818 -0.0078504112
0.0099802616 -0.0163466570 -0.0078522501
0.0036138036 -0.0167598079 -0.0078142413
0.0101400820 -0.0156887399 -0.0078532043
0.0064918318 -0.0089682759 -0.0078314236
0.0119311962 -0.0147150812 -0.0078638975
0.0001335450 -0.0014356226 -0.0077934636
0.0036715477 -0.0049405071 -0.0078145860
0.0053906158 -0.0102349396 -0.0078248492
0.0067701934 -0.0121011232 -0.0078330855
0.0072191483 -0.0109108084 -0.0078357658
0.0065956337 -0.0125015139 -0.0078320433
0.0047447937 -0.0153374258 -0.0078209935
0.0138544286 -0.0001531242 -0.0078753795
0.0147906403 -0.0092748460 -0.0078809688
0.0144974499 -0.0015997647 -0.0078792185
0.0070413379 -0.0002291419 -0.0078347042
0.0062409760 -0.0037506959 -0.0078299260
0.0111740019 -0.0097781250 -0.0078593769
0.0138464259 -0.0089888207 -0.0078753317
0.0123750884 -0.0136477188 -0.0078665476
0.0092542380 -0.0104132221 -0.0078479156
0.0133981330 -0.0051479718 -0.0078726554
0.0076788962 -0.0061184671 -0.0078385106
0.0138420239 -0.0010938343 -0.0078753055
0.0113061778 -0.0051984905 -0.0078601660
0.0125033871 -0.0135361882 -0.0078673136
0.0103230107 -0.0067643426 -0.0078542964
0.0149688430 -0.0051051790 -0.0052633131
0.0149703715 -0.0041865779 -0.0050072775
0.0130698479 -0.0142495338 0.0000000093
0.0127726054 -0.0136309312 0.0000000093
-0.0101868363 -0.0144917456 0.0000000039
-0.0108442429 -0.0140293000 0.0000000036
0.0059341888 -0.0158104967 0.0000000043
0.0086193328 -0.0157542217 0.0000000041
0.0124693852 -0.0162619768 0.0000000060
0.0059433477 -0.0053854697 -0.0001971767
0.0106680311 -0.0051445047 -0.0005222444
0.0084396174 -0.0049036821 -0.0005299659
0.0162899834 -0.0046955401 -0.0004343759
-0.0043988706 -0.0047977675 -0.0004022527
0.0153090710 -0.0073861758 -0.0001858210
0.0024954970 -0.0072929201 -0.0003788626
0.0058324607 -0.0071068754 -0.0005121679
0.0094476685 -0.0066511131 -0.0003180074
-0.0076765126 -0.0067858268 -0.0003774706
0.0160595275 -0.0086426492 -0.0000151110
0.0143665346 -0.0092955618 -0.0004393500
-0.0040250881 -0.0091747084 -0.0004239584
0.0111061154 -0.0089230568 -0.0005475332
0.0037063649 -0.0087539832 -0.0004189446
0.0000501482 -0.0086144507 -0.0000547653
-0.0091419793 -0.0113861945 -0.0000705170
0.0111605198 -0.0112679431 -0.0004536937
0.0079546142 -0.0110755045 -0.0005301095
-0.0118998594 -0.0107036562 -0.0002870858
0.0080061145 -0.0106148192 -0.0002278639
-0.0037252533 -0.0133869600 -0.0000289159
0.0014935729 -0.0133270249 -0.0003139630
0.0074736963 -0.0130834231 -0.0005272294
0.0169251791 -0.0126696810 -0.0003945466
-0.0038232955 -0.0128796736 -0.0004473483
0.0022338596 -0.0013815849 -0.0001843625
0.0010023558 -0.0009243901 -0.0004851085
0.0091200271 -0.0006498851 -0.0003255125
0.0179910074 -0.0093531294 -0.0015595574
0.0179873603 -0.0071941131 -0.0021704501
0.0179722455 -0.0045261860 -0.0047021646
0.0179918308 -0.0047395255 -0.0014216519
0.0179795065 -0.0056427898 -0.0034859519
0.0179872118 -0.0021899967 -0.0021952296
0.0179832608 -0.0143964772 -0.0028571005
0.0179934246 -0.0005272879 -0.0011546287
0.0179860214 -0.0171764652 -0.0023946154
0.0012535094 -0.0175695101 0.0000000047
0.0161451471 -0.0173703690 0.0000000082
0.0179119073 -0.0078062965 -0.0052595178
0.0178485329 -0.0072744950 -0.0056447578
0.0175564038 -0.0092659000 -0.0063333479
0.0173572350 -0.0062521542 -0.0066898071
0.0170687117 -0.0012669720 -0.0069749090
0.0165719095 -0.0089116548 -0.0073938559
0.0159101659 -0.0090307942 -0.0077260891
0.0152894031 -0.0138505016 -0.0078307560
0.0155304059 -0.0031722445 -0.0077940648
0.0089364260 -0.0004308099 0.0000000049
0.0062980965 -0.0173864394 -0.0001766971
0.0108610536 -0.0171085568 -0.0005385841
0.0100142888 -0.0166449640 -0.0003254550
-0.0054301954 -0.0055485845 0.0000000059
-0.0003606862 -0.0064765519 0.0000000081
-0.0010646579 -0.0064040686 0.0000000078
0.0127235058 -0.0056293966 0.0000000093
0.0101207154 -0.0061452180 0.0000000093
-0.0102582586 -0.0082753885 0.0000000039
-0.0126378247 -0.0085895152 0.0000000029
0.0053365451 -0.0082591489 0.0000000093
0.0046960613 -0.0085047365 0.0000000093
-0.0079524868 -0.0100441928 0.0000000049
-0.0034680794 -0.0105623744 0.0000000068
0.0087117691 -0.0097517505 0.0000000093
0.0080866664 -0.0102790552 0.0000000093
0.0074472663 -0.0103912629 0.0000000093
0.0170972790 -0.0115298706 0.0000000093
0.0153568873 -0.0113813611 0.0000000093
0.0018555045 -0.0121634522 0.0000000090
-0.0117316636 -0.0121331740 0.0000000033
