-0.0183067371 0.0135028437 0.0702907676
0.0302307420 -0.0076613872 0.0071442486
0.0210984927 0.0014639176 0.0696940045
0.0227766885 0.0027431406 0.0715893615
-0.0276916143 0.0097856627 0.0058456820
0.0274326959 -0.0128385946 0.0113199998
0.0260679654 -0.0077979757 0.0128688083
0.0231412477 -0.0111046265 0.0132649807
0.0243051733 -0.0091333807 0.0126999980
0.0247881418 -0.0078932465 0.0143000027
0.0255274018 -0.0013414618 0.0143000027
0.0228483806 -0.0063640719 0.0143000027
0.0124270667 0.0323371560 0.0159000009
0.0341394740 -0.0050876021 0.0542000011
-0.0255350751 -0.0232894459 0.0542000011
-0.0320338436 0.0127267750 0.0565545724
0.0252002383 -0.0238737205 0.0564390186
0.0243808193 -0.0250933837 0.0555109069
-0.0072408551 -0.0341807942 0.0553543885
-0.0323075464 -0.0134285447 0.0561200546
-0.0280572550 0.0208628257 0.0558527461
0.0004559013 0.0349965448 0.0551041140
0.0278612296 0.0210671157 0.0558930454
0.0316000415 -0.0149292885 0.0548387002
0.0336531275 0.0077994627 0.0542881412
-0.0090396258 -0.0333300374 0.0542286756
-0.0228038793 -0.0263104860 0.0534056419
-0.0242679027 -0.0251709026 0.0464214937
-0.0215685842 -0.0273698718 0.0451149019
-0.0199373331 -0.0287128054 0.0323532150
-0.0176923235 -0.0301422921 0.0319329852
-0.0175407007 -0.0302289238 0.0326291858
-0.0135335593 -0.0322137939 0.0416048984
-0.0183477118 -0.0297335862 0.0525171969
-0.0128409216 -0.0325268821 0.0464534840
-0.0104904348 -0.0333371797 0.0183083136
-0.0118329273 -0.0329183138 0.0451596843
-0.0114745014 -0.0330033409 0.0511769950
-0.0073146740 -0.0341753382 0.0299184174
-0.0060217728 -0.0344337801 0.0341906388
-0.0051112031 -0.0346127793 0.0488998214
-0.0028911004 -0.0347208025 0.0363659263
-0.0013008721 -0.0347710844 0.0185768301
0.0023608245 -0.0348868648 0.0513088046
-0.0027011024 -0.0347268101 0.0462248601
-0.0041501855 -0.0346809911 0.0536159162
0.0077179664 -0.0339544532 0.0233887486
0.0042053326 -0.0346120012 0.0344939098
0.0035949535 -0.0347262612 0.0257231980
0.0072065085 -0.0340501956 0.0343198289
0.0082971731 -0.0338460285 0.0456361760
0.0108832531 -0.0332324984 0.0425422090
0.0112487726 -0.0331019488 0.0340879398
0.0145094375 -0.0316523436 0.0179454874
0.0147771963 -0.0315391204 0.0180363136
0.0158694994 -0.0311357495 0.0536499272
0.0146530330 -0.0317254304 0.0511582957
0.0197606111 -0.0286435338 0.0296216599
0.0180529794 -0.0298584453 0.0350578052
0.0231468517 -0.0262343593 0.0387131629
0.0220962927 -0.0269817899 0.0396793312
0.0200485257 -0.0284386941 0.0430720671
0.0251518748 -0.0240619860 0.0240715412
0.0257483755 -0.0234031176 0.0279391517
0.0242997033 -0.0250032572 0.0336463852
0.0276509512 -0.0213016162 0.0501706412
0.0248835338 -0.0243583838 0.0430509960
0.0295667030 -0.0183896154 0.0314108037
0.0290010288 -0.0193796578 0.0471768740
0.0288045871 -0.0197234699 0.0325005160
0.0297450858 -0.0180774100 0.0412049767
0.0320584512 -0.0140285601 0.0260980008
0.0310853628 -0.0157316584 0.0387049796
0.0323391292 -0.0131727294 0.0421146009
0.0333873874 -0.0098129978 0.0279638252
0.0342325617 -0.0071041625 0.0191399560
0.0336956861 -0.0088248817 0.0314495546
0.0340781694 -0.0075989990 0.0496340628
0.0344009348 -0.0060741057 0.0296342984
0.0344588444 -0.0054006229 0.0472190565
0.0345091331 -0.0048157689 0.0307996490
0.0344885553 -0.0050550868 0.0487341561
0.0344263320 -0.0057787382 0.0504008180
0.0341754675 0.0069853161 0.0207031157
0.0347007577 0.0029949726 0.0210312446
0.0347568157 0.0025691299 0.0274023435
0.0345726128 0.0039684194 0.0407481893
0.0343186464 0.0058976640 0.0509296691
0.0340313164 0.0080803537 0.0396213231
0.0324429830 0.0126003263 0.0246157508
0.0339115075 0.0085464697 0.0271170992
0.0318480246 0.0142427068 0.0539565076
0.0326706990 0.0119717171 0.0478459569
0.0316068866 0.0149083674 0.0453284963
0.0292226671 0.0188898985 0.0165861685
0.0310106940 0.0160644574 0.0365491227
0.0295327052 0.0183999761 0.0464897033
0.0287043163 0.0197089967 0.0534335196
0.0280868786 0.0206846723 0.0252993328
0.0267611290 0.0224270780 0.0451027767
0.0224960734 0.0267309160 0.0182509150
0.0251070824 0.0240961649 0.0240995653
0.0224535507 0.0267738253 0.0451300647
0.0236929385 0.0255231677 0.0456438926
0.0185104437 0.0294657200 0.0243592850
0.0200643284 0.0284625619 0.0279568927
0.0212204085 0.0277162188 0.0177361060
0.0190068713 0.0291452358 0.0520286521
0.0160041415 0.0310837404 0.0412981362
0.0184279934 0.0295189483 0.0437183186
0.0156762036 0.0312909577 0.0539150570
0.0115970839 0.0328105400 0.0292181955
0.0098448005 0.0334633129 0.0370244761
0.0107616239 0.0331217714 0.0485743287
0.0122954896 0.0325503650 0.0520039729
0.0045816060 0.0344929593 0.0327488416
0.0049376324 0.0344428094 0.0278939623
0.0064543675 0.0342291620 0.0391849207
0.0025757120 0.0347755096 0.0300265010
0.0053643409 0.0343827032 0.0510177155
-0.0032954775 0.0346441526 0.0210958712
0.0004115866 0.0349291268 0.0340462749
-0.0018273126 0.0347570153 0.0220536753
-0.0058117364 0.0344507196 0.0262816589
-0.0019587319 0.0347469126 0.0405862590
-0.0053061830 0.0344895831 0.0226455584
-0.0070197660 0.0342272645 0.0210977597
-0.0089712596 0.0336377151 0.0363401030
-0.0126372129 0.0325302247 0.0229329285
-0.0097533341 0.0334014491 0.0417096030
-0.0124022529 0.0326012065 0.0246675569
-0.0137303905 0.0321882677 0.0256504596
-0.0196189182 0.0288941173 0.0192432383
-0.0146911264 0.0316508144 0.0220760307
-0.0184129025 0.0295687846 0.0426976329
-0.0195464553 0.0289346543 0.0408245789
-0.0214931414 0.0274490868 0.0363010358
-0.0229002926 0.0261981234 0.0182944967
-0.0226160887 0.0264507819 0.0218017063
-0.0250511700 0.0242859841 0.0380204732
-0.0254880698 0.0238975784 0.0258428835
-0.0252640543 0.0240967291 0.0533330170
-0.0291662174 0.0190500424 0.0186343772
-0.0292692954 0.0189079016 0.0161877134
-0.0262289558 0.0231004204 0.0524198488
-0.0287929416 0.0195647763 0.0401693685
-0.0283710797 0.0201465087 0.0416823605
-0.0314188578 0.0149996609 0.0408962218
-0.0314856203 0.0148463752 0.0297923366
-0.0321608676 0.0132960166 0.0494600586
-0.0323277025 0.0129129659 0.0384605183
-0.0322995244 0.0129776625 0.0372988136
-0.0346019861 0.0043685511 0.0204781661
-0.0342048809 0.0063886233 0.0323552204
-0.0335034639 0.0099567283 0.0496766432
-0.0342171587 0.0063261662 0.0517239697
-0.0341423168 0.0067068866 0.0480147485
-0.0348049188 0.0000548094 0.0197209783
-0.0347485108 -0.0024454586 0.0209840620
-0.0348611817 0.0025486487 0.0306203307
-0.0347849349 -0.0008309695 0.0462901866
-0.0347534962 -0.0022244818 0.0406622883
-0.0347557386 -0.0021250876 0.0418706204
-0.0336840782 -0.0087360717 0.0287365399
-0.0337244065 -0.0085707163 0.0289847814
-0.0334208007 -0.0098155691 0.0292270089
-0.0332437220 -0.0105416321 0.0295123934
-0.0330499642 -0.0113360828 0.0429665673
-0.0328636376 -0.0120237214 0.0380245478
-0.0325990535 -0.0125545306 0.0537930485
-0.0318393407 -0.0141365720 0.0511104337
-0.0302093585 -0.0175509255 0.0437074668
-0.0301293619 -0.0177259395 0.0284977606
-0.0285672570 -0.0201331968 0.0182161514
-0.0293290914 -0.0190623947 0.0295398127
-0.0267004430 -0.0223752627 0.0484873350
-0.0276363143 -0.0213574043 0.0301977583
-0.0251952280 -0.0242599477 0.0396747864
-0.0261072789 -0.0232340226 0.0260756040
-0.0246882810 -0.0247923870 0.0395148654
-0.0279952160 0.0024239370 0.0062390418
-0.0281034939 -0.0028880324 0.0114144374
-0.0283841515 -0.0043963402 0.0143000027
0.0106914574 0.0290912136 0.0041824833
0.0075217223 0.0307961225 0.0061889170
-0.0099041872 -0.0290986629 0.0044097831
-0.0074497699 -0.0305374100 0.0049068798
-0.0227908818 -0.0054337845 0.0143000027
-0.0270778823 -0.0003348266 0.0049834589
-0.0217095656 -0.0008241107 0.0139486586
-0.0279663729 -0.0044810503 0.0043789204
-0.0289379038 -0.0044768797 0.0131443812
-0.0307273507 -0.0028215111 0.0142678417
-0.0244066155 0.0001537105 0.0038946698
-0.0293274288 0.0001748348 0.0138681619
-0.0210250195 -0.0022992807 0.0082330809
-0.0312193196 -0.0009494575 0.0103748889
-0.0265234704 -0.0049872492 0.0135899410
-0.0281660219 -0.0049801978 0.0079359157
-0.0219904180 0.0009212372 0.0130932829
-0.0284250414 0.0007709664 0.0117946976
-0.0306993513 0.0037008479 0.0044224235
-0.0282618764 0.0049203047 0.0037816636
-0.0281957905 0.0049200210 0.0118989630
-0.0271660097 0.0002655576 0.0087212538
-0.0245883848 0.0002544922 0.0116161992
-0.0210002367 0.0034739365 0.0038563539
-0.0235960676 0.0054002798 0.0098843338
-0.0276349862 0.0054176182 0.0109595505
-0.0311921248 0.0053853911 0.0116076923
-0.0231787680 -0.0029626963 0.0106122872
0.0158002373 -0.0171189211 0.0143000027
0.0095666891 -0.0307889747 0.0143000027
0.0061132988 -0.0285365138 0.0109964677
0.0145962766 -0.0171138100 0.0141500002
0.0087252324 -0.0307938400 0.0137366070
0.0084810212 -0.0233597771 0.0100999987
0.0108629003 -0.0188145732 0.0122700294
0.0116507695 -0.0211904215 0.0118006335
0.0095811955 -0.0251259451 0.0121364476
0.0124673947 -0.0246503233 0.0127791110
0.0096914157 -0.0245835910 0.0110606917
0.0263585593 0.0029910214 0.0140701468
0.0263533917 0.0032616283 0.0111595572
0.0242801565 -0.0021652885 0.0141500002
0.0261156773 -0.0049928273 0.0100999987
0.0255832107 0.0047586139 0.0122150333
0.0222087953 -0.0022977775 0.0130469875
0.0227391927 0.0013522909 0.0125656158
0.0243984585 -0.0043539832 0.0118228435
0.0249752198 0.0021054215 0.0115355607
0.0241375780 0.0248587005 0.0158635613
-0.0120027515 -0.0326052762 0.0078672651
-0.0189548633 -0.0291301889 0.0079379317
-0.0342827918 -0.0027206943 0.0074068127
-0.0167337655 -0.0028001344 0.0077694056
-0.0191718496 -0.0156200065 0.0082240513
-0.0151986286 -0.0205610405 0.0086534491
0.0244594918 -0.0249829632 0.0109705361
0.0151728534 -0.0313352754 0.0144786110
0.0088286212 -0.0336705472 0.0140225029
0.0020727026 -0.0347474095 0.0131510388
-0.0022764154 -0.0348816067 0.0127361318
-0.0095435341 -0.0336212811 0.0155454349
-0.0167247840 -0.0306428982 0.0090697349
-0.0225419761 -0.0266843466 0.0109670290
-0.0282730007 -0.0203741030 0.0115747303
-0.0311366175 -0.0159645258 0.0135295443
-0.0337678722 -0.0091616504 0.0153905419
-0.0348860577 -0.0022483125 0.0101143856
-0.0347502071 0.0020193220 0.0084266692
-0.0342606763 0.0066262302 0.0084694528
-0.0307683826 0.0162854432 0.0081453331
-0.0274628566 0.0213970804 0.0083114589
-0.0301299774 -0.0075687802 0.0111931229
-0.0086228377 -0.0165739129 0.0095337504
-0.0044676383 0.0238037697 0.0082857936
-0.0071698571 0.0219397758 0.0104938761
-0.0033698481 0.0154652272 0.0090507593
-0.0205000006 0.0031584828 0.0084740574
-0.0205000006 -0.0024441942 0.0094069939
-0.0260975408 0.0059999995 0.0102257446
-0.0245552489 -0.0055000001 0.0141785360
-0.0302807063 -0.0113398797 0.0104838805
-0.0252150295 -0.0149188546 0.0121758485
-0.0188471614 -0.0100813421 0.0074467955
-0.0224679900 -0.0064881685 0.0136474866
-0.0291239730 -0.0153323226 0.0130677633
-0.0205950973 -0.0048549063 0.0088112798
0.0143926569 -0.0222543350 0.0118843289
0.0119456705 -0.0277503570 0.0104786937
0.0157520831 -0.0153325159 0.0071026190
0.0079119364 -0.0232880069 0.0093230380
0.0056261703 -0.0284219236 0.0118459374
0.0268781947 0.0072138320 0.0084209007
0.0270294923 -0.0014539755 0.0110971402
0.0270923496 -0.0050550678 0.0070324037
0.0213537795 0.0085646324 0.0112774198
0.0216126218 -0.0062645010 0.0105684615
0.0213775577 0.0072023486 0.0074063672
0.0279564146 -0.0123040320 0.0072989164
-0.0205521830 0.0281470420 0.0101497742
-0.0150468905 0.0313994575 0.0101714852
-0.0100852038 0.0333338466 0.0088549513
-0.0015598779 0.0347742854 0.0119486116
0.0042941978 0.0345620215 0.0103444043
0.0129016016 0.0323322400 0.0112638665
0.0204932350 0.0281956363 0.0085409406
0.0243824921 0.0248438284 0.0138646839
0.0283295431 0.0202870354 0.0117568062
0.0315213599 0.0150140206 0.0109408566
0.0341344910 0.0069935208 0.0140899533
0.0346309424 -0.0042950297 0.0153493401
0.0339232058 -0.0078856858 0.0130735657
0.0322533781 -0.0133709754 0.0133050022
0.0287840255 -0.0197655711 0.0130770999
0.0072347310 0.0294012927 0.0077000032
-0.0049752001 0.0276590860 0.0092012748
-0.0084842080 0.0272298525 0.0108999973
0.0002579624 0.0125619326 0.0108999973
-0.0070845380 0.0214023634 0.0108999973
-0.0039076559 0.0266170737 0.0086160158
-0.0084192754 0.0131357561 0.0096056945
-0.0013723981 0.0297369929 0.0077969559
-0.0068474646 0.0241389856 0.0071841278
-0.0048435513 -0.0117006205 0.0108999973
-0.0019469604 -0.0153832965 0.0108999973
-0.0120960971 -0.0141166819 0.0108999973
-0.0002906398 -0.0136826819 0.0073646996
-0.0077352897 -0.0133750648 0.0108883806
-0.0086031426 -0.0162718482 0.0094479716
-0.0102868668 -0.0166195138 0.0100473287
-0.0068983565 -0.0235900350 0.0098029161
0.0059791700 -0.0240455690 0.0070663123
0.0195535335 -0.0085805736 0.0070780784
-0.0177310592 0.0044727871 0.0086585907
-0.0086846817 0.0336483877 0.0079341856
0.0259485332 0.0226820527 0.0075764315
-0.0237056840 0.0219349183 0.0109761633
0.0227156018 -0.0213832491 0.0075669622
0.0214678413 0.0218286956 0.0081009150
-0.0229867818 -0.0238313869 0.0109592815
-0.0071259832 0.0090829694 0.0079941219
0.0110817750 -0.0023036448 0.0103478503
0.0112076478 0.0151201995 0.0069999988
0.0007937642 0.0118900557 0.0069999988
-0.0232425297 -0.0187503929 0.0069999988
0.0021332365 0.0119872411 0.0069999988
0.0006527378 -0.0223193545 0.0069999988
-0.0334139647 0.0059308133 0.0069999988
-0.0233784701 0.0177403593 0.0069999988
-0.0260625486 0.0113429848 0.0069999988
-0.0190389405 0.0099936222 0.0069999988
-0.0187638267 0.0046526722 0.0069999988
0.0055203236 -0.0240237970 0.0069999988
0.0174191434 -0.0286808362 0.0069999988
-0.0102613642 0.0318031919 0.0069999988
-0.0009616914 0.0280139448 0.0069999988
-0.0095469586 0.0108935207 0.0069999988
-0.0153256040 -0.0130924376 0.0069999988
-0.0093050825 -0.0267066650 0.0069999988
0.0077393451 -0.0125546104 0.0069999988
0.0184153662 0.0006113604 0.0069999988
0.0161680493 0.0066313039 0.0069999988
0.0286720418 0.0073315474 0.0069999988
0.0335576307 0.0016403957 0.0069999988
0.0122486588 0.0152048017 0.0069999988
0.0275055114 0.0166478883 0.0069999988
0.0095986117 0.0234487995 0.0069999988
0.0201195499 0.0237766147 0.0069999988
0.0066885688 0.0275440585 0.0069999988
0.0004983440 0.0297344189 0.0069999988
-0.0163492370 -0.0260332267 0.0069999988
-0.0055912758 -0.0299641487 0.0069999988
0.0279790757 -0.0162703748 0.0069999988
-0.0110267793 0.0102295800 0.0069999988
-0.0206635698 0.0214522053 0.0069999988
-0.0178813650 -0.0098343437 0.0069999988
-0.0148148060 -0.0020546967 0.0069999988
0.0030997954 -0.0097197411 0.0069999988
0.0118433319 0.0110520129 0.0069999988
-0.0196193941 -0.0214183404 0.0069999988
-0.0110969922 -0.0236518431 0.0069999988
0.0126982966 0.0044036123 0.0069999988
0.0173198675 -0.0132131731 0.0069999988
0.0190279718 -0.0127437224 0.0069999988
0.0113388963 -0.0007216520 0.0098466170
-0.0319999995 0.0007459935 0.0126196256
0.0031843501 -0.0113330509 0.0125317085
0.0276858544 -0.0104075563 0.0108834127
-0.0238697366 -0.0069297051 0.0696418904
0.0225859690 -0.0094204129 0.0697000027
-0.0216178511 -0.0111255910 0.0714412914
0.0050424275 -0.0237862026 0.0697233369
0.0227200564 -0.0086499299 0.0714738676
0.0161579728 0.0181737709 0.0698709436
-0.0082365214 0.0228860264 0.0716182764
-0.0242912987 0.0030261828 0.0700003739
0.0069301816 0.0184956303 0.0733078719
-0.0073640311 0.0198554574 0.0741202075
-0.0093962703 -0.0184173820 0.0735576959
0.0077419402 -0.0187090876 0.0746999979
0.0215651346 0.0089726235 0.0729097194
0.0124879522 0.0183856229 0.0669653056
0.0137626956 0.0182197981 0.0703124582
-0.0039553520 0.0220945652 0.0690256804
-0.0027036749 0.0225890527 0.0657000020
-0.0209053785 -0.0015039264 0.0681435130
-0.0211406745 -0.0014079829 0.0714251969
0.0041296960 -0.0212787887 0.0672326989
0.0041679324 -0.0217664571 0.0705557810
0.0182103395 -0.0123850066 0.0693337029
0.0167197271 -0.0118347369 0.0695647060
-0.0169819135 0.0169817077 0.0745563398
0.0197365118 0.0033888382 0.0727862858
0.0025662803 -0.0229407066 0.0727282118
-0.0197163936 -0.0032360265 0.0740392654
-0.0172771660 0.0147735867 0.0723613078
0.0115089229 0.0165792744 0.0718045640
0.0047196966 0.0138950124 0.0746000037
-0.0125806565 0.0141525416 0.0746000037
0.0000582808 0.0166366078 0.0746000037
0.0117967576 0.0103374173 0.0746000037
0.0147006099 0.0073730794 0.0746000037
0.0142451917 -0.0016876154 0.0746000037
0.0137288237 -0.0057465896 0.0746000037
0.0113014829 -0.0118604527 0.0746000037
0.0072347868 -0.0156365948 0.0746000037
-0.0143683824 0.0015922963 0.0746000037
-0.0123242904 0.0107973957 0.0746000037
-0.0012952740 -0.0155135095 0.0746000037
-0.0069535151 -0.0158462356 0.0746000037
-0.0107431313 -0.0084132280 0.0746000037
-0.0166837782 -0.0024613660 0.0746000037
0.0070841334 -0.0225901740 0.0739069744
0.0217832215 0.0075337372 0.0727000013
-0.0090926134 -0.0180261002 0.0745487383
-0.0086537375 0.0178443102 0.0730209771
0.0234893845 0.0059604359 0.0727859413
-0.0142608966 0.0196213917 0.0719067512
-0.0036322485 -0.0239925877 0.0728950541
-0.0183042135 -0.0158088216 0.0727024977
-0.0124923057 0.0207613436 0.0737718199
0.0241522548 0.0010625182 0.0737475149
-0.0003560791 -0.0241049248 0.0721362596
0.0087966790 -0.0023286625 0.0737925016
-0.0075753246 0.0049634341 0.0737125469
0.0198085474 -0.0132451021 0.0746999979
-0.0149565831 -0.0134138479 0.0746999979
-0.0200598758 0.0128503321 0.0746999979
-0.0145448732 0.0124209400 0.0746999979
-0.0214219221 0.0056547462 0.0746999979
0.0220544467 -0.0067819883 0.0746999979
0.0160583410 0.0116275331 0.0746999979
0.0081967887 -0.0176758591 0.0746999979
0.0061801886 -0.0064857525 0.0618261493
0.0048847813 -0.0074978053 0.0232304506
0.0051409132 -0.0073418240 0.0437463347
0.0048096975 -0.0075664083 0.0495846375
0.0037938865 -0.0081518505 0.0116826755
0.0024285367 -0.0086300011 0.0447984131
0.0017367516 -0.0088077669 0.0428994674
0.0010166791 -0.0088990789 0.0553569958
0.0004355137 -0.0089727711 0.0091929578
-0.0004442078 -0.0089434148 0.0317135840
0.0089341693 0.0009681679 0.0638438946
0.0089534660 -0.0000659216 0.0272390994
0.0088985758 -0.0011430897 0.0627923233
0.0086671043 -0.0024090579 0.0102333546
0.0082722858 -0.0034182341 0.0691468614
0.0082280506 -0.0035227384 0.0187560763
0.0075916047 -0.0047576106 0.0589635563
0.0069642294 -0.0056700408 0.0444157707
0.0065375433 -0.0061761811 0.0100896376
0.0055085019 0.0070949877 0.0268160959
0.0063259837 0.0062892873 0.0168020395
0.0067819112 0.0058792681 0.0613747035
0.0073377094 0.0051692375 0.0497122893
0.0081170740 0.0037730643 0.0727939605
0.0084133140 0.0031759807 0.0238012931
0.0086526515 0.0022772348 0.0519638362
0.0088236051 0.0015740760 0.0584511862
0.0088198302 0.0015892416 0.0220922639
0.0024992001 0.0085948228 0.0720397119
0.0021993777 0.0086895916 0.0170659404
0.0037366708 0.0081324001 0.0386429714
0.0044058709 0.0077769077 0.0175893025
0.0051623681 0.0073707055 0.0164852299
-0.0084555265 -0.0030637106 0.0727594059
-0.0085751550 -0.0026236329 0.0603178888
-0.0086742368 -0.0021115812 0.0126139298
-0.0089479027 -0.0004268512 0.0645627939
-0.0089746179 0.0000446556 0.0087370858
-0.0088880717 0.0011603518 0.0483640649
-0.0088230201 0.0016667286 0.0150839209
-0.0082354601 0.0035036257 0.0722643504
-0.0081524847 0.0036344021 0.0116358525
-0.0083736891 0.0030437548 0.0299130344
-0.0072521457 0.0052514572 0.0601149323
-0.0070726326 0.0054444353 0.0225249792
-0.0064402096 0.0062325992 0.0683777775
-0.0059772764 0.0066737111 0.0665310019
-0.0049103727 0.0074885452 0.0723642452
-0.0049398475 0.0074727468 0.0275041009
-0.0030499762 0.0084117338 0.0698382786
-0.0021392650 0.0087365924 0.0355181264
-0.0030341632 0.0083918506 0.0297491336
-0.0013266291 0.0088532787 0.0423235264
0.0001128486 0.0089537491 0.0701323056
-0.0003490428 0.0088840939 0.0152320197
0.0013247554 0.0088463366 0.0667840710
-0.0010025596 -0.0089164656 0.0405062989
-0.0015609668 -0.0087917620 0.0186480329
-0.0029372657 -0.0084780972 0.0439662457
-0.0033316489 -0.0083591800 0.0312585576
-0.0034622081 -0.0083051116 0.0622385623
-0.0048233148 -0.0075329931 0.0131126497
-0.0053040138 -0.0072579947 0.0456001937
-0.0064092323 -0.0063011858 0.0600447395
-0.0073170215 -0.0051673991 0.0680983381
-0.0068126606 -0.0058527827 0.0106531215
-0.0078678313 -0.0041852814 0.0102950266
-0.0241168355 0.0033568032 0.0107122156
-0.0300381578 -0.0088502843 0.0135032692
-0.0278639918 -0.0129953148 0.0100999987
-0.0253179971 -0.0121183985 0.0127663856
-0.0260372242 -0.0133998942 0.0103817843
-0.0200289927 -0.0090079985 0.0143000027
-0.0236055676 -0.0131018068 0.0143000027
-0.0212183661 -0.0084973733 0.0141500002
-0.0203051315 -0.0136491461 0.0122937680
-0.0198114741 -0.0099223577 0.0110321978
-0.0224820599 -0.0087930112 0.0128633565
-0.0213086304 0.0093924647 0.0728118247
0.0323503104 -0.0119088882 0.0050867970
-0.0124633460 -0.0182594246 0.0669110596
-0.0122961829 -0.0159642418 0.0687265670
0.0283621140 -0.0204765523 0.0628722266
0.0255564041 -0.0238006458 0.0634923808
0.0231507829 -0.0262289568 0.0680567165
0.0186632033 -0.0295966669 0.0619205083
0.0158097325 -0.0311806189 0.0640289738
0.0106186190 -0.0333487095 0.0620795924
0.0069221192 -0.0342094682 0.0656468716
0.0031616456 -0.0348486268 0.0636065222
-0.0042175186 -0.0347430327 0.0584222364
-0.0080738922 -0.0339571049 0.0595352312
-0.0110322698 -0.0332148772 0.0636157362
-0.0122633235 -0.0327407669 0.0688900122
-0.0185636753 -0.0296666539 0.0647599726
-0.0236748685 -0.0257099108 0.0628881355
-0.0257506950 -0.0235750563 0.0610035484
-0.0279771269 -0.0210118288 0.0682490692
-0.0319050763 -0.0141941260 0.0610691726
-0.0326897047 -0.0125052043 0.0665683725
-0.0329192905 -0.0118099575 0.0687648991
-0.0347407187 -0.0039473334 0.0575202762
-0.0349251945 0.0014398823 0.0613688263
-0.0344170786 0.0057987851 0.0616784976
-0.0338541082 0.0088573734 0.0675367676
-0.0318118509 0.0144872842 0.0609483425
-0.0302721100 0.0175669746 0.0630706227
-0.0275757429 0.0214985495 0.0670981445
-0.0245287130 0.0248679074 0.0575486149
-0.0218134723 0.0273286740 0.0631700855
-0.0179004098 0.0300716412 0.0679371427
-0.0141875754 0.0319913212 0.0597383696
-0.0099517356 0.0334989773 0.0602716652
-0.0041240438 0.0347248247 0.0574272411
-0.0003816976 0.0349609557 0.0612112610
0.0045702243 0.0346734769 0.0633482252
0.0078384981 0.0341046532 0.0619678910
0.0129718086 0.0324804996 0.0678450832
0.0163618144 0.0309158134 0.0621596571
0.0200779259 0.0285649836 0.0653399391
0.0222199746 0.0269995682 0.0686701360
0.0263684285 0.0229530645 0.0645433856
0.0274722327 0.0216222570 0.0674317245
0.0316982010 0.0147070800 0.0651438220
0.0329792954 0.0116624426 0.0608557315
0.0343590981 0.0064695644 0.0610336653
0.0347983493 0.0034021902 0.0630913160
0.0349654467 -0.0008034382 0.0603506910
0.0346784488 -0.0046002891 0.0681913988
0.0331380449 -0.0110218244 0.0587569980
0.0315246739 -0.0150006404 0.0630283944
0.0300798713 -0.0178626341 0.0619795069
-0.0346028073 0.0003212161 0.0696609226
0.0312952641 -0.0150751086 0.0567264253
0.0233244250 0.0171171907 0.0697000027
0.0103056575 0.0274084259 0.0697000027
-0.0058346841 0.0314793298 0.0697000027
-0.0219689865 0.0240861579 0.0697000027
-0.0178595016 0.0234887668 0.0697000027
-0.0309293337 0.0002939627 0.0697000027
-0.0287018850 -0.0170479229 0.0697000027
-0.0292757944 -0.0070649281 0.0697000027
-0.0208744784 -0.0273242754 0.0697000027
0.0011719963 -0.0289152793 0.0697000027
-0.0299168916 0.0171686321 0.0697000027
0.0082316028 0.0332822061 0.0697000027
0.0228704650 0.0250442191 0.0697000027
0.0240770571 0.0203701030 0.0697000027
0.0297442669 -0.0027431042 0.0697000027
0.0251883224 -0.0218593364 0.0697000027
-0.0070528805 -0.0302649178 0.0697000027
0.0194699913 -0.0233670392 0.0697000027
-0.0299650092 0.0091539187 0.0697000027
0.0297162758 0.0182276709 0.0568509892
-0.0077049804 0.0340261899 0.0694202517
-0.0154687332 -0.0243184501 0.0696678648
0.0131323730 -0.0319743488 0.0566000007
0.0108238241 -0.0304219650 0.0563610303
0.0135012325 -0.0306255242 0.0555339544
0.0126572133 -0.0279620546 0.0630929261
0.0298702930 -0.0134233898 0.0477534768
0.0283438286 -0.0127513423 0.0540965571
0.0279089169 -0.0122381688 0.0666696523
0.0304615091 -0.0136515371 0.0659780973
0.0303995042 -0.0108170732 0.0600722021
0.0286363304 0.0130793287 0.0478735160
0.0287082203 0.0108328569 0.0662427085
0.0312157657 0.0122107498 0.0626700629
0.0286815280 0.0136576475 0.0670266542
0.0134840761 0.0290442756 0.0482000001
0.0125474038 0.0283158468 0.0512947883
0.0108679018 0.0285999118 0.0557007969
0.0133712254 0.0283333356 0.0679179332
0.0121076399 0.0312385886 0.0687880995
-0.0134075529 0.0300840611 0.0528605831
-0.0126787409 0.0282795527 0.0500009403
-0.0138386043 0.0291184014 0.0611455791
-0.0110724036 0.0283960346 0.0655766804
-0.0116505174 0.0311420098 0.0635768960
-0.0283278068 0.0121052566 0.0479528795
-0.0300014527 0.0106471994 0.0640235004
-0.0279667977 0.0126804795 0.0559261481
-0.0306141040 0.0135749409 0.0660130631
-0.0296406136 -0.0109315696 0.0501088801
-0.0300564488 -0.0110316783 0.0533662018
-0.0303826405 -0.0136876051 0.0647420846
-0.0279503437 -0.0125682483 0.0663012913
-0.0302697921 -0.0107607902 0.0632092344
-0.0108083505 -0.0296372292 0.0487918681
-0.0112488199 -0.0286006095 0.0521029032
-0.0132709332 -0.0308473738 0.0621098111
-0.0105896360 -0.0295642207 0.0580582948
-0.0125874541 -0.0279282644 0.0547864538
0.0123122280 -0.0310407377 0.0534432216
-0.0295015567 0.0136229545 0.0493520660
-0.0284115150 0.0114503627 0.0510545949
0.0283333859 0.0125526728 0.0527147813
0.0262001394 0.0116343722 0.0696434650
-0.0210268376 -0.0197949125 0.0694593584
-0.0088425394 0.0268830539 0.0697000027
0.0035123937 0.0250030844 0.0697000027
0.0189906316 0.0203782148 0.0697000027
0.0268411804 0.0042797843 0.0697000027
0.0258244624 -0.0104147483 0.0697000027
-0.0211240961 0.0170857676 0.0697000027
-0.0266943847 0.0024582517 0.0697000027
-0.0218259356 -0.0150727648 0.0697000027
-0.0110508712 -0.0238799888 0.0697000027
0.0051532353 -0.0265589205 0.0697000027
-0.0044539790 0.0246750059 0.0696058823
-0.0203683525 0.0183665063 0.0057536751
-0.0230863835 0.0210003965 0.0067574721
0.0221423478 0.0176274162 0.0064560800
-0.0262497772 0.0176274162 0.0069365478
0.0286723160 0.0173684514 0.0068791557
-0.0176946016 0.0222119402 0.0070000002
-0.0337417873 0.0219752896 0.0000000000
0.0327221003 0.0231993509 0.0000000000
0.0329675233 0.0316738109 0.0000000000
0.0301932247 0.0241667194 0.0000000000
0.0309127527 0.0330322491 0.0000000000
0.0243542074 0.0318625143 0.0000000000
-0.0373479332 0.0255923092 0.0000000000
-0.0387952193 0.0072572364 0.0000000000
-0.0376866856 0.0142209523 0.0000000000
0.0370229513 0.0050510003 0.0000000000
0.0393078804 0.0352484427 0.0000000000
0.0373181510 0.0254633937 0.0000000000
0.0336667387 0.0188324871 0.0000000000
-0.0070547794 0.0375558740 0.0000000000
-0.0239737303 0.0394501525 0.0000000000
0.0003012698 0.0364995590 0.0000000000
-0.0100746852 0.0374052397 0.0000000000
0.0199576660 0.0361474303 -0.0000000000
-0.0247697913 0.0366448087 0.0000000000
-0.0293683510 0.0361110509 0.0000000000
-0.0236377219 0.0292531064 0.0000000000
-0.0306955859 0.0271994350 0.0000000000
-0.0311470008 0.0277474658 0.0000000000
-0.0396885509 0.0394821280 0.0000000000
0.0286152285 0.0385015248 0.0089999996
-0.0355883980 0.0019989277 0.0089999996
-0.0332201931 0.0281426782 0.0089999996
0.0214878359 0.0301613028 0.0089999996
0.0345045351 0.0376771691 0.0089999996
0.0361692111 0.0364936633 0.0089999996
-0.0378458653 0.0217721894 0.0089999996
-0.0393103243 0.0364991828 0.0089999996
-0.0390431021 0.0319273648 0.0089999996
-0.0330370272 0.0173750194 0.0089999996
-0.0174604772 0.0339895412 0.0089999996
0.0367629392 0.0351537656 0.0089999996
0.0336508526 0.0136255434 0.0089999996
0.0395954243 0.0395402238 0.0089999996
0.0346995944 0.0106377642 0.0089999996
0.0392474987 0.0365442733 0.0089999996
-0.0312968918 0.0301275160 0.0089999996
-0.0331748440 0.0327341916 0.0089999996
-0.0271041346 0.0313519868 0.0089999996
-0.0221270300 0.0325124762 0.0089999996
-0.0164603121 0.0355990839 0.0089999996
0.0007115630 0.0435315215 0.0089999996
0.0165422119 0.0423158141 0.0089999996
-0.0141484019 0.0398013038 0.0089999996
0.0031682019 0.0392379211 0.0089999996
0.0085209171 0.0431204680 0.0089999996
-0.0292745378 0.0437264277 0.0089999996
0.0179244244 0.0397752456 0.0089999996
0.0256347802 0.0405560414 0.0089999996
0.0399999991 0.0413543853 -0.0200051008
0.0399999991 0.0439271626 -0.0116807194
0.0399999991 0.0246244727 0.0010638956
0.0399999991 0.0151146318 0.0008308583
0.0399999991 0.0404834887 0.0082768312
0.0399999991 0.0258880167 0.0001936951
0.0399999991 0.0194291799 0.0041370793
0.0399999991 0.0378379097 0.0083480130
0.0399999991 0.0104974975 0.0088266152
-0.0399999991 0.0018481809 0.0053507742
-0.0399999991 0.0193317183 0.0032658839
-0.0399999991 0.0099146944 0.0013049575
-0.0399999991 0.0413047658 0.0072966689
-0.0399999991 0.0282583430 0.0060897164
-0.0399999991 0.0123507664 0.0085785545
-0.0399999991 0.0404817928 0.0046185567
-0.0399999991 0.0405582259 -0.0086464976
-0.0399999991 0.0423318418 -0.0073259837
0.0364421212 0.0002000000 0.0050014344
0.0048681241 0.0399999991 -0.0201480838
0.0205478861 0.0399999991 -0.0201808204
-0.0103570285 0.0399999991 -0.0175182427
0.0251869026 0.0399999991 -0.0203109642
0.0205567518 0.0399999991 -0.0207428210
0.0188340362 0.0399999991 -0.0001974577
0.0190645396 0.0399999991 -0.0052483746
0.0285530859 0.0399999991 -0.0042854490
-0.0207102142 0.0399999991 -0.0004305255
0.0026167575 0.0399999991 -0.0034623535
0.0358680705 0.0399999991 -0.0193667740
0.0061352307 0.0399999991 -0.0121645778
-0.0024791635 0.0399999991 -0.0128795793
0.0061257147 0.0399999991 -0.0137706869
0.0022425816 0.0399999991 -0.0140724980
0.0174410532 0.0399999991 -0.0179631432
-0.0343794396 0.0399999991 -0.0158687880
-0.0331237370 0.0399999991 -0.0096033122
-0.0324011383 0.0399999991 -0.0082094377
-0.0366289780 0.0399999991 -0.0115790330
0.0336085108 0.0399999991 -0.0024775013
0.0372273657 0.0399999991 -0.0085686918
0.0387394055 0.0399999991 -0.0200102526
0.0375832396 0.0399999991 -0.0089113097
0.0294084758 0.0399999991 -0.0155618947
-0.0068353960 0.0399999991 -0.0083007504
-0.0210945473 0.0399999991 -0.0058090240
-0.0044466150 0.0399999991 -0.0076424757
-0.0035421722 0.0399999991 -0.0051119442
-0.0137950357 0.0439551547 -0.0209999997
-0.0271512359 0.0410734217 -0.0209999997
-0.0378216014 0.0413209597 -0.0209999997
0.0233828704 0.0412961860 -0.0209999997
0.0330125861 0.0436465543 -0.0209999997
-0.0045193148 0.0412646346 -0.0209999997
-0.0249951854 0.0439999998 -0.0167619364
-0.0209427899 0.0439999998 -0.0195168175
0.0137980493 0.0439999998 -0.0182641459
0.0038044392 0.0439999998 -0.0188630340
0.0010219296 0.0439999998 -0.0208574144
0.0032116537 0.0439999998 -0.0151596415
-0.0252246173 0.0439999998 -0.0187108431
0.0129226148 0.0439999998 -0.0104528973
-0.0343619386 0.0439999998 0.0037767387
-0.0378237549 0.0439999998 -0.0157452869
-0.0394416407 0.0439999998 -0.0090507173
-0.0325610535 0.0439999998 -0.0049042261
-0.0364639892 0.0439999998 -0.0093584432
0.0257694555 0.0439999998 -0.0156477725
0.0353219381 0.0439999998 -0.0080664358
0.0289916242 0.0439999998 -0.0119328643
0.0305734373 0.0439999998 -0.0112345878
0.0326619790 0.0439999998 -0.0077608723
0.0260872571 0.0439999998 -0.0054396968
-0.0007437718 0.0439999998 -0.0114033647
0.0197139841 0.0439999998 0.0028091245
0.0245446331 0.0439999998 -0.0043137196
0.0172338248 0.0439999998 -0.0009137313
0.0348257877 0.0439999998 0.0067279114
0.0159145994 0.0439999998 -0.0018633358
-0.0127810716 0.0439999998 -0.0109644401
0.0202879374 0.0439999998 0.0034073504
-0.0008328991 0.0439999998 -0.0023649727
0.0009119578 0.0439999998 0.0029561786
-0.0168132116 0.0439999998 0.0075272840
0.0252341208 0.0439999998 0.0083277512
-0.0191394365 0.0439999998 0.0016845542
-0.0175094890 0.0439999998 0.0018095138
0.0044349625 0.0439999998 0.0031385616
-0.0127418781 0.0439999998 -0.0028836413
0.0083312872 0.0439999998 0.0043362470
-0.0126005510 0.0439999998 0.0028896720
-0.0099266756 0.0439999998 -0.0005262357
-0.0279696882 0.0439999998 0.0010687054
0.0168052068 0.0413962067 -0.0133618912
0.0249067716 0.0423917658 -0.0118597398
0.0180299624 0.0410067879 -0.0080105274
-0.0221046470 0.0410565283 -0.0139338835
-0.0141654852 0.0439547652 -0.0082244756
-0.0239632542 0.0419539184 -0.0088697370
-0.0249054057 0.0247076651 0.0084501025
-0.0189705065 0.0294170924 0.0007594514
-0.0257112514 0.0237701070 0.0034263981
0.0294973908 0.0188321551 0.0083474125
0.0323914456 0.0133696423 0.0023147170
0.0247303105 0.0249056285 0.0035384357
0.0144531943 0.0318907994 0.0004899986
0.0341113162 0.0078215616 0.0006566136
0.0324732333 0.0131757758 0.0058122817
0.0089027385 0.0338502199 0.0010632791
0.0022910798 0.0349203454 0.0082292344
-0.0048642920 0.0347185653 0.0014897849
-0.0105544034 0.0334551833 0.0069197205
-0.0333589416 0.0108898866 0.0040138699
-0.0348314475 0.0033845645 0.0031890738
0.0231700914 0.0261627405 0.0070000002
0.0176735538 0.0228453708 0.0070000002
0.0170552104 0.0299827041 0.0040000002
-0.0235230992 0.0247196736 0.0040000002
-0.0176612054 0.0231224806 0.0040000002
-0.0233939955 -0.0241720133 0.0049839884
-0.0242739627 -0.0176274162 0.0059949699
0.0251559980 -0.0176274162 0.0050194895
-0.0318412301 -0.0147538769 0.0065544070
0.0177258738 -0.0275935477 0.0070000002
0.0264630247 -0.0192399148 0.0070000002
-0.0350802640 -0.0049666275 0.0000000000
-0.0342597654 -0.0268398410 0.0000000000
-0.0285034148 -0.0219377680 0.0000000000
-0.0324027433 -0.0336481312 0.0000000000
-0.0238730326 -0.0309847666 0.0000000000
-0.0147253029 -0.0331328613 0.0000000000
0.0374112656 -0.0053868184 -0.0000000000
0.0399240734 -0.0042017249 -0.0000000000
0.0354436101 -0.0026681890 -0.0000000000
-0.0382450454 -0.0194922504 0.0000000000
-0.0392671622 -0.0043578149 0.0000000000
-0.0354884057 -0.0215803943 0.0000000000
0.0080523949 -0.0360958755 0.0000000000
0.0123035013 -0.0380269252 0.0000000000
-0.0252747102 -0.0387516851 0.0000000000
0.0010233322 -0.0360682599 0.0000000000
-0.0316759791 -0.0385707995 0.0000000000
0.0180752103 -0.0355796466 0.0000000000
0.0155622151 -0.0337681094 0.0000000000
0.0317005637 -0.0368356793 0.0000000000
0.0295378781 -0.0319177860 0.0000000000
0.0337878765 -0.0318602102 0.0000000000
0.0307194399 -0.0226836695 0.0000000000
0.0355935136 -0.0002000000 0.0001532888
-0.0238350698 -0.0358772451 0.0089999996
0.0377656910 -0.0392192024 0.0089999996
-0.0250699096 -0.0349339167 0.0089999996
-0.0279567127 -0.0338466201 0.0089999996
-0.0321430921 -0.0294716567 0.0089999996
-0.0305433308 -0.0283471439 0.0089999996
0.0373494735 -0.0075231247 0.0089999996
0.0381858565 -0.0202975903 0.0089999996
0.0347461947 -0.0065675726 0.0089999996
0.0126913819 -0.0338019054 0.0089999996
0.0280554206 -0.0378178566 0.0089999996
-0.0323519753 -0.0207767808 0.0089999996
-0.0350685245 -0.0249529516 0.0089999996
-0.0378201330 -0.0225605602 0.0089999996
-0.0382338876 -0.0224244726 0.0089999996
-0.0389820225 -0.0006474576 0.0089999996
0.0327497785 -0.0296513448 0.0089999996
0.0277189508 -0.0286678152 0.0089999996
0.0359090092 -0.0410774800 0.0089999996
0.0089279048 -0.0352624928 0.0089999996
0.0094492382 -0.0366017546 0.0089999996
0.0088850520 -0.0391625104 0.0089999996
0.0290573941 -0.0432149753 0.0089999996
0.0108779414 -0.0377106023 0.0089999996
-0.0036514520 -0.0394438236 0.0089999996
-0.0004904193 -0.0406601342 0.0089999996
-0.0103217708 -0.0403297005 0.0089999996
-0.0163212138 -0.0385346798 0.0089999996
-0.0342399569 -0.0423374598 0.0089999996
-0.0399999991 -0.0431541967 -0.0104528346
-0.0399999991 -0.0432953167 0.0058720227
-0.0399999991 -0.0248580073 0.0010310339
-0.0399999991 -0.0290630237 0.0043772175
-0.0399999991 -0.0330666803 0.0054484749
-0.0399999991 -0.0145674516 0.0049243978
-0.0399999991 -0.0129644854 0.0058583105
-0.0399999991 -0.0041192799 0.0055726018
0.0399999991 -0.0291378936 0.0006164258
0.0399999991 -0.0239179237 0.0000835091
0.0399999991 -0.0259876108 0.0017591553
0.0399999991 -0.0268048773 0.0008266666
0.0399999991 -0.0382339245 0.0028163263
0.0399999991 -0.0376060434 0.0072676976
0.0399999991 -0.0217734480 0.0084389447
0.0399999991 -0.0407299795 -0.0151266510
0.0399999991 -0.0437289937 0.0066073106
-0.0387852668 -0.0002000000 0.0065297485
0.0148821221 -0.0399999991 -0.0181096725
0.0160193801 -0.0399999991 -0.0188043084
0.0223815698 -0.0399999991 -0.0183612462
0.0137537416 -0.0399999991 -0.0189533429
-0.0055706322 -0.0399999991 -0.0200089336
0.0336293544 -0.0399999991 -0.0000654985
0.0082167950 -0.0399999991 -0.0039675733
0.0322367212 -0.0399999991 -0.0006843400
-0.0029611679 -0.0399999991 -0.0000980172
-0.0189683684 -0.0399999991 -0.0016044617
-0.0127498853 -0.0399999991 -0.0041828652
0.0001104179 -0.0399999991 -0.0109088246
-0.0124410441 -0.0399999991 -0.0133975875
-0.0067192789 -0.0399999991 -0.0139514826
-0.0283559076 -0.0399999991 -0.0182181375
-0.0020697987 -0.0399999991 -0.0156998149
0.0242820737 -0.0399999991 -0.0117299128
0.0359395654 -0.0399999991 -0.0087394376
0.0372724822 -0.0399999991 -0.0175887947
0.0348449533 -0.0399999991 -0.0112872694
0.0233074926 -0.0399999991 -0.0077125906
-0.0385683232 -0.0399999991 -0.0011035233
-0.0348627327 -0.0399999991 -0.0094054690
-0.0285731429 -0.0399999991 -0.0085951598
-0.0384376968 -0.0399999991 -0.0164614884
-0.0075613098 -0.0399999991 -0.0110268834
0.0196664785 -0.0399999991 -0.0033498315
0.0221525970 -0.0399999991 -0.0059957410
-0.0008188984 -0.0399999991 -0.0065668790
-0.0027746304 -0.0399999991 -0.0056042787
0.0223737742 -0.0435122711 -0.0209999997
0.0205151380 -0.0438260522 -0.0209999997
0.0216701880 -0.0407092318 -0.0209999997
-0.0139174069 -0.0405623013 -0.0209999997
-0.0262746235 -0.0413667860 -0.0209999997
0.0256593492 -0.0439999998 -0.0143852149
0.0014008562 -0.0439999998 -0.0181624527
0.0021326450 -0.0439999998 -0.0184999551
-0.0207215320 -0.0439999998 -0.0208200595
-0.0270996941 -0.0439999998 -0.0205011975
-0.0116810644 -0.0439999998 -0.0139370540
-0.0113135523 -0.0439999998 -0.0152271663
0.0115761702 -0.0439999998 -0.0164638504
0.0272056559 -0.0439999998 -0.0028869709
0.0369304000 -0.0439999998 0.0021084799
0.0353761818 -0.0439999998 0.0030783140
0.0290015524 -0.0439999998 -0.0094262509
0.0308652461 -0.0439999998 -0.0037831014
0.0276222130 -0.0439999998 -0.0136137031
-0.0365112449 -0.0439999998 0.0006852207
-0.0312441328 -0.0439999998 -0.0070803940
-0.0332419714 -0.0439999998 -0.0159449091
-0.0307574050 -0.0439999998 -0.0059406146
-0.0335275650 -0.0439999998 0.0001141671
0.0113089477 -0.0439999998 -0.0142473882
-0.0099865044 -0.0439999998 -0.0012181968
-0.0305255493 -0.0439999998 0.0058171746
-0.0198007771 -0.0439999998 0.0006061742
-0.0126817587 -0.0439999998 -0.0051591085
-0.0278359153 -0.0439999998 0.0033205902
0.0062066262 -0.0439999998 -0.0103998097
0.0123016622 -0.0439999998 -0.0122387519
-0.0096050173 -0.0439999998 0.0002781169
0.0082335779 -0.0439999998 -0.0029146129
0.0201361458 -0.0439999998 0.0048444351
0.0099051360 -0.0439999998 -0.0010978997
0.0199640178 -0.0439999998 0.0029518374
-0.0117635545 -0.0439999998 0.0049163506
0.0223991876 -0.0439999998 0.0086118589
-0.0062955701 -0.0439999998 0.0083800657
0.0155251647 -0.0439999998 0.0034827207
-0.0025502768 -0.0439999998 0.0019723542
-0.0187951301 -0.0439999998 0.0048789862
-0.0033242597 -0.0439999998 0.0080390824
-0.0231307718 -0.0403534351 -0.0118318516
-0.0240783447 -0.0422300984 -0.0135737493
-0.0179434905 -0.0435651117 -0.0052844645
0.0232607270 -0.0402645735 -0.0112100898
0.0146348131 -0.0435257273 -0.0138263632
0.0218230550 -0.0420893421 -0.0067262581
0.0201379293 -0.0287048932 0.0082071197
0.0134794496 -0.0323034545 0.0005254478
0.0266780882 -0.0226452444 0.0005212285
-0.0314445871 -0.0155013579 0.0075393170
-0.0124902216 -0.0327146752 0.0086623724
-0.0259524792 -0.0234894515 0.0008782778
-0.0182358997 -0.0298652475 0.0025046516
-0.0349763319 -0.0016628458 0.0088645696
-0.0344941260 -0.0062603912 0.0089112499
-0.0097818049 -0.0336399694 0.0064532774
-0.0051260530 -0.0346980392 0.0076364747
0.0021309002 -0.0349329060 0.0048733695
0.0089723333 -0.0338335746 0.0086551030
0.0328750597 -0.0121573802 0.0049123867
0.0338129182 -0.0090384848 0.0065918816
-0.0205190007 -0.0260649723 0.0070000002
-0.0236872686 -0.0206168239 0.0070000002
-0.0231039169 -0.0247860128 0.0040000002
0.0311781445 -0.0156894823 0.0040000002
0.0253122481 -0.0182019682 0.0040000002
