0.1250000000 -0.0102589777 -0.0414063285
0.1250000000 0.0624874674 -0.0420682748
0.1250000000 0.0244286867 0.0048682908
0.1250000000 0.0036798442 -0.0678024366
0.1250000000 -0.0029047231 -0.0111945530
0.1250000000 0.0497962843 -0.0602383783
0.1242575856 0.0458960746 -0.0818971556
0.1240059453 0.0531795862 0.0070639572
0.1269000024 0.0486332889 -0.0583296995
0.1269000024 0.0528632823 -0.0461377162
0.1269000024 0.0051992160 -0.0595146333
0.1269000024 0.0088839757 -0.0524238496
0.1269000024 -0.0067572534 -0.0296210513
0.1269000024 -0.0130577469 -0.0284659391
0.1269000024 0.0137516860 -0.0062215880
0.1269000024 0.0553080490 -0.0051057560
0.1269000024 0.0503110434 -0.0158804338
0.1269000024 0.0363082358 -0.0718108889
0.1269000024 0.0257777164 -0.0051220797
0.1269000024 0.0137585307 -0.0205712423
0.1269000024 0.0402378930 -0.0299033245
0.1269000024 0.0330048544 -0.0436213472
0.1269000024 0.0222457367 -0.0568144840
0.1256999969 0.0540619359 -0.0423992765
0.1256999969 0.0167372478 -0.0602258790
0.1256999969 0.0107395148 -0.0196913846
0.1256999969 -0.0032079444 -0.0377217411
0.1254000068 0.0564806391 -0.0691537544
0.1254000068 -0.0128241820 -0.0637718084
0.1254000068 0.0250125683 0.0075259384
0.1254000068 0.0744947568 -0.0389575363
0.1254000068 0.0112259452 -0.0774253412
0.1254383176 0.0701684854 -0.0382462209
0.1230000034 -0.0160613296 -0.0336522028
0.1230000034 0.0693707872 -0.0265059575
0.1230000034 0.0730421696 -0.0539731981
0.1230000034 -0.0026284193 -0.0734213254
0.1230000034 0.0114176788 -0.0824708204
0.1230205219 0.0445932632 0.0036473560
0.1234318077 0.0688202845 -0.0246755813
0.1242000014 0.0253197319 -0.0378865512
0.1242000014 0.0389872053 -0.0473218607
0.1242000014 0.0468408832 -0.0282754410
0.1242000014 0.0244057456 -0.0143122902
0.1241331682 0.0283485296 0.0126790069
-0.0264601302 -0.0502999984 -0.0150507168
0.0679108204 -0.0502999984 0.0122904507
0.0613819025 -0.0502999984 -0.0193541031
0.0628975871 -0.0502999984 -0.0393717561
0.0366353869 -0.0502999984 -0.0263083988
0.0465482704 -0.0502999984 -0.0208617557
0.0382612485 -0.0502999984 0.0062692992
0.0443826276 -0.0502999984 -0.0586503518
0.0222918058 -0.0502999984 -0.0264317456
0.0223713677 -0.0502999984 -0.0250451252
-0.0010941866 -0.0502999984 -0.0122835578
0.0118912299 -0.0502999984 -0.0147003753
0.0157821332 -0.0502999984 -0.0003954225
0.0127248744 -0.0502999984 -0.0574817731
-0.0118506549 -0.0502999984 -0.0274198752
-0.0062416758 -0.0502999984 -0.0328114510
0.0581902907 -0.0502999984 -0.0675465949
0.0343592470 -0.0502999984 -0.0710714075
-0.0060152637 -0.0502999984 -0.0699101140
0.0137245568 -0.0502999984 0.0118670399
0.0285405699 -0.0502999984 -0.0746559597
-0.0028406392 -0.0502999984 -0.0769727769
-0.0155442356 -0.0502999984 0.0021831264
-0.0272130696 -0.0502999984 -0.0422991910
0.0247088248 -0.0518999994 -0.1113891993
0.0347775882 -0.0518999994 -0.1140533405
-0.0041928879 -0.0518999994 -0.1074023384
0.0283285095 -0.0518999994 -0.1053025456
0.0371240863 -0.0518999994 -0.0912812601
0.0006202570 -0.0518999994 -0.0884146572
-0.0256716166 -0.0518999994 -0.1126121739
-0.0021406896 -0.0518999994 -0.1029701927
0.0567047015 -0.0560396863 -0.1151499972
-0.0305000003 -0.0540073681 0.0150925360
-0.0305000003 -0.0557433280 -0.1093665124
0.0332932247 -0.0531062803 0.0491499975
0.0683000013 -0.0559292539 -0.0973621041
0.0683000013 -0.0559939347 0.0347866644
0.0683000013 -0.0518218087 -0.0013841837
0.0260227683 -0.0518999994 0.0388623720
0.0151947436 -0.0518999994 0.0408486862
0.0042007575 -0.0518999994 0.0466145740
-0.0220637391 -0.0518999994 0.0283115213
0.0654998362 -0.0518999994 0.0274725508
0.0458165523 -0.0518999994 0.0199992241
0.0393639877 -0.0518999994 0.0376527583
0.0521087411 -0.0518999994 0.0143725138
0.0309350072 -0.0565999970 0.0441454114
-0.0074740954 -0.0565999970 0.0487280020
-0.0304641691 -0.0565999970 -0.0431703872
0.0638084070 -0.0565999970 -0.0973044748
0.0627091947 -0.0565999970 -0.0713830679
0.0660067353 -0.0565999970 0.0438962763
0.0575471424 -0.0505800764 -0.0851500034
-0.0274150678 -0.0493974015 -0.0812803609
-0.0051219578 -0.0467455237 0.0043386473
-0.0184999984 -0.0444079120 -0.0595453463
-0.0382604578 -0.0428248416 -0.0359609565
-0.0384614724 -0.0105762648 -0.0338396804
-0.0387313456 -0.0361400224 -0.0311303956
-0.0384609390 -0.0318191360 -0.0285604664
-0.0370659934 -0.0488625717 -0.0386440209
-0.0382641326 -0.0223233517 -0.0408527602
-0.0385767660 -0.0440465777 -0.0434294313
0.0367241508 -0.0563999973 -0.0028399859
0.0608402604 -0.0563999973 0.0427896771
0.0545838243 -0.0563999973 -0.0465320321
0.0210294493 -0.0563999973 -0.0152584699
0.0481097831 -0.0563999973 -0.0420152043
0.0561510898 -0.0563999973 -0.0223343120
0.0591599754 -0.0563999973 -0.0401298510
0.0435109566 -0.0563999973 -0.0327521707
0.0518101997 -0.0563999973 -0.0013219507
0.0046216639 -0.0563999973 0.0163228795
0.0538386639 -0.0563999973 -0.0110061663
0.0360624602 -0.0563999973 -0.0474358567
0.0223116533 -0.0563999973 0.0288564580
0.0208366637 -0.0563999973 -0.0172206523
-0.0041586708 -0.0563999973 0.0139830360
0.0293805749 -0.0563999973 0.0352761181
-0.0126840452 -0.0563999973 0.0391312233
-0.0091264137 -0.0563999973 0.0307213763
0.0194248356 -0.0563999973 -0.0939912906
-0.0155141113 -0.0563999973 0.0146326728
0.0202311486 -0.0563999973 -0.0615035547
-0.0126018156 -0.0563999973 0.0075990490
-0.0056386107 -0.0563999973 0.0025438821
-0.0206612865 -0.0563999973 -0.1099287939
-0.0140193869 -0.0563999973 -0.0055515327
-0.0029803339 -0.0563999973 -0.0655098485
-0.0183917273 -0.0563999973 -0.0579149324
0.0193332368 -0.0563999973 -0.0726076411
-0.0228857512 -0.0563999973 -0.0382289636
-0.0146625810 -0.0563999973 -0.0446469927
-0.0142894210 -0.0563999973 -0.0465447597
-0.0212256662 -0.0563999973 0.0028332994
-0.0176691831 -0.0563999973 -0.1086345255
-0.0220888514 -0.0563999973 -0.0804847619
-0.0278254156 -0.0563999973 -0.0741668504
-0.0334500000 -0.0549428619 -0.0726980026
-0.0385624690 -0.0573999994 -0.0235687615
-0.0411046069 -0.0573999994 -0.0393422570
-0.0398924200 -0.0573999994 -0.0802906275
-0.0443499982 -0.0533068602 -0.0096711320
-0.0331173010 -0.0524000004 -0.0260216993
-0.0425232112 -0.0524000004 -0.0453029447
-0.0392339876 -0.0524000004 -0.0213055326
-0.0324214637 -0.0548999980 -0.0729608037
-0.0362550238 -0.0548999980 -0.0849025131
0.0727500021 -0.0566440765 -0.0114405110
-0.0280999970 -0.0566517158 -0.0423353208
-0.0489385052 -0.0547249910 -0.0308920012
0.1114503900 -0.0547121070 0.0596553450
0.0862109914 -0.0479769897 -0.1354999989
-0.0531000011 -0.0495632998 0.0349893628
-0.0531000011 -0.0498188781 -0.0824563918
0.0597468524 -0.0505973282 0.0644999966
0.0119682332 -0.0489466011 0.0644999966
0.1269000024 -0.0519003302 -0.0248011572
0.1269000024 -0.0490423598 0.0262629142
0.0982696012 -0.0472999997 -0.1346300906
-0.0522114619 -0.0472999997 -0.0886450719
-0.0349126981 -0.0472999997 0.0640140812
0.1201738497 -0.0472999997 0.0571449836
0.1246460691 -0.0472999997 -0.1137999404
0.0631753683 -0.0573999994 -0.1290076539
-0.0025555821 -0.0573999994 -0.1254318083
0.0430110093 -0.0573999994 -0.1236242704
0.0143321121 -0.0573999994 -0.1131187707
0.0166070120 -0.0573999994 -0.1185884243
-0.0324818476 -0.0573999994 -0.0371956785
-0.0294083967 -0.0573999994 -0.0626493162
-0.0474552365 -0.0573999994 -0.0600049379
-0.0416477938 -0.0573999994 0.0496094975
-0.0448292923 -0.0573999994 -0.1020473178
-0.0410071009 -0.0573999994 0.0146901279
-0.0412197159 -0.0573999994 0.0473889845
0.0953044030 -0.0573999994 -0.1233880477
0.0891384600 -0.0573999994 -0.0901626254
0.0870496110 -0.0573999994 -0.1088254639
0.0961815212 -0.0573999994 -0.0956519327
0.0507928167 -0.0573999994 0.0437291737
0.0997991352 -0.0573999994 0.0573089868
0.0296449694 -0.0573999994 0.0521613807
-0.0264696571 -0.0573999994 0.0547071810
0.0630419287 -0.0573999994 0.0553233150
0.0702433233 -0.0573999994 -0.0332267414
0.0609356203 -0.0573999994 -0.0501838363
0.0640285244 -0.0573999994 -0.0778565038
0.0647964807 -0.0573999994 0.0327497364
0.0937997802 -0.0573999994 0.0341302227
0.0953267873 -0.0573999994 0.0467299487
0.0893412932 -0.0573999994 0.0166265568
0.1086532213 -0.0573999994 0.0249820710
0.1124538091 -0.0573999994 -0.1140928809
0.1189381213 -0.0573999994 -0.0465625521
0.1129990009 -0.0573999994 -0.0019242717
0.1182772595 -0.0573999994 0.0278939871
0.1181788250 -0.0573999994 -0.0870960855
0.1052537042 -0.0573999994 -0.0826619039
-0.0523433561 -0.0511208044 0.0498751100
0.1267451553 -0.0486363835 0.0458142367
-0.0345516808 -0.0571101038 -0.1317938385
0.0106068451 -0.0552118815 -0.1345908121
0.1056088227 -0.0568029112 -0.1328524063
-0.0481534505 -0.0573893671 -0.0220785447
-0.0510794698 -0.0563622118 -0.1004894012
-0.0525964454 -0.0545627364 -0.0637588319
0.1174706840 -0.0535155943 -0.1321091090
-0.0462941507 -0.0570591884 0.0547183190
0.1240996641 -0.0568782337 -0.0877855572
0.1261838747 -0.0549602855 -0.0828916527
0.1267233291 -0.0532881898 -0.1033542115
-0.0168512929 -0.0568637608 0.0617290134
0.0871881577 -0.0553918917 0.0634526772
0.1262220802 -0.0524299861 0.0495674827
0.1172273016 -0.0548999980 0.0444251440
-0.0319743795 -0.0548999980 -0.1162105297
0.1009186838 -0.0548999980 -0.1039396449
0.0949287979 -0.0548999980 0.0189519362
0.0601370046 -0.0548999980 0.0576527397
-0.0071812519 -0.0548999980 0.0561556121
0.0054882572 -0.0548999980 -0.1238331458
0.0263613129 -0.0548999980 -0.1299314637
0.0568800780 -0.0548999980 -0.1267889643
0.0705032129 -0.0548999980 -0.0638127873
-0.0393344704 -0.0548999980 0.0150648046
-0.0476298833 -0.0548999980 -0.0289443964
0.1169878588 -0.0548999980 -0.0362239698
0.1204994695 -0.0548999980 -0.0246882341
0.0730860306 -0.0548999980 0.0510972739
0.0988805265 -0.0548999980 0.0461320686
0.0996832547 -0.0548999980 0.0510044957
0.0891051303 -0.0548999980 0.0316664905
0.0947452311 -0.0548999980 -0.1011018881
0.0752201454 -0.0548999980 -0.1035780528
0.1010666124 -0.0548999980 -0.1123754018
0.0888913666 -0.0548999980 -0.1203433648
-0.0318664381 -0.0548999980 0.0368242146
-0.0410536503 -0.0548999980 -0.1281033026
0.1139231183 -0.0525005953 -0.0951749600
-0.0389038358 -0.0510002909 0.0247062815
0.0046550038 -0.0437093836 -0.1330000013
-0.0274735296 -0.0423753776 -0.1330000013
0.1229000017 -0.0505744670 0.0005647044
0.1229000017 -0.0481441104 0.0356341487
0.1229000017 -0.0539358145 0.0184428039
0.1229000017 -0.0544574070 -0.0473492997
0.1229000017 -0.0541900676 -0.0211928944
0.1145304815 -0.0475737260 -0.1294321299
0.0578552187 -0.0468294765 -0.1315000057
0.0659831506 -0.0463852943 -0.1315000057
-0.0291744870 -0.0534009345 -0.1315000057
-0.0083017442 -0.0510106586 -0.1315000057
-0.0437845597 -0.0480174797 -0.1273300375
-0.0491000004 -0.0463857166 -0.1066469636
-0.0491000004 -0.0452588786 -0.0262012421
-0.0491000004 -0.0464912797 -0.0069568110
-0.0491000004 -0.0487776195 0.0040260047
-0.0491000004 -0.0472553337 -0.0020567822
-0.0374487362 -0.0539328762 0.0598202677
-0.0326978416 -0.0434076013 0.0604999997
0.0716991349 -0.0433239502 0.0604999997
0.0422631691 -0.0516167517 0.0604999997
0.0860356274 -0.0482471371 0.0604999997
0.1186450075 -0.0514723082 0.0552881611
0.1243999973 -0.0464807710 0.0160354832
0.1243999973 -0.0425177627 -0.0064159041
0.1098484239 -0.0439808637 0.0615330143
0.0763688204 -0.0432732175 0.0619999953
-0.0470987566 -0.0451062583 0.0549452747
-0.0505999960 -0.0442292046 -0.0165243685
-0.0505999960 -0.0428092587 -0.0380447248
0.0482289101 -0.0422999971 0.0618639438
-0.0091620058 -0.0422999971 -0.1316694048
-0.0499594643 -0.0422999971 -0.0101001886
0.0210142606 -0.0565999970 0.0498476800
-0.0025131367 -0.0565999970 0.0466487708
0.0680117429 -0.0565999970 -0.0760701975
0.0647975487 -0.0565999970 -0.1089029316
0.0661741470 -0.0565999970 -0.0000301859
-0.0298283639 -0.0565999970 0.0225751364
0.0015268907 -0.0565999970 -0.1125268935
-0.0047161527 -0.0565999970 -0.1160843760
-0.0311000030 -0.0562523746 -0.0630595363
0.0689000040 -0.0551179164 0.0460260116
-0.0078631017 -0.0557587447 0.0524999984
0.1086346797 -0.0565999970 -0.0831434212
0.1107499972 -0.0554797948 -0.0195798922
-0.0423902856 -0.0565999970 0.0085904849
-0.0393655421 -0.0558106855 0.0144999996
-0.0416561226 -0.0472714997 0.0225369461
0.0108211737 0.0496310082 0.0544978862
0.0060309099 0.0503000058 0.0486098594
-0.0301192089 0.0503000058 0.0510995100
0.0424000025 0.0644600531 0.0540369509
0.0424000025 0.0769156849 0.0461311698
0.0424000025 0.0852764542 0.0428077698
0.0224840642 0.0510904017 0.0545000024
0.0170906650 0.0614681426 0.0545000024
0.0222672774 0.0725966179 0.0545000024
0.0290861709 0.0828576694 0.0545000024
0.0392654043 0.0776917619 0.0545000024
0.0353675504 0.1088080478 0.0386364759
0.0340729136 0.1075287790 0.0511082030
-0.0093872808 0.0611399317 0.0427848912
0.0065194091 0.0696733397 0.0401538285
-0.0348574058 0.0578000061 0.0495771987
-0.0046604049 0.0635035915 0.0369999968
0.0261268052 0.0526319038 0.0369999968
0.0163971836 0.0792769882 -0.1215306085
-0.0077137028 0.0615343562 -0.1224798769
0.0315536835 0.1033864307 -0.1197793044
0.0382202765 0.1106937135 -0.1146620412
0.0356804878 0.0503000058 -0.1108228796
0.0354604890 0.0503000058 -0.1210609403
-0.0170841356 0.0504391253 -0.1105000079
0.0270863903 0.0609035165 -0.1255000085
0.0219495886 0.0629507178 -0.1255000085
0.0235819410 0.0811160210 -0.1255000085
0.0389072200 0.0808823059 -0.1255000085
0.0424000025 0.0709475498 -0.1144671311
0.0424000025 0.0541768075 -0.1198176674
0.0419671325 0.1136999950 -0.1189161919
0.0406491571 0.0503000058 -0.0986616590
0.0186878406 0.0503000058 -0.0992953281
0.0399000011 -0.0384945648 0.0299576557
0.0399000011 0.0428295573 0.0549564846
0.0077009629 0.0040584541 0.0545000024
0.0153085814 0.0214817059 0.0545000024
-0.0138777202 -0.0120350002 0.0545000024
-0.0001757767 -0.0198487308 0.0545000024
-0.0264844065 0.0297586252 0.0545000024
-0.0036656272 0.0151493068 0.0545000024
0.0300634284 -0.0079332185 0.0545000024
0.0093291955 -0.0311163099 -0.1255000085
0.0369757459 0.0170147766 -0.1255000085
0.0318483837 -0.0242990351 -0.1255000085
-0.0007720732 0.0420238401 -0.1152077494
0.0379000008 -0.0367680294 -0.0978487151
0.0379000008 -0.0418094049 0.0247946051
0.0062858243 -0.0240430815 0.0545000024
0.0398540264 0.0360631469 0.0545000024
0.0320540942 0.0423520702 0.0545000024
-0.0079607291 0.0427301833 0.0545000024
-0.0062404820 -0.0045162789 -0.1255000085
0.0056942941 0.0286871379 -0.1255000085
-0.0063523383 0.0204494678 -0.1255000085
-0.0156857776 -0.0126710526 -0.1255000085
0.0021640687 0.0323097372 -0.1255000085
0.0088460491 0.0183305316 -0.1255000085
0.0293766188 -0.0083541884 -0.1255000085
-0.0244647196 -0.0336999968 -0.0391509715
-0.0230397716 -0.0336999968 -0.0381172370
-0.0309432163 -0.0336999968 0.0047897384
-0.0350013304 -0.0336999968 -0.0373460340
-0.0343622208 -0.0336999968 0.0111137683
-0.0440357931 -0.0336999968 0.0268520895
-0.0476289571 -0.0336999968 -0.0460695951
-0.0426731748 -0.0336999968 -0.0030020391
-0.0342341470 -0.0336999968 -0.1238754115
-0.0302447939 -0.0336999968 -0.0204005424
-0.0292940407 -0.0336999968 0.0337021399
0.0321712558 -0.0336999968 0.0544867956
-0.0266172659 -0.0336999968 -0.0739644842
0.0327668110 -0.0336999968 -0.1211537533
-0.0296437423 -0.0336999968 -0.1180657944
-0.0130015139 -0.0353589632 -0.1325000077
-0.0416250924 -0.0321999975 -0.1256485828
-0.0414479932 -0.0321999975 -0.0417384848
-0.0474589689 -0.0321999975 -0.0406316392
-0.0454350748 -0.0321999975 0.0397387764
-0.0329431254 -0.0321999975 -0.0007069134
-0.0321493637 -0.0321999975 -0.0843225361
-0.0291464839 -0.0321999975 -0.0444261956
-0.0261508500 -0.0321999975 -0.1080513993
-0.0260856914 -0.0321999975 -0.0446577643
-0.0224396293 -0.0321999975 0.0280541962
0.0399000011 -0.0386220926 -0.1276773104
0.0391143877 -0.0422999971 -0.1003303130
-0.0504324928 -0.0422999971 0.0030547609
-0.0494751530 -0.0340211023 0.0088505256
-0.0330552806 -0.0434999987 -0.0960958247
0.0176052804 -0.0381145338 0.0644999966
-0.0121770416 -0.0431450282 0.0644999966
-0.0531000011 -0.0441728121 -0.0679738793
-0.0531000011 -0.0379751915 -0.0828177272
-0.0531000011 -0.0471751196 0.0100653895
-0.0531000011 -0.0422200679 -0.0321182896
0.0388173027 -0.0416447976 -0.1354999989
-0.0063664612 -0.0419524865 -0.1354999989
-0.0340801768 -0.0447433446 0.0643895559
-0.0444285318 -0.0334278096 0.0587193734
0.0203460467 -0.0336247808 0.0629769681
-0.0481224379 -0.0322044610 -0.0294283100
-0.0506829895 -0.0329335549 0.0434961843
-0.0525999496 -0.0350443684 0.0052229133
-0.0398340345 -0.0359702055 -0.1339876431
0.0195473175 -0.0330179317 -0.1330679272
-0.0269478565 -0.0416257809 0.0257779804
-0.0260039507 -0.0380509310 -0.0901659248
-0.0326254084 -0.0384107650 -0.0943979931
0.0241686368 -0.0415676809 0.0615000017
-0.0176130734 -0.0382695053 0.0615000017
-0.0500999950 -0.0376933322 0.0006032875
-0.0500999950 -0.0417904048 -0.0061339861
-0.0500999950 -0.0358164818 0.0038853744
-0.0479702496 -0.0390330960 -0.1234972702
-0.0519324800 -0.0472999997 -0.0442008106
-0.0432743871 -0.0459957458 0.0598232953
-0.0515999980 -0.0444716455 -0.0014390334
-0.0515999980 -0.0443585547 -0.1033992143
0.0289019073 -0.0431024384 -0.1340000033
0.0299014553 -0.0429831291 0.0629999936
-0.0219999980 -0.0336579301 -0.0948207763
-0.0331771902 0.0356832507 0.0533872299
-0.0350999944 -0.0237425785 -0.0918299900
-0.0350999944 0.0127067452 -0.0801531896
-0.0350999944 0.0241925251 -0.0947279122
-0.0350999944 0.0194702191 -0.0922086384
-0.0350999944 -0.0273712580 -0.1148319827
-0.0350999944 0.0180744474 -0.1148740435
-0.0350999944 0.0312227985 -0.1195465121
-0.0350999944 -0.0124671443 -0.1002378397
-0.0350999944 -0.0249265338 -0.1034392568
-0.0350999944 -0.0215537547 0.0264931736
-0.0350999944 0.0433749406 0.0193882534
-0.0350999944 0.0283466800 0.0281198584
-0.0350999944 0.0184019546 0.0166171362
-0.0350999944 -0.0126906303 0.0402425552
-0.0350999944 -0.0092221589 0.0310743548
-0.0350999944 -0.0153993351 0.0387595262
-0.0350999944 -0.0120585273 0.0242917786
-0.0350999944 -0.0215367830 -0.0734331873
-0.0350999944 -0.0227648269 -0.0514349144
-0.0350999944 -0.0301128941 -0.0683613722
-0.0350999944 -0.0259228467 0.0105605390
-0.0332795978 -0.0189080282 -0.1241921244
0.0448199050 0.0769173617 -0.1280000061
0.0256764146 0.0926924586 -0.1280000061
0.0062573808 0.0636901663 -0.1280000061
-0.0049835040 0.0446193167 -0.1280000061
-0.0077849209 -0.0107132986 -0.1280000061
-0.0074138323 -0.0256958951 -0.1280000061
0.0204440672 -0.0046792332 -0.1280000061
0.0346514101 0.0093348675 -0.1280000061
0.0100845523 -0.0124429117 -0.1280000061
-0.0281579210 -0.0166937499 -0.1280000061
-0.0132649054 0.0192814279 -0.1280000061
-0.0110262163 0.0280134799 -0.1280000061
0.0140739314 0.0538942357 -0.1280000061
0.0251769587 -0.0258398792 -0.1280000061
0.0290499488 0.0059780924 -0.1280000061
0.0447256263 0.0529719134 -0.1280000061
0.0437321429 0.0598864646 -0.1280000061
0.0239509437 0.0581789197 -0.1280000061
0.0096947083 0.0636762954 -0.1280000061
-0.0374534389 -0.0110036968 -0.1216132504
-0.0354245107 0.0135306907 -0.1257756643
-0.0375999995 0.0548410098 -0.1162004497
-0.0375999995 0.0313409046 -0.1180344793
-0.0375999995 -0.0177654594 -0.0772928055
-0.0375999995 0.0349099524 -0.0966614209
-0.0375999995 -0.0002428467 -0.0757196264
-0.0375999995 0.0015676831 -0.0912834585
-0.0375999995 0.0178682089 -0.1097387766
-0.0375999995 -0.0056305184 -0.0960103017
-0.0375999995 -0.0185254704 -0.0970913674
-0.0375999995 0.0314911881 0.0447385077
-0.0375999995 -0.0002826441 0.0462249641
-0.0375999995 0.0128722124 0.0245536452
-0.0375999995 0.0411455402 0.0161872197
-0.0375999995 0.0202613370 0.0367282719
-0.0375999995 0.0023500852 0.0128045828
-0.0375999995 0.0104059533 0.0145249068
-0.0375999995 -0.0144059099 0.0157074450
-0.0375999995 -0.0260994036 0.0252723663
-0.0375999995 -0.0291102703 -0.0120868283
-0.0375999995 -0.0234639005 -0.0795585236
-0.0373576210 0.0115192094 0.0513410584
-0.0345324404 0.0558041477 0.0554715344
-0.0259416552 -0.0203028817 0.0570000000
-0.0219854411 0.0110846111 0.0570000000
-0.0023027030 0.0618469982 0.0570000000
0.0107214704 0.0031364689 0.0570000000
0.0077007739 0.0353934480 0.0570000000
0.0323543025 0.0151442976 0.0570000000
-0.0009466882 0.0155555283 0.0570000000
-0.0090072602 0.0541540265 0.0570000000
-0.0209246456 0.0380159046 0.0570000000
0.0202336068 0.0739751673 0.0570000000
0.0351368150 0.0307660518 0.0570000000
0.0316708000 0.0610619523 0.0570000000
0.0244909314 0.0805056118 0.0570000000
0.0403224586 0.0908372844 0.0570000000
-0.0190727984 -0.0128562028 0.0570000000
0.0045113775 -0.0043358576 0.0570000000
0.0333242077 0.0103142302 0.0570000000
0.0241016710 -0.0147530722 0.0570000000
0.0191041793 -0.0251852588 0.0570000000
-0.0373580098 0.0281014041 -0.0755000040
0.0035190094 -0.0227209315 0.0425978276
0.0284058237 0.0478000008 -0.1218351587
0.0398308589 0.0478000008 -0.1091832272
-0.0146352007 0.0478000008 -0.1044797733
0.0203351905 0.0478000008 -0.1064752789
0.0026645118 0.0478000008 -0.0996431075
-0.0087557324 0.0502123134 -0.0954999998
-0.0118368080 0.0478000008 0.0463647865
0.0140704988 0.0478000008 0.0367392270
0.0037061293 0.0478000008 0.0411260661
-0.0023724924 0.0478000008 0.0264720523
-0.0175138527 0.0478000008 0.0505449148
0.0028238216 0.0503000058 0.0288210499
-0.0279505039 0.0503000058 0.0256360255
0.0131840050 0.0503000058 0.0363299597
-0.0358341208 -0.0313592414 -0.1267988443
-0.0381150886 -0.0308131661 -0.0207874080
-0.0399105468 -0.0320152609 -0.0698192282
0.0017765956 -0.0319623441 0.0590503604
0.0391718322 0.0474412245 0.0528389777
0.0253583366 0.0452095807 -0.1254185335
-0.0372902871 0.0464558621 -0.1063131259
0.0341275838 -0.0321999975 -0.1002078987
0.0385561797 -0.0321999975 0.0320465705
0.0372953768 -0.0379986750 0.0252313736
0.0359013697 -0.0378577778 0.0192415192
-0.0051856955 -0.0045801641 0.0547193240
0.0026166669 -0.0137262235 0.0546219428
-0.0186024300 -0.0030343855 0.0550590439
-0.0073573055 -0.0138779028 0.0546150592
0.0135373060 0.0006675977 0.0559234093
0.0222218713 0.0114663736 0.0564642276
0.0120428862 0.0200786685 0.0548204821
0.0055336988 -0.0080742797 0.0548633018
0.0014371775 -0.0100822003 0.0561950227
-0.0024992358 0.0225801645 0.0557660454
0.0061595676 -0.0008959562 0.0549519609
-0.0175417451 0.0145126008 -0.1256177976
-0.0000419630 -0.0114689801 -0.1267540676
-0.0159815711 0.0041128245 -0.1277176346
0.0077843425 0.0192773392 -0.1260604136
0.0092997714 0.0085231453 -0.1269095679
0.0122610135 0.0301039020 -0.1275980283
0.0073085763 0.0300665791 -0.1260523682
-0.0037277615 0.0103673449 -0.1267900750
-0.0111050038 0.0229741239 -0.1265110676
-0.0024281132 0.0291591051 -0.1257554934
-0.0011582841 0.0184077911 -0.1279611641
0.0128318673 -0.0236999989 -0.1238580298
-0.0294657888 0.0209882683 -0.1205000058
0.0320212444 -0.0219088836 -0.1215993212
-0.0296000000 0.0236197464 -0.1207385129
0.0309000015 0.0001198352 -0.1238060331
-0.0088754041 0.0368000008 -0.1220725238
-0.0068537937 -0.0211999994 -0.1238555586
0.0163356351 -0.0236999989 0.0525216937
-0.0296000000 0.0197955035 0.0536286564
0.0334000029 0.0161544023 0.0507498919
0.0312620421 0.0098024277 0.0494999997
0.0244432391 -0.0211999994 0.0520491607
-0.0271000024 0.0139102453 0.0497153029
-0.0130611558 0.0368000008 0.0532916429
0.0435578930 0.0488000028 -0.1140156926
0.0428560198 0.0180972273 -0.1264999956
0.0449000001 0.0652462607 -0.1084903642
0.0449000001 0.0866418638 -0.1219699681
0.0449000001 0.0623813884 -0.1205425884
0.0449000001 0.0570713224 -0.1274266248
0.0408703464 -0.0174747507 0.0554999970
0.0449000001 0.0557969324 0.0429565797
0.0449000001 0.1009116793 0.0444989082
0.0449000001 0.1114629264 0.0504621384
0.0449000001 0.0422912455 0.0556771249
0.0424000025 0.0561858860 -0.0957998159
0.0428124662 0.1044662877 -0.1080000028
0.0218458494 0.0922351690 -0.1165355185
0.0296267446 0.1050292309 -0.1218759031
-0.0161092829 0.0615760039 -0.1228770157
0.0063589763 0.0726883466 -0.1147544308
0.0368501713 0.1128386881 -0.1130564814
0.0238735680 0.0955693300 0.0505217140
0.0156188976 0.0824175608 0.0530312223
0.0010594563 0.0687248364 0.0486618952
-0.0242696705 0.0606025323 0.0394058638
0.0099368674 0.0750903120 0.0556176282
-0.0299775517 0.0584680830 -0.1276908978
0.0344209174 0.1093819211 -0.1276295804
0.0407316715 0.0805509767 -0.1254315920
-0.0190747464 0.0503488579 -0.1238425071
0.0017322277 0.0413138558 -0.1204153153
0.1122118489 0.1112000048 -0.1234137085
0.0670053136 0.1112000048 -0.0256010319
0.0600028280 0.1112000048 -0.0176555450
0.0671201705 0.1112000048 -0.1020522510
0.0899595322 0.1112000048 -0.0662063270
0.0693148144 0.1112000048 -0.0357860446
0.0693468854 0.1112000048 -0.0771173020
0.0613540752 0.1112000048 -0.0086207189
0.0842158182 0.1112000048 -0.0647569170
0.0487104671 0.1112000048 -0.0961745864
0.0538749131 0.1112000048 -0.1223997413
0.1093196672 0.1112000048 -0.1074576610
0.0545441529 0.1112000048 0.0272148471
0.0482645023 0.1112000048 -0.0846147735
0.1007989452 0.1112000048 -0.1181019529
0.0807835820 0.1112000048 -0.0714575824
0.1020814533 0.1112000048 -0.0717246077
0.0924695874 0.1112000048 -0.1079256416
0.1171539805 0.1112000048 -0.0990790959
0.1128261521 0.1112000048 -0.0557467883
0.0751889291 0.1112000048 0.0326381547
0.1062737387 0.1112000048 -0.0754486641
0.0938158969 0.1112000048 0.0037889928
0.0918784278 0.1112000048 0.0131484825
0.0980700095 0.1112000048 0.0090517343
0.1055642602 0.1112000048 -0.0532314066
0.0907024402 0.1112000048 -0.0163182514
0.1211666553 0.1112000048 -0.0751910550
0.0831526730 0.1112000048 -0.0229304894
0.1199540923 0.1112000048 -0.0369015110
0.1214903202 0.1112000048 0.0047246942
0.0611867116 0.1112000048 0.0461882583
0.1184189956 0.1112000048 0.0046378999
0.1261169656 0.0266237335 0.0076557412
0.0399000011 0.0126515951 0.0554968635
0.0450516541 -0.0401580702 0.0644999966
0.0600848039 -0.0377702539 -0.1354999989
0.0823694663 -0.0453015520 -0.1354999989
0.1168227827 0.1137000024 -0.1206718639
0.0716780176 0.1137000024 -0.0589396241
0.0627061453 0.1137000024 0.0371905220
0.0572406287 0.1137000024 0.0056601455
0.0618172600 0.1137000024 0.0209064708
0.0890899436 0.1137000024 0.0182311315
0.0718023040 0.1137000024 0.0279069110
0.0766513462 0.1137000024 -0.0456422861
0.0666125681 0.1137000024 0.0383047838
0.0916217082 0.1137000024 -0.0164069862
0.0690571536 0.1137000024 0.0012207492
0.0768890119 0.1137000024 0.0120371740
0.0511248879 0.1137000024 -0.0406594424
0.1079393806 0.1137000024 0.0435713764
0.0581976275 0.1137000024 -0.0919419535
0.1010112947 0.1137000024 0.0057281071
0.0463846723 0.1137000024 -0.0912546558
0.0518533970 0.1137000024 0.0054942971
0.0634803012 0.1137000024 0.0067478365
0.0835899676 0.1137000024 -0.0920105506
0.1087491730 0.1137000024 0.0098970905
0.1019651183 0.1137000024 -0.0756511284
0.1030553128 0.1137000024 -0.0300545863
0.0810837968 0.1137000024 -0.0568960814
0.1120214452 0.1137000024 -0.0878085661
0.1020222579 0.1137000024 -0.0624415593
0.0911709447 0.1137000024 -0.0304366216
0.1212826919 0.1137000024 -0.0949188040
0.0798056486 0.1137000024 -0.0789773216
0.1070993371 0.1137000024 -0.0595076061
0.0834922980 0.1137000024 -0.0660331608
0.1132595489 0.1137000024 0.0024043376
0.0668930528 0.1137000024 -0.1000391869
0.0811251862 0.1137000024 -0.0627447321
0.1005976885 0.1137000024 -0.1193468718
0.1161366899 -0.0247328831 -0.1280000061
0.1195846784 0.1081557732 -0.1280000061
0.1075877029 0.0871494926 -0.1280000061
0.0813368769 0.0751316736 -0.1280000061
0.0825271123 0.0778719577 -0.1280000061
0.1181728222 0.1070089805 -0.1280000061
0.0740171520 0.0622744819 -0.1280000061
0.0880214147 0.0350932608 -0.1280000061
0.0869601256 0.0531248491 -0.1280000061
0.1034653307 0.0031772616 -0.1280000061
0.0972468014 0.1017424012 -0.1280000061
0.0953283851 0.1090881490 -0.1280000061
0.0812833665 0.0544771117 -0.1280000061
0.0571944344 0.0926994918 -0.1280000061
0.0647570815 0.0857249914 -0.1280000061
0.0684840718 -0.0129881515 -0.1280000061
0.0735942273 -0.0085858546 -0.1280000061
0.0591420264 -0.0146175350 -0.1280000061
0.0490843005 -0.0195261767 -0.1280000061
0.0486619606 0.0943605488 -0.1280000061
0.0941860988 -0.0232944760 -0.1280000061
0.0518971653 0.0829902411 -0.1280000061
0.0639875433 0.0188175716 -0.1280000061
0.0577456276 0.0147126393 -0.1280000061
0.0657863563 0.0077100810 -0.1280000061
0.0690878526 -0.0035874581 -0.1280000061
0.1195336164 -0.0025814061 0.0570000000
0.0804215076 0.1033351218 0.0570000000
0.0899600188 0.0842231538 0.0570000000
0.0513232799 0.0446928850 0.0570000000
0.0649265748 0.0358360233 0.0570000000
0.0859070859 0.0968730060 0.0570000000
0.0536372212 0.1063992147 0.0570000000
0.0807258029 0.0442832276 0.0570000000
0.0559746356 0.0786236022 0.0570000000
0.0483872716 0.0633250606 0.0570000000
0.0668275964 0.0150124650 0.0570000000
0.0742107956 0.0941604881 0.0570000000
0.0916072368 0.0977833292 0.0570000000
0.0508091889 -0.0179731253 0.0570000000
0.1127829611 0.0577759224 0.0570000000
0.0859527982 0.0463842136 0.0570000000
0.0544635244 -0.0190797313 0.0570000000
0.0925472639 -0.0265201676 0.0570000000
0.0742651606 0.0217217635 0.0570000000
0.0862175265 -0.0073289747 0.0570000000
0.1050019269 0.0562611948 0.0570000000
0.1063533841 -0.0027353438 0.0570000000
0.0902018912 0.0160281597 0.0570000000
0.0629084347 -0.0226637710 0.0570000000
0.1103275298 0.0388990772 0.0570000000
0.1157320730 0.0250286864 0.0570000000
0.1170808511 0.0465191659 0.0570000000
0.0983405327 0.1134766486 0.0548335714
0.0795647693 0.1129205772 -0.1268774992
0.0899294950 -0.0332407345 0.0624176971
0.0771192450 -0.0327846664 -0.1325957877
0.0938258118 -0.0305124922 0.0573330413
0.0605634826 -0.0317071811 -0.1293537901
0.1268615367 -0.0472999960 -0.0700908138
0.0646403600 -0.0434355069 -0.1340000033
0.0723937865 -0.0451024995 0.0629999936
0.1003684559 0.0986889664 -0.1255000085
0.0726346206 0.0989133291 -0.1255000085
0.1024267540 0.0979617216 -0.1255000085
0.0847927730 0.0902236459 -0.1255000085
0.0726856440 0.0954662038 -0.1255000085
0.0913857640 0.0855684704 -0.1255000085
0.0808984446 0.0650588323 -0.1255000085
0.1042176706 0.0718909087 -0.1255000085
0.0946501204 0.0785017750 -0.1255000085
0.0895348905 0.0367955865 -0.1255000085
0.0864984444 0.0277062123 -0.1255000085
0.1044652933 0.0486214526 -0.1255000085
0.1179996620 0.0136075548 -0.1255000085
0.1073031698 0.0533730536 -0.1255000085
0.1140904232 -0.0240068003 -0.1255000085
0.1088019285 0.0510063158 -0.1255000085
0.1082917373 0.0348299717 -0.1255000085
0.1181341229 0.0612775056 -0.1255000085
0.0937228260 -0.0091659056 -0.1255000085
0.0756044367 0.0163249914 -0.1255000085
0.0824617137 -0.0013234221 -0.1255000085
0.0439572886 0.0199899725 -0.1255000085
0.0894589050 -0.0211976427 -0.1255000085
0.0862889630 -0.0066669412 -0.1255000085
0.0723105981 -0.0137584554 -0.1255000085
0.0404049668 -0.0227159736 -0.1255000085
0.0512148904 0.0121960320 -0.1255000085
0.0525276297 0.0419501709 0.0545000024
0.0526399138 0.0844949630 0.0545000024
0.0561781611 0.0453135259 0.0545000024
0.0684110028 0.0317897308 0.0545000024
0.0817040372 0.0407270921 0.0545000024
0.0561113348 0.0814859148 0.0545000024
0.0818864447 0.0919837748 0.0545000024
0.1176805590 0.0108687387 0.0545000024
0.1055149670 0.0870988896 0.0545000024
0.1074287421 0.0950874835 0.0545000024
0.1159771391 0.0566639382 0.0545000024
0.0805810377 0.0661395362 0.0545000024
0.1005972874 0.0706854991 0.0545000024
0.0829956218 0.0491366920 0.0545000024
0.0941759091 0.0648161620 0.0545000024
0.0606845004 0.0934691900 0.0545000024
0.0690611769 0.0850452535 0.0545000024
0.0800462882 0.0859653669 0.0545000024
0.0830430388 0.0992723845 0.0545000024
0.0645982381 -0.0206724477 0.0545000024
0.0818985514 -0.0022454998 0.0545000024
0.0449204768 -0.0075077103 0.0545000024
0.0604003093 -0.0061324985 0.0545000024
0.0444803488 -0.0237418812 0.0545000024
0.0600251409 -0.0002870242 0.0545000024
0.0755204056 -0.0274354667 0.0545000024
0.1020064533 -0.0165469823 0.0545000024
0.1081031443 -0.0306440507 -0.1258536434
0.1269000024 -0.0063695409 0.0215528539
0.1269000024 0.0593025597 0.0405355600
0.1269000024 -0.0204160350 0.0426903560
0.1269000024 0.0472425986 0.0248073808
0.1269000024 0.0444191451 0.0251437624
0.1269000024 0.0054025854 0.0287214568
0.1269000024 0.0217915370 0.0125101500
0.1269000024 0.0012067418 0.0319455337
0.1269000024 0.0487616891 0.0154359695
0.1269000024 0.0528182244 0.0083408285
0.1269000024 0.0800068537 0.0141673740
0.1269000024 0.0924448216 -0.0815953283
0.1269000024 0.0899411915 -0.0700421268
0.1269000024 0.1051333236 -0.1035223446
0.1269000024 0.0933741477 -0.0641735415
0.1269000024 0.0975109625 0.0204956591
0.1269000024 0.0952273897 -0.0247799506
0.1269000024 0.0998328642 -0.0887932083
0.1269000024 0.1029144391 0.0028439621
0.1269000024 0.1031983896 -0.0831684091
0.1269000024 0.0831379689 0.0085690907
0.1269000024 0.0705180506 -0.0497436247
0.1269000024 0.0723541140 -0.0580553414
0.1269000024 0.0882854019 -0.0952998986
0.1269000024 -0.0247271652 -0.0932189561
0.1269000024 -0.0156444380 -0.0739986530
0.1269000024 -0.0227293289 -0.0787698825
0.1269000024 -0.0172101660 -0.0513573015
0.1269000024 -0.0437768797 -0.0984659937
0.1269000024 -0.0457880493 0.0034613308
0.1269000024 -0.0331331124 -0.0788841215
0.1269000024 -0.0360442159 -0.0221744071
0.1269000024 -0.0463595316 -0.0160119331
0.1269000024 -0.0468490489 -0.0702578312
0.1269000024 -0.0411066045 0.0315313662
0.1269000024 0.0752165647 -0.0923589702
0.1269000024 0.0852435734 -0.1028419683
0.1269000024 0.0144059966 -0.1107905786
0.1269000024 0.0216328724 -0.0968551248
0.1269000024 -0.0170190927 -0.1025841719
0.1269000024 0.0453466106 -0.0831384214
0.1269000024 -0.0094188344 -0.1138741133
0.1269000024 0.0633238982 -0.1014825465
0.1269000024 -0.0308533010 -0.1135837649
0.1269000024 0.0002626560 -0.0928584644
0.1269000024 -0.0119624600 -0.0062836389
0.1269000024 -0.0163081811 0.0101423198
0.1269000024 -0.0093662536 0.0067497977
0.1237854783 -0.0423000008 -0.0237901993
0.1094200427 -0.0423000008 -0.1325338986
0.1236436150 -0.0230961386 -0.1263956352
0.1247353255 -0.0253279770 -0.1241627327
0.1266684210 0.0576301580 -0.1175049700
0.1264066210 0.0740073888 -0.1195749612
0.1260794956 0.0204680277 -0.1211127149
0.1191384182 -0.0452472772 0.0602680639
0.1243763179 0.0426861442 0.0540273821
0.1257830744 -0.0069851939 0.0509635519
0.1263682071 0.0778738091 0.0488480845
0.1268036811 -0.0080332853 0.0453339200
0.1224524797 0.1135901062 -0.0365328974
0.1240139168 0.1132205204 0.0244675685
0.1259807870 0.1115249575 -0.0592729840
0.1267827602 0.1092894121 -0.0029567815
0.1227310162 0.0415527068 0.0564408466
0.1230225142 -0.0055885862 -0.1271671193
0.1096251957 -0.0348188553 -0.1346702032
0.0453591909 -0.0331681876 0.0564039972
0.0511405892 -0.0338865165 -0.1281354965
0.0550662544 -0.0303727805 -0.1257971712
0.0824922719 -0.0381504391 0.0604999997
0.0466274703 -0.0382951253 -0.1315000057
0.1198659198 0.0717299524 -0.1248356851
0.1205487961 0.0246785692 -0.1235398866
0.1220613782 0.0591156871 -0.1203725301
0.1217134112 -0.0388998192 -0.1215003349
0.1228839257 0.1002186704 -0.1156632228
0.1229000017 -0.0236566571 0.0243506138
0.1229000017 -0.0152114650 -0.0018243928
0.1229000017 0.0631851841 0.0209685985
0.1229000017 0.0463889100 0.0347738582
0.1229000017 0.0439326751 0.0366199509
0.1229000017 0.0860295988 0.0420657440
0.1229000017 0.0516963234 0.0442255008
0.1229000017 0.0433823530 0.0207852494
0.1229000017 0.0907526459 0.0402057504
0.1229000017 0.0079905395 0.0170965959
0.1229000017 -0.0120238501 -0.0977150012
0.1229000017 0.0135454082 -0.0993297414
0.1229000017 -0.0219450651 -0.1128759040
0.1229000017 0.0085936678 -0.0944764527
0.1229000017 0.0377866596 -0.1002700865
0.1229000017 0.0326788950 -0.1043358442
0.1229000017 0.0512592790 -0.1032313046
0.1229000017 0.0614776964 -0.0972519172
0.1229000017 0.0733710322 -0.0101474822
0.1229000017 0.0744355679 0.0077412242
0.1229000017 0.0605778717 0.0155836416
0.1229000017 -0.0278737152 0.0078972779
0.1229000017 -0.0328403426 -0.0461971714
0.1229000017 -0.0305252353 -0.0415383848
0.1229000017 -0.0359199309 -0.0168029348
0.1229000017 -0.0366317506 -0.0363336197
0.1229000017 -0.0275083178 -0.0785151101
0.1229000017 -0.0352236027 -0.1002695150
0.1229000017 -0.0191522724 -0.0907864211
0.1229000017 0.0910996650 -0.1021037459
0.1229000017 0.0765752149 -0.0792265291
0.1229000017 0.0985882744 -0.0979450397
0.1229000017 0.0991731070 -0.0954618264
0.1229000017 0.0942618860 -0.0056153057
0.1229000017 0.1049066713 0.0268642247
0.1229000017 0.0803091810 -0.0399597365
0.1229000017 0.0868012651 -0.0177976539
0.1229000017 0.0966081222 -0.0229914426
0.1229000017 0.1000648470 -0.0165698467
0.1229000017 0.0978600315 -0.0064906143
0.1229000017 0.0854844560 -0.0104117150
0.1229000017 0.0936334037 0.0157305757
0.1215842128 -0.0309737682 0.0508113250
0.1227543078 0.1093299039 0.0459792294
0.1217999966 -0.0286761880 0.0501701357
0.1216936603 0.0301351217 0.0505847289
0.1254000068 -0.0462459846 -0.0225678631
0.1254000068 -0.0435597578 -0.0424166827
0.1148180882 -0.0469310621 0.0609729380
0.0402495774 0.0324096111 0.0554999970
0.0446922533 0.0169266633 -0.1264999956
0.0449000001 0.0185149207 0.0568444893
0.0449000001 0.0853296776 -0.0817714818
0.0449000001 0.1093663032 0.0316771115
0.0449000001 0.0994763274 -0.0352611472
0.0449000001 0.1041455268 -0.1058435495
0.0449000001 0.0956419076 -0.0609594983
0.0449000001 0.1034372608 0.0127944203
0.0449000001 0.1088141970 -0.1202037751
0.0449000001 0.0961683221 -0.0613715732
0.0449000001 0.0747041682 -0.0885309782
0.0449000001 0.1083684150 0.0102839802
0.0449000001 0.1009687241 -0.0739587589
0.0449000001 0.0929883440 -0.0016184220
0.0449000001 0.1096511151 -0.0810310598
0.0449000001 0.0766797406 -0.0952066556
0.0449000001 0.0681053187 0.0510876297
0.0449000001 0.0909210057 0.0509796117
0.0449000001 0.0537529443 -0.1199581144
0.0449000001 0.0540563426 -0.1215159949
0.0449000001 0.0147149913 -0.1275109540
0.0449000001 0.0832121285 0.0188560936
0.0449000001 0.0816582170 0.0390898577
0.0449000001 0.0734292219 0.0308305347
0.0449000001 0.0697106198 -0.0093193386
0.0449000001 0.0970710907 0.0178443479
0.0449000001 0.0977052148 0.0312787433
0.0449000001 0.1046233362 0.0360613802
0.0449000001 0.0706485661 -0.0488887260
0.0449000001 0.0558944491 0.0057919850
0.0449000001 0.0662462585 -0.0135685903
0.0449000001 0.1004576950 -0.1205864722
0.1255000085 0.0512521445 -0.0741359725
0.1255000085 0.0037914471 -0.0791424453
0.1255000085 -0.0188678854 -0.0226543779
0.1255000085 0.0249423658 0.0137804864
0.1255000085 0.0707025348 -0.0250459345
0.1238152337 -0.0097054263 -0.0019880358
0.1241424278 0.0696811741 -0.0620652171
0.0449359079 0.0504000038 -0.0020192114
0.0474000014 0.0536957458 0.0447245106
0.0474000014 0.0827433336 0.0517394805
0.0474000014 0.1043959061 -0.0280101253
0.0474000014 0.1081396188 -0.0948396877
0.0474000014 0.0996763777 -0.0042222809
0.0474000014 0.0707758562 -0.0046000561
0.0474000014 0.0987332428 0.0234202117
0.0474000014 0.0981038778 -0.0798710659
0.0474000014 0.1087945836 0.0261288255
0.0474000014 0.0989086877 -0.0316675022
0.0474000014 0.0905518985 -0.0386653022
0.0474000014 0.0945192414 -0.0483775952
0.0474000014 0.0706662417 0.0205264962
0.0474000014 0.0869222055 -0.0333378498
0.0474000014 0.0873355230 -0.0580742805
0.0474000014 0.0633272500 -0.1248630958
0.0474000014 0.0847532586 -0.1244827387
0.0474000014 0.0525001303 -0.0236969231
0.0474000014 0.0601733106 -0.0515714472
0.0474000014 0.0574604763 -0.0176800584
0.0474000014 0.0778279404 -0.0437440391
0.0474000014 0.0648365468 -0.0396700730
0.0474000014 0.0810044136 -0.1061453141
0.0474000014 0.0908018612 -0.0864113573
0.0474000014 0.0662572667 -0.0257357474
0.0474000014 0.0645056271 -0.0169515000
0.0474000014 0.0786030252 -0.0807254353
0.0477659072 0.0505593416 0.0289053381
0.0098795993 0.0271479806 0.0037118282
-0.0268148128 -0.0107817962 0.0037181571
-0.0179736018 -0.0004489350 0.0038477038
-0.0009937333 -0.0274422104 0.0044999998
-0.0157670984 -0.0097141311 0.0044999998
-0.0150073861 0.0241721239 0.0044999998
0.0166742475 -0.0237086357 0.0044999998
0.0228527878 0.0172076028 0.0044999998
-0.0104169404 -0.0200387532 0.0044999998
0.0269699668 0.0074044116 -0.0015000000
-0.0004925100 -0.0343386442 -0.0015000000
0.0184671259 -0.0423996993 -0.0015000000
-0.0199855306 0.0165076365 -0.0015000000
-0.0203723950 0.0039842763 -0.0000000000
0.0181007655 0.0046560521 -0.0000000000
-0.0060056623 -0.0171262353 0.0000284146
-0.0228816924 -0.0009405498 0.0037413520
-0.0236178718 -0.0168487942 0.0023000107
0.0233991126 -0.0101832891 -0.0005106599
