0.0110297689 -0.0320203598 0.0310999993
-0.0132392679 -0.0287949858 0.0310999993
0.0095471865 -0.0293413578 0.0310999993
0.0167825902 -0.0303181302 0.0310999993
-0.0260000024 -0.0282272550 0.0188598596
-0.0260000024 -0.0306254127 0.0162388227
-0.0260000024 -0.0299930978 0.0016136677
0.0102137287 -0.0274999999 0.0213629211
-0.0027012343 -0.0274999999 0.0228790042
0.0115294495 -0.0274999999 0.0226863070
-0.0000270073 -0.0274999999 0.0219354013
0.0009374410 -0.0274999999 0.0100383819
0.0011742377 -0.0274999999 0.0121320034
0.0045859833 -0.0274999999 0.0091081260
-0.0175230773 -0.0274999999 0.0090122453
-0.0085045136 -0.0274999999 0.0080305621
-0.0225391968 -0.0274999999 0.0129412412
-0.0213131795 -0.0274999999 0.0143300203
-0.0159771711 -0.0274999999 0.0110176982
-0.0024888330 -0.0274999999 0.0149837919
0.0314360573 -0.0274999999 0.0134052670
0.0313492004 -0.0274999999 0.0088591052
-0.0065542012 -0.0274999999 0.0186648482
0.0250167740 -0.0274999999 0.0124551275
0.0024402068 -0.0274999999 0.0171997396
0.0262257184 -0.0274999999 0.0083755781
0.0387227367 -0.0274999999 0.0098287937
0.0396825867 -0.0274999999 0.0280454429
0.0370887964 -0.0274999999 0.0199764321
0.0458838405 -0.0274999999 0.0386761190
0.0710672663 -0.0274999999 0.0502332499
0.0979601393 -0.0274999999 0.0409541660
0.1099832015 -0.0274999999 0.0170978446
0.1011589977 -0.0274999999 -0.0087268427
0.0744916364 -0.0274999999 -0.0225346791
0.0515281906 -0.0274999999 -0.0139510434
0.0399942482 -0.0274999999 0.0002502223
0.0176978790 -0.0290655109 0.0285544478
-0.0191141651 -0.0310359349 0.0296126412
-0.0173295485 -0.0312738587 0.0268031343
0.0211847179 -0.0288068906 -0.0003325555
-0.0224561632 -0.0303625660 0.0010033908
0.0973848895 -0.0309134250 0.0280048208
0.0730361043 -0.0319149144 0.0415268042
0.0556640497 -0.0314234162 0.0344006759
0.0511886423 -0.0319695010 0.0002611914
0.0678533070 -0.0317448006 -0.0115709642
0.0895863305 -0.0309709617 -0.0074104834
0.0320141929 -0.0320094531 -0.0018999999
0.0290126976 -0.0309324732 -0.0018999999
-0.0038768837 -0.0293943940 -0.0018999999
0.0103860613 -0.0297175236 -0.0018999999
-0.0109222632 -0.0319781748 -0.0018999999
0.0470267581 -0.0307910252 -0.0114597659
0.0528932827 -0.0309895069 -0.0163628353
0.0642631754 -0.0291488888 -0.0214450659
0.0691779816 -0.0321029094 -0.0224250740
0.0843651054 -0.0292913388 -0.0212544796
0.0915909349 -0.0307837447 -0.0183135031
0.1032264013 -0.0275872200 -0.0086170117
0.1079946852 -0.0306043504 -0.0009681855
0.1109160604 -0.0300993066 0.0086711463
0.1109331838 -0.0304345380 0.0203549973
0.1069440358 -0.0290716902 0.0321338097
0.1024155069 -0.0298167597 0.0388697218
0.0899044019 -0.0281722698 0.0484149755
0.0860944267 -0.0310445154 0.0499298964
0.0715978967 -0.0295249084 0.0518634158
0.0653941411 -0.0324715412 0.0509881413
0.0559761786 -0.0302939681 0.0472821210
0.0464946110 -0.0306207447 0.0401276204
0.0302664235 -0.0324999988 0.0286530304
0.0433784540 -0.0324999988 0.0346666187
0.0445420937 -0.0324999988 0.0302961065
0.0360907699 -0.0324999988 0.0226975055
0.0475670689 -0.0324999988 0.0350473015
0.0823008266 -0.0324999988 0.0431397818
0.0817329772 -0.0324999988 0.0508164533
0.0616798674 -0.0324999988 0.0459132503
0.0676207003 -0.0324999988 0.0511820577
0.0899901221 -0.0324999988 0.0389449355
0.0869219998 -0.0324999988 0.0429907009
0.1050769955 -0.0324999988 0.0351088245
0.1026003845 -0.0324999988 0.0212974802
0.1083288059 -0.0324999988 0.0019904666
0.1058454708 -0.0324999988 0.0045082065
0.0914820898 -0.0324999988 -0.0093989196
0.0955824527 -0.0324999988 -0.0150309186
0.0797845238 -0.0324999988 -0.0206588639
0.0583104794 -0.0324999988 -0.0182770894
0.0417891156 -0.0324999988 -0.0056644118
0.0403210394 -0.0324999988 -0.0041446021
0.0420089788 -0.0324999988 0.0011946740
0.0343353313 -0.0324999988 0.0069085982
0.0303176396 -0.0324999988 0.0022478853
0.0266480577 -0.0324999988 0.0004361562
0.0091820622 -0.0324999988 0.0021366170
0.0056512624 -0.0324999988 -0.0003999430
0.0171382593 -0.0324999988 0.0045230390
0.0282395342 -0.0324999988 0.0067235962
-0.0019391221 -0.0324999988 0.0075146484
-0.0063348105 -0.0324999988 0.0020610945
-0.0041722743 -0.0324999988 0.0000886763
-0.0251361670 -0.0324999988 0.0050786330
-0.0098356620 -0.0324999988 0.0222268690
-0.0124302365 -0.0324999988 0.0296120781
-0.0141694609 -0.0324999988 0.0265764956
-0.0088599995 -0.0324999988 0.0231631031
0.0250417810 -0.0324999988 0.0292919081
0.0184759673 -0.0324999988 0.0223707603
0.0000901987 -0.0324999988 0.0216679751
0.0112791510 -0.0324999988 0.0283880974
0.0233063205 -0.0324999988 0.0293869543
0.0466582886 -0.0324999988 0.0273082124
0.0492659596 -0.0324999988 0.0023651271
0.0986914160 -0.0324999988 -0.0029078726
0.0678895336 -0.0324999988 -0.0128775912
0.0823990917 -0.0324999988 -0.0194891226
0.1060468404 -0.0324999988 0.0279287293
0.0403938696 -0.0324999988 0.0078014156
0.0429690766 -0.0324999988 0.0208591621
0.0340395508 -0.0324999988 0.0159848117
0.0184754630 -0.0324999988 0.0193675824
0.0245484282 -0.0324999988 0.0204553228
0.0286925584 -0.0324999988 0.0132814259
0.0294428517 -0.0324999988 0.0195140346
0.0041018857 -0.0324999988 0.0185938328
0.0161306019 -0.0324999988 0.0092178192
0.0043708062 -0.0324999988 0.0190450365
0.0164019918 -0.0324999988 0.0121569869
-0.0012645272 -0.0324999988 0.0191375900
-0.0001678892 -0.0324999988 0.0180481353
-0.0218986603 -0.0324999988 0.0203985652
-0.0204444337 -0.0324999988 0.0172189700
-0.0174480316 -0.0324999988 0.0117945372
-0.0216312466 -0.0324999988 0.0124816498
-0.0247206660 -0.0324999988 0.0141410698
0.1014944878 -0.0324999988 -0.0065657702
0.0457989608 -0.0295000002 -0.0006966721
0.0886609484 -0.0295000002 0.0432692737
0.0861376362 -0.0295000002 -0.0135195042
0.0877710210 -0.0295000002 -0.0169063106
0.0666085808 -0.0295000002 -0.0142543844
0.0948821894 -0.0295000002 -0.0101378527
0.1000144124 -0.0295000002 0.0026956049
0.1038406129 -0.0295000002 0.0196875352
0.1073161835 -0.0295000002 0.0083141416
0.1039950512 -0.0295000002 0.0295863166
0.0918001736 -0.0295000002 0.0409145412
0.0989188697 -0.0295000002 0.0302535444
0.0819031608 -0.0295000002 0.0418848605
0.0823588759 -0.0295000002 0.0467984323
0.0509084267 -0.0295000002 0.0334280646
0.0625532631 -0.0295000002 0.0438348498
0.0556999154 -0.0295000002 0.0438088997
0.0725664901 -0.0295000002 0.0420550638
0.0438432189 -0.0295000002 0.0034875161
0.0430554943 -0.0295000002 0.0221097898
0.0444216972 -0.0295000002 0.0104698707
0.0527891559 -0.0295000002 -0.0044579417
0.0570059181 -0.0295000002 -0.0095324255
0.0546465371 -0.0295000002 -0.0111757847
0.1013438232 -0.0295000002 0.0284376809
0.0867017754 -0.0295000002 -0.0101302460
0.1059656340 -0.0293290276 0.0005394899
0.0823651399 -0.0285219461 -0.0194458023
0.0995076772 -0.0289668780 0.0385828624
0.0643728716 -0.0284399524 0.0481787824
0.0416818545 -0.0285892481 0.0282419631
0.0455973847 -0.0280159389 -0.0059246606
0.1028034630 -0.0322579963 0.0333463567
0.0522116513 -0.0321369790 0.0305658397
0.0865535228 -0.0321858311 -0.0093314545
0.0471682238 -0.0297403258 0.0101832422
0.1011470528 -0.0297658816 0.0138209352
0.0468320372 -0.0295745779 0.0170372574
0.0918822978 -0.0276270291 0.0450389990
0.0837434178 -0.0278103763 -0.0192305000
0.1075327936 -0.0301976022 0.0161407628
0.1068254378 -0.0312360182 0.0117851566
0.0941296624 -0.0307605296 -0.0082617105
0.0740584196 -0.0310726737 -0.0145429789
0.0511132179 -0.0295546257 -0.0058469132
0.0534399176 -0.0321904961 -0.0114112036
0.0386941358 -0.0317884872 0.0135452385
0.0507588197 -0.0308930837 0.0397560453
0.0720151692 -0.0295419828 0.0475896238
0.0761384357 -0.0322453162 0.0432124292
0.0940291470 -0.0313231764 0.0355593478
0.0156698554 -0.0285000000 -0.0018589551
-0.0061361054 -0.0285000000 -0.0003748315
-0.0242312876 -0.0285000000 0.0056607882
0.0073016478 -0.0285000000 0.0060962423
-0.0143190527 -0.0285000000 0.0053725486
-0.0104705584 -0.0285000000 0.0006843757
-0.0163381159 -0.0285000000 0.0013645693
-0.0123594070 -0.0285000000 0.0031726591
-0.0014734797 -0.0279877023 0.0060999994
-0.0239708173 -0.0285000000 0.0278641238
0.0180804464 -0.0285000000 0.0240531508
0.0248054446 -0.0285000000 0.0238135557
0.0197679602 -0.0285000000 0.0302204547
-0.0103897117 -0.0285000000 0.0305919422
0.0101960157 -0.0285000000 0.0247886561
-0.0145218432 -0.0285000000 0.0264982620
-0.0075290587 -0.0285000000 0.0281301186
-0.0102703208 -0.0275239581 0.0230999999
0.0338832051 -0.0282616769 0.0276641100
0.0567105198 -0.0269605164 0.0037879664
0.0986875071 0.0324999951 0.0383956048
0.0808076767 -0.0261549496 0.0348933960
0.0550482388 0.0354787332 -0.0112513430
0.0536624481 0.0359678443 -0.0084714995
0.0957904114 0.0260499995 0.0346251913
0.0935317373 0.0296765857 0.0356974195
0.0930354776 0.0296496414 0.0324044213
0.0953755650 0.0313483880 0.0303626320
0.0921739236 0.0258999970 0.0345250315
0.0730392784 0.0258999970 0.0396845426
0.0843910215 0.0258999970 0.0345058215
0.0851638740 0.0242999997 -0.0183170571
0.0507738279 -0.0140000004 0.0401059817
0.1083971294 -0.0140000004 0.0128918763
0.0763757278 -0.0162745674 -0.0199171024
0.0854872095 -0.0162995967 0.0472262661
0.1087054414 -0.0148222039 0.0190075519
0.0976882696 -0.0151644043 -0.0110857264
0.0643282102 -0.0153696980 -0.0189893165
0.0408799511 -0.0153930531 0.0033725418
0.0454410134 -0.0149397609 0.0348235616
0.0743420089 -0.0149830740 0.0495497639
0.0464265630 -0.0141549382 -0.0063726852
0.0925381970 -0.0140432265 0.0436514903
0.0940084665 -0.0140248262 -0.0134252302
0.0896734273 0.0015809457 -0.0165766671
0.0920797779 -0.0042421426 -0.0152374959
0.0905032194 -0.0040657751 -0.0160927057
0.0925796872 0.0237431173 -0.0150027455
0.0940543221 0.0007755269 -0.0140728230
0.0980501811 -0.0046249108 -0.0106688183
0.0976788442 -0.0041716158 -0.0109932534
0.0971764222 -0.0062130695 -0.0114134127
0.0985758596 0.0219434797 -0.0102520985
0.0997980930 0.0235312010 -0.0090328426
0.0999561291 -0.0086791110 -0.0088433524
0.1007702810 -0.0030598676 -0.0078033859
0.1013176046 -0.0065305043 -0.0070386663
0.1025893607 0.0135041050 -0.0055135006
0.1041198222 0.0233381736 -0.0032208566
0.1062320871 0.0220924148 0.0014324314
0.1056209698 0.0061857229 0.0000796534
0.1044689262 -0.0077625598 -0.0024705269
0.1059401138 -0.0132771115 0.0007861151
0.1054307488 -0.0124507972 -0.0003414226
0.1080642128 0.0079995294 0.0075066037
0.1078376026 0.0134173339 0.0064310035
0.1077816729 0.0098208493 0.0061655343
0.1087837825 -0.0100116805 0.0109220256
0.1085511613 -0.0026236213 0.0098178939
0.1084226652 0.0066279395 0.0092079901
0.1088843977 -0.0118808041 0.0122739305
0.1088462654 0.0165214423 0.0136416323
0.1088818619 0.0119825262 0.0123716774
0.1088527501 0.0146115378 0.0140493445
0.1088293373 0.0089836424 0.0175053526
0.1077582403 0.0109834521 0.0230579358
0.1086079207 -0.0104665087 0.0193570480
0.1086193534 0.0178349663 0.0193072512
0.1078476526 -0.0044969831 0.0226684895
0.1073181498 0.0059180958 0.0249748039
0.1063635456 0.0042512244 0.0275567099
0.1044024504 0.0237615953 0.0316971831
0.1049981395 0.0226319158 0.0304395009
0.1049151903 -0.0059936002 0.0306146321
0.1044566848 0.0159475413 0.0315826779
0.1039591840 0.0028040500 0.0326330544
0.1020585764 0.0241299850 0.0351961678
0.1019072671 0.0203990574 0.0353915308
0.0996121506 0.0020507336 0.0383548686
0.0994608475 -0.0096746656 0.0385502236
0.1011707608 -0.0009300810 0.0363424703
0.0965250986 0.0142654867 0.0411216381
0.0972510642 0.0095896930 0.0405161796
0.0978160470 -0.0006817647 0.0400449814
0.0960774150 0.0056405014 0.0414950081
0.0972113997 -0.0023388700 0.0405492599
0.0924477800 0.0075465299 0.0442283130
0.0888114945 0.0147322279 0.0461143523
0.0903199071 0.0151710988 0.0453319810
0.0901016934 -0.0061682687 0.0454451623
0.0908136253 -0.0042816765 0.0450759032
0.0880659772 0.0053470695 0.0465010311
0.0805314902 0.0225558197 0.0488721811
0.0841679089 0.0112360548 0.0478977604
0.0857326211 0.0123872261 0.0474784776
0.0818409508 0.0065172658 0.0485212959
0.0804787565 0.0014499633 0.0488863117
0.0793374864 0.0076848807 0.0491891724
0.0755580262 0.0156002987 0.0493599311
0.0788223141 -0.0112409061 0.0492124482
0.0731905159 0.0080581813 0.0494668970
0.0759664651 -0.0127262474 0.0493414776
0.0751462671 -0.0012892784 0.0493785347
0.0665055333 0.0164734690 0.0486148020
0.0672373469 0.0111909889 0.0487415620
0.0660519950 0.0027456479 0.0485362430
0.0660486059 0.0050343393 0.0485356559
0.0657455022 -0.0032060231 0.0484831542
0.0617752091 0.0207184493 0.0471925905
0.0629959771 -0.0065768074 0.0476917882
0.0599357478 0.0116393490 0.0464403961
0.0585900679 0.0090239697 0.0458901194
0.0590716022 -0.0127611810 0.0460870289
0.0567566442 -0.0010976224 0.0449791955
0.0559628106 -0.0030286884 0.0444304514
0.0572017467 -0.0083595243 0.0452868762
0.0541492657 -0.0114792984 0.0431768234
0.0546905871 -0.0048062716 0.0435510164
0.0537777602 -0.0049022478 0.0429200172
0.0464087722 0.0230634006 0.0360255020
0.0503976347 -0.0052236858 0.0403132650
0.0462337826 -0.0060765672 0.0358373998
0.0487309832 -0.0098603192 0.0385217251
0.0488604497 -0.0123140082 0.0386608930
0.0459141451 -0.0103804448 0.0354734414
0.0447903480 0.0161375685 0.0335669745
0.0447706372 -0.0020984405 0.0335335361
0.0423078178 0.0124334328 0.0293554832
0.0433031888 -0.0002935363 0.0310440815
0.0404816796 0.0133084741 0.0240478992
0.0420741807 -0.0018909896 0.0289189654
0.0413541024 0.0126372700 0.0267164243
0.0409629366 0.0034833610 0.0255199451
0.0412760200 -0.0120692963 0.0264775898
0.0406168574 0.0009782138 0.0244613748
0.0397101522 -0.0083225972 0.0213971371
0.0393701316 0.0171529308 0.0179847480
0.0392698813 0.0226159057 0.0169786534
0.0393246407 0.0009088136 0.0175282092
0.0390668140 -0.0061615004 0.0149407053
0.0393368506 0.0063081378 0.0114391587
0.0392668037 0.0147014299 0.0120333411
0.0390564502 0.0139054366 0.0138176926
0.0397243675 0.0163225689 0.0081519949
0.0398370143 -0.0025188751 0.0071964532
0.0398379661 0.0221151532 0.0071883796
0.0421893507 0.0230782538 0.0001347815
0.0420840420 0.0201776676 0.0004382570
0.0413662815 -0.0105380465 0.0025066776
0.0420656478 -0.0046033447 0.0004912647
0.0418621768 0.0071125330 0.0010776214
0.0431656770 0.0140736392 -0.0016799421
0.0423778518 -0.0104296846 -0.0003968950
0.0431414804 0.0005482585 -0.0016405357
0.0442373230 -0.0026051127 -0.0034252178
0.0432982948 -0.0132015828 -0.0018959226
0.0507637101 0.0220295305 -0.0114295298
0.0484877396 0.0080745889 -0.0090697971
0.0473645577 0.0110255670 -0.0079052789
0.0477229993 -0.0081242524 -0.0082769122
0.0496029168 0.0060386838 -0.0102260160
0.0494380977 0.0064980404 -0.0100551311
0.0555097326 0.0217464903 -0.0148899606
0.0541229530 0.0028135675 -0.0139678402
0.0563812328 0.0018662111 -0.0154694528
0.0566339580 0.0088986228 -0.0156374990
0.0562613593 0.0106816329 -0.0153897445
0.0595093134 0.0031503620 -0.0170996829
0.0597618655 -0.0020412349 -0.0171976800
0.0589194466 0.0100877411 -0.0168707987
0.0632837773 -0.0065811206 -0.0185642770
0.0633913207 -0.0014172988 -0.0186060068
0.0670581666 0.0017961214 -0.0195348269
0.0694397115 0.0238531475 -0.0199032446
0.0683812683 0.0079475688 -0.0197395067
0.0717810261 0.0064806827 -0.0202654387
0.0697627012 -0.0124350056 -0.0199532101
0.0712969969 0.0174770112 -0.0201905609
0.0726525154 0.0109963165 -0.0203622375
0.0783105516 0.0020939072 -0.0200780715
0.0765611658 0.0055287382 -0.0202071831
0.0772755604 -0.0006002499 -0.0201290887
0.0795224923 -0.0060425945 -0.0199396482
0.0820763298 0.0103530941 -0.0194036974
0.0806194452 -0.0042291847 -0.0197381814
0.0826764542 -0.0055102409 -0.0191570187
0.0855712044 -0.0054664082 -0.0183253582
0.0856749174 0.0185308867 -0.0183417503
0.0859945806 0.0028703916 -0.0182308243
0.0883447095 0.0140262914 -0.0172763588
0.0611715540 0.0260195476 -0.0106671916
0.0659125925 0.0266291376 -0.0124679501
0.0691848088 0.0258999970 -0.0079824799
0.0512769076 0.0354225202 0.0357566716
0.0481452003 0.0340505002 0.0335544665
0.0983290252 0.0346652443 -0.0054273696
0.0991807196 0.0351468593 -0.0038567413
0.0706075004 0.0258999970 -0.0066622955
0.0635799621 0.0296412435 -0.0114204956
0.0662406417 0.0364745132 -0.0058594920
0.0696305550 0.0357424395 -0.0077219346
0.0669172534 0.0285266521 -0.0141937104
0.0634125844 0.0297228755 -0.0142663612
0.0644970764 0.0322653227 -0.0079398163
0.0625697224 0.0313254981 -0.0125369409
0.0634832616 0.0365999974 -0.0110770084
0.0629479727 0.0358723123 -0.0146137380
0.0695044018 0.0268828754 -0.0093160178
0.0674111112 0.0313095230 -0.0143089312
0.0640971177 0.0288355896 -0.0045775146
0.0637834985 0.0359160481 -0.0080900417
0.0608110102 0.0358820424 -0.0131756465
0.0594655600 0.0360426809 -0.0076558531
0.0602467703 0.0282716972 -0.0057925100
0.0627264360 0.0351484164 -0.0119045118
0.0648434911 0.0289721698 -0.0068549120
0.0651605072 0.0267092373 -0.0050871826
0.0600630224 0.0365015651 -0.0049376114
0.0595946828 0.0273618989 -0.0060546957
0.0577995639 0.0262000728 -0.0124552564
0.0664181560 0.0342752052 -0.0080631878
0.1061650172 0.0258999970 0.0106915590
0.1023493100 0.0258999970 0.0142348265
0.0937103056 0.0286377477 0.0188070807
0.1038817184 0.0266351384 0.0085301065
0.0963476810 0.0301000010 0.0220986607
0.0986599259 0.0288009603 0.0145367877
0.0970179742 0.0282523257 0.0179044147
0.0979839901 0.0289050005 0.0204587741
0.0944928771 0.0278516805 0.0209796176
0.1003267452 0.0280313445 0.0123897557
0.1056871083 0.0294354744 0.0112268375
0.1041280215 0.0275000017 0.0124247409
0.0892000499 0.0270068648 0.0370090903
0.0772949951 0.0265500005 0.0374798911
0.0896277658 0.0271346874 0.0328040467
0.0800014893 0.0287962679 0.0386816821
0.0867888305 0.0278795608 0.0375246819
0.0840091030 0.0281963841 0.0344791173
0.0880134178 0.0300714683 0.0335538287
0.0756565649 0.0294499975 0.0395452710
0.0667091521 0.0243929477 -0.0193374800
0.0848353103 0.0330499682 -0.0149103284
0.1078723736 0.0323191761 0.0063310344
0.0766867612 0.0328362935 -0.0196575298
0.0451257913 0.0330565006 -0.0033841798
0.0779562592 0.0327177907 0.0064180854
0.0929909708 0.0304375459 0.0032036791
0.0626117684 0.0330664094 0.0193840239
0.1073664231 0.0279025584 0.0245145319
0.1086360385 0.0257702749 0.0181559816
0.1087052529 0.0282390292 0.0115360598
0.1072336872 0.0288006353 0.0041723673
0.1031508070 0.0247467852 -0.0044490833
0.1010619487 0.0256437152 -0.0074500076
0.0941364411 0.0255395069 -0.0137971821
0.0899283211 0.0299238357 -0.0164784723
0.0803876464 0.0256236067 -0.0196171805
0.0727429168 0.0279379087 -0.0201872811
0.0643377983 0.0263661052 -0.0188776610
0.0595266632 0.0264390109 -0.0170616439
0.0608228299 0.0306394758 -0.0176798841
0.0511622694 0.0305802123 -0.0117508510
0.0475601172 0.0320629694 -0.0080395638
0.0421496850 0.0271485270 0.0003119590
0.0694949801 0.0293308828 -0.0162584598
0.0859179581 0.0306818154 0.0003902349
0.0510610787 0.0323469223 0.0193774154
0.0489354125 0.0294606948 0.0169214927
0.0582110645 0.0323886133 0.0174615831
0.0634503245 0.0308414207 -0.0032192217
0.0686411049 0.0305711971 -0.0053693135
0.0592903220 0.0294816852 -0.0052335482
0.0694955774 0.0276923193 -0.0106468275
0.0744621464 0.0312873785 -0.0181368976
0.0779392039 0.0299177516 -0.0151312778
0.0781258123 0.0311385204 -0.0072128970
0.0714613115 0.0293581210 -0.0083974810
0.0764027072 0.0272471856 -0.0185460057
0.0671331704 0.0275262605 -0.0162722053
0.1058547896 0.0326600876 0.0132828750
0.1005571767 0.0280817063 0.0188653948
0.0929702716 0.0259935710 0.0221247654
0.0934985322 0.0280837390 0.0183135870
0.1016585198 0.0328236101 0.0097147519
0.0744238600 0.0291072552 0.0434522668
0.0809620429 0.0289792533 0.0408768077
0.0867974498 0.0323874350 0.0385781795
0.0730087509 0.0328706457 0.0380983689
0.0867030319 0.0294050882 0.0327040471
0.0821626395 0.0268888288 0.0344925547
0.0902482022 0.0306798014 0.0317962065
0.0410366417 0.0257575152 0.0033247378
0.0393880418 0.0260913404 0.0107380621
0.0392669778 0.0272467938 0.0174529689
0.0399937295 0.0308213840 0.0228459118
0.0448600810 0.0251037971 0.0336668471
0.0465182247 0.0285039063 0.0362076007
0.0518529718 0.0306463863 0.0416153423
0.0619540158 0.0262957177 0.0472865842
0.0665871780 0.0248133316 0.0486271753
0.0710006893 0.0288256121 0.0494451735
0.0767960312 0.0274079957 0.0493469823
0.0809901893 0.0302195396 0.0487191541
0.0880115311 0.0300915415 0.0464819153
0.0965524734 0.0314546712 0.0411697412
0.1023293992 0.0255566627 0.0350272283
0.1057624906 0.0260654965 0.0290497909
0.1017892373 0.0324999951 -0.0052519112
0.0541756598 0.0293000024 0.0171232504
0.0428503367 0.0293000024 0.0168449415
0.0504215923 0.0293000024 0.0192391762
0.0427629647 0.0305389912 0.0185046436
0.0607249395 0.0321024109 0.0199209441
0.0551586191 0.0327098605 0.0154765547
0.0538530385 0.0311178680 0.0191042106
0.0434329444 0.0324308988 0.0153734228
0.0841518806 0.0293000024 -0.0025190022
0.0916740232 0.0293000024 0.0023774550
0.0865453314 0.0293000024 -0.0002534904
0.0888607313 0.0308623140 0.0088618251
0.0892997213 0.0316414093 0.0065755130
0.0815402600 0.0309124770 -0.0028138917
0.0866146908 0.0310925707 -0.0028858449
0.0878314433 0.0313939537 -0.0031080351
0.0899222442 0.0330999978 0.0113376490
0.0684365287 0.0325031836 0.0216461555
0.0622481383 0.0285986416 0.0432094723
0.0400417074 0.0331640923 0.0146529809
0.0759978970 0.0328938110 0.0486894432
0.0457381058 0.0309681685 0.0018624290
0.0866693725 0.0297893832 -0.0138020542
0.1023499101 0.0294910118 0.0272288788
0.0861005848 0.0305085332 -0.0137188541
0.0628197568 0.0302997413 0.0108408171
0.0963116874 0.0331999995 -0.0035329184
0.0630213062 0.0331999995 0.0445141154
0.0621012077 0.0331999995 0.0140247731
0.0826025850 0.0331999995 -0.0159497622
0.0636887438 0.0331999995 0.0227612332
0.0949278664 0.0331999995 0.0065043808
0.0552322692 0.0331999995 -0.0137233447
0.0483193575 0.0331999995 0.0000826363
0.0569296124 0.0331999995 -0.0047593669
0.0568951163 0.0331999995 0.0009776309
0.0617551679 0.0331999995 -0.0021895525
0.1035768082 0.0331999995 0.0048671572
0.1061651657 0.0331999995 0.0169571790
0.0410194737 0.0331999995 0.0207949599
0.0566926857 0.0331999995 0.0243595055
0.0501426861 0.0331999995 0.0086957236
0.0803598002 0.0331999995 -0.0007702618
0.0919561702 0.0331999995 -0.0027194135
0.0893734593 0.0331999995 0.0160712103
0.0821329635 0.0331999995 0.0317910926
0.0734831608 0.0331999995 0.0310555862
0.0761428008 0.0331999995 0.0464549258
0.0841354544 0.0331999995 0.0459120011
0.0922999477 0.0331999995 0.0417855303
0.0665294073 0.0331999995 0.0360759552
0.0707788854 0.0331999995 0.0421455394
0.0555525456 0.0331999995 0.0385276820
0.0561844209 0.0331999995 0.0429585098
0.0433953737 0.0331999995 0.0254456253
0.0849236450 0.0331999995 -0.0154390667
0.0984893851 0.0331999995 0.0028818751
0.0999301545 0.0331999995 0.0330550655
0.0639057409 0.0331999995 0.0059851431
0.0551145953 0.0331999995 0.0072560592
0.0681762291 0.0331999995 0.0017230819
0.0718573214 0.0331999995 -0.0030177236
0.0813760775 0.0331999995 -0.0144498917
0.0535404188 0.0331999995 0.0288221091
0.0820116579 0.0331999995 0.0294666070
0.0901949398 0.0331999995 -0.0100935523
0.0882272523 0.0331999995 0.0232194289
0.0961018241 0.0331999995 0.0115853407
0.0776370868 0.0331999995 0.0275502917
0.1034146604 0.0331999995 0.0217766064
0.0577746035 0.0259321076 -0.0133157699
0.0590208949 0.0323771747 -0.0138320008
0.1072779408 0.0263315078 0.0115158061
0.0648332849 -0.0294494397 0.0378307848
0.0718717476 -0.0295000020 -0.0097252771
0.0533594285 -0.0295000020 0.0279970317
0.0888937255 -0.0303088574 -0.0046495582
0.0982120814 -0.0310907907 0.0173694026
0.0788682936 -0.0298219487 0.0384772049
0.0564772941 -0.0308719887 0.0315305242
0.0521020420 -0.0297830449 0.0040230618
0.0888088212 -0.0315000005 0.0336592627
0.0580691996 -0.0337097880 0.0300150780
0.0724582291 -0.0340060152 -0.0079784603
0.0883552373 -0.0345000029 -0.0014668985
0.0895972414 -0.0332459626 0.0316275398
0.0756444967 -0.0337802354 0.0352260848
0.0634798551 -0.0293096862 0.0346774175
0.0620018430 -0.0291028256 0.0334891005
0.0539402844 -0.0310499376 0.0212834173
0.0564714651 -0.0256272024 0.0048665740
0.0681655988 -0.0298804085 -0.0074354645
0.0695975545 -0.0258720640 -0.0056465038
0.0942538482 -0.0287278173 0.0102667494
0.0953793960 -0.0255000014 0.0088526700
0.0940276271 -0.0306837815 0.0254893807
0.0938105565 -0.0284639206 0.0258144315
0.0507597047 -0.0342290493 0.0215804223
0.0779462494 -0.0320065915 0.0358484673
0.0944117987 -0.0316764980 0.0073933168
0.0700774640 -0.0344651907 -0.0059254100
0.0525771293 -0.0315014886 0.0216822802
0.0619267715 -0.0331556965 0.0322272978
0.0659470209 -0.0344000012 0.0205031628
0.0610550893 -0.0344000012 0.0107456642
0.0633602781 -0.0344000012 0.0165830947
0.0696357541 -0.0344000012 0.0270803798
0.0716431021 -0.0344000012 0.0323385427
0.0774884698 -0.0344000012 0.0259266352
0.0853187180 -0.0344000012 0.0264443036
0.0867731638 -0.0344000012 0.0192494594
0.0906536296 -0.0344000012 0.0133800422
0.0679279066 -0.0344000012 0.0027566050
0.0613325485 -0.0344000012 0.0061071187
0.0831445572 -0.0344000012 0.0105272778
0.0844437990 -0.0344000012 0.0039468631
0.0779373766 -0.0344000012 0.0007882839
0.0688992149 -0.0344000012 -0.0012884814
0.0891699098 -0.0341298898 -0.0035397576
0.0747854895 -0.0344065531 0.0342104726
0.0906171178 -0.0333813739 0.0009228922
0.0578081385 -0.0325000025 -0.0032585260
0.0589121987 -0.0325000025 0.0320675388
0.0503938805 -0.0318408999 0.0201515562
0.0874443224 -0.0338637623 -0.0055483172
0.0861176763 -0.0328316048 -0.0064624793
0.0514667650 -0.0340926959 0.0058453161
0.0622578386 -0.0335756299 0.0358723360
0.0940890636 -0.0339275462 0.0281299135
0.0676134839 -0.0342736877 0.0072545363
0.0817977106 -0.0332496032 0.0191194399
0.0950352348 -0.0345000029 0.0047382879
0.0968041522 -0.0345000029 0.0087084090
0.0708586900 -0.0345000029 -0.0041762527
0.0510483078 -0.0345000029 0.0167584896
0.0629326961 -0.0345000029 -0.0018419089
0.0931183487 -0.0345000029 0.0199186354
0.0715153663 -0.0345000029 0.0371714467
0.0971284273 -0.0345000029 0.0205952052
0.0826137186 -0.0217401910 0.0171590422
0.0823904125 0.0145124193 0.0178124879
0.0828927820 0.0210988284 0.0158427178
0.0827947163 -0.0271121886 0.0163112257
0.0829781987 -0.0008906561 0.0151895107
0.0829555520 -0.0215019748 0.0144582712
0.0829662302 0.0210644927 0.0146770069
0.0826485509 -0.0157593388 0.0122755153
0.0826516961 0.0162431982 0.0122673865
0.0823405740 -0.0070668292 0.0112536977
0.0776358364 -0.0212190860 0.0227995898
0.0780678770 0.0153684557 0.0225522823
0.0774429480 0.0061800713 0.0228794995
0.0795826765 -0.0245821258 0.0216539756
0.0795254418 -0.0034435297 0.0216982063
0.0802578108 -0.0094389816 0.0210003858
0.0805457706 -0.0003218475 0.0207119063
0.0811521110 0.0154804239 0.0200239168
0.0818784449 -0.0143773117 0.0189030082
0.0693931895 -0.0094522351 0.0223107705
0.0698168323 -0.0092891064 0.0225267135
0.0706055134 0.0298075458 0.0228398489
0.0712274470 -0.0048895590 0.0231452621
0.0724544283 -0.0140832252 0.0234607904
0.0734656039 -0.0164253333 0.0235349747
0.0739624964 0.0117562138 0.0235675443
0.0744678105 -0.0312800012 0.0235877241
0.0756343452 0.0254162018 0.0233974875
0.0764980703 0.0236804386 0.0232427067
0.0668826126 -0.0061702616 0.0200335571
0.0667075447 0.0225279036 0.0198210489
0.0680293438 -0.0288258012 0.0212792191
0.0690788341 -0.0118353427 0.0221317313
0.0738819432 -0.0068004093 0.0056250258
0.0736584678 -0.0246118500 0.0056172612
0.0722242625 -0.0213617672 0.0058189801
0.0721192482 0.0246380707 0.0058722146
0.0707486851 -0.0028247810 0.0062406884
0.0701997822 0.0253973554 0.0064614056
0.0685518877 -0.0285997356 0.0074655618
0.0684616508 -0.0253858944 0.0075211521
0.0685416920 0.0188298962 0.0075054442
0.0672146135 -0.0200873870 0.0087424162
0.0675740499 0.0098167605 0.0084096625
0.0665121978 -0.0194913726 0.0096951793
0.0662035104 0.0149927964 0.0102443158
0.0655778060 -0.0075637426 0.0115139797
0.0658306749 -0.0299326200 0.0108994772
0.0651646320 -0.0295680011 0.0131674218
0.0650920521 0.0192509420 0.0134767225
0.0650394378 -0.0022410079 0.0140612868
0.0650791096 0.0196252062 0.0147398237
0.0651049491 0.0097662026 0.0157737005
0.0651686064 -0.0309958533 0.0162236334
0.0657976390 -0.0020501096 0.0178687698
0.0660766525 -0.0082429633 0.0186129682
0.0659850663 -0.0078345857 0.0183417371
0.0819055321 0.0127771674 0.0103259498
0.0812244759 0.0006699872 0.0093112811
0.0807079774 -0.0269808931 0.0086567764
0.0805692124 0.0269610439 0.0084487680
0.0798423383 -0.0315967868 0.0078136381
0.0795373055 -0.0030291587 0.0075678327
0.0785215381 0.0230272062 0.0068286037
0.0775467249 0.0309439235 0.0063534367
0.0771500510 0.0057633864 0.0061776099
0.0764605378 0.0220009222 0.0059686369
0.0751044303 -0.0076317832 0.0057096280
0.0741187311 0.0198603129 0.0056377373
0.0626498473 0.0322662572 -0.0067825496
0.0701839803 0.0299993225 -0.0146641163
0.0717996093 0.0281283509 -0.0164230820
0.0713782395 0.0278628490 -0.0140679443
0.0739183755 0.0275000017 -0.0142940832
0.0728044875 0.0258999970 -0.0119377446
0.0744713791 0.0282233778 -0.0116019377
0.0783699585 0.0301000010 -0.0086735568
0.0753661253 0.0265913966 -0.0099778041
0.0736625182 0.0277673886 -0.0076080061
0.0746303687 0.0283383853 -0.0101953310
0.0941382537 0.0346136838 0.0390972274
0.0923275525 0.0351288592 0.0388663503
0.0837448047 -0.0311281825 -0.0030720521
0.1031512313 -0.0192294838 0.0339432002
0.1046598984 -0.0235726633 0.0314421863
0.1064497893 -0.0289497623 0.0275747733
0.1079300728 -0.0274697561 0.0228227302
0.1087848234 -0.0198905106 0.0181101821
0.1089741596 -0.0214857292 0.0158465498
0.1086859904 -0.0233223657 0.0101847636
0.1080051138 -0.0215996680 0.0065862471
0.1065436737 -0.0219684190 0.0018567702
0.1051313978 -0.0261456968 -0.0012959295
0.1024164282 -0.0223936964 -0.0056726986
0.0989164858 -0.0192625014 -0.0098851998
0.0951924818 -0.0169584932 -0.0132177473
0.0929118897 -0.0229223241 -0.0148398411
0.0883363273 -0.0290557718 -0.0172999278
0.0837314278 -0.0229816689 -0.0189739427
0.0809638890 -0.0244554898 -0.0196883669
0.0762397345 -0.0168838576 -0.0202514290
0.0712853161 -0.0182027530 -0.0202171085
0.0699774352 -0.0240359884 -0.0200697458
0.0624959699 -0.0244982999 -0.0184525594
0.0597564362 -0.0209559090 -0.0173059611
0.0544049227 -0.0187523358 -0.0143077869
0.0501828332 -0.0171026646 -0.0109844856
0.0480662745 -0.0207737662 -0.0088278871
0.0461821192 -0.0280412477 -0.0066399928
0.0442200423 -0.0222513002 -0.0036250925
0.0419253592 -0.0250326108 0.0007686011
0.0402651311 -0.0282338792 0.0053741928
0.0398675193 -0.0276259904 0.0069777351
0.0390185788 -0.0244757172 0.0139337789
0.0393439162 -0.0172803032 0.0190079352
0.0402306102 -0.0192439833 0.0236353161
0.0411602976 -0.0274991078 0.0265499847
0.0438785283 -0.0204130494 0.0324123905
0.0452679995 -0.0270723733 0.0345524745
0.0487971803 -0.0277702420 0.0388341102
0.0517244858 -0.0172646550 0.0415686806
0.0531542129 -0.0234110324 0.0426564967
0.0582173792 -0.0199245690 0.0457909383
0.0617938884 -0.0237560665 0.0473389483
0.0663549944 -0.0251257957 0.0486980843
0.0683791692 -0.0276288709 0.0491198183
0.0724354686 -0.0268929715 0.0495112322
0.0798949041 -0.0234825665 0.0490658357
0.0836001751 -0.0229469090 0.0482197943
0.0889480041 -0.0227451084 0.0461988810
0.0920681042 -0.0212484465 0.0445511865
0.0955070715 -0.0203738412 0.0421851929
0.0976617469 -0.0243867790 0.0402998520
0.1019099347 -0.0185211775 0.0356753588
0.1043335587 -0.0294497284 -0.0020887027
0.0936347763 -0.0164718677 -0.0140290943
0.0939258426 -0.0295000002 0.0378119048
0.0555413219 -0.0295000002 0.0390170289
0.0405762657 -0.0295000002 0.0178246866
0.0452351692 -0.0295000002 0.0111626784
0.0403013951 -0.0295000002 0.0072009257
0.0796943720 -0.0295000002 -0.0148420331
0.0794323001 -0.0295000002 -0.0169280530
0.0689745039 -0.0295000002 -0.0174031058
0.0872849261 -0.0295000002 -0.0172045972
0.0910433335 -0.0295000002 -0.0095168816
0.1019232914 -0.0295000002 0.0279561872
0.0495253003 -0.0295000002 0.0334244770
0.0565822574 -0.0295000002 0.0433435009
0.0780396846 -0.0295000002 0.0444005925
0.0790856538 -0.0295000002 0.0471433309
0.0877728294 -0.0295000002 0.0460938234
0.1050657799 -0.0295000002 0.0206242117
0.1027748244 -0.0295000002 0.0031886659
0.1055053454 -0.0295000002 0.0067101364
0.0557562054 -0.0295000002 -0.0131202168
0.0393411825 -0.0164694666 0.0157632448
0.0747642585 -0.0294015424 0.0493058363
0.0477997973 -0.0293781592 0.0268446532
0.1060265089 -0.0069466969 0.0133571031
0.1065279312 -0.0277793582 0.0130086980
0.1065333485 -0.0202629146 0.0161881750
0.1043579280 -0.0213919141 0.0142242093
0.0975834950 -0.0080693995 0.0381146936
0.0970102789 -0.0111244234 0.0358928742
0.0966989069 -0.0281725711 0.0355853438
0.0978782984 -0.0165657412 0.0383449751
0.0950062861 -0.0259172971 0.0377036856
0.0729140546 -0.0066149626 0.0472122597
0.0754861635 -0.0259660174 0.0458899686
0.0735860604 -0.0238823106 0.0482420772
0.0727916706 -0.0185000258 0.0454087375
0.0512065721 -0.0102105627 0.0385192157
0.0501209061 -0.0134408640 0.0364531768
0.0525667412 -0.0191465504 0.0360207634
0.0519070050 -0.0244160613 0.0388149730
0.0497305095 -0.0267964505 0.0372191176
0.0414150164 -0.0083340165 0.0134120171
0.0422022357 -0.0114965273 0.0160537290
0.0430021967 -0.0146630742 0.0132825161
0.0431082414 -0.0197166290 0.0158562595
0.0403801123 -0.0282919347 0.0150784167
0.0513266646 -0.0079999994 -0.0093300438
0.0526336801 -0.0288318643 -0.0091272792
0.0510669231 -0.0247938559 -0.0063853427
0.0498610046 -0.0264820425 -0.0086934337
0.0746678157 -0.0104005748 -0.0187195128
0.0740172653 -0.0136502226 -0.0159813943
0.0751933997 -0.0279894275 -0.0186070927
0.0747839545 -0.0277544630 -0.0159565136
0.0723579228 -0.0258903544 -0.0175519112
0.0965744459 -0.0085514161 -0.0065677690
0.0978673359 -0.0117114947 -0.0086944322
0.0970681436 -0.0171352592 -0.0096690647
0.0977190928 -0.0210131239 -0.0067615923
0.0949853435 -0.0148786499 -0.0081933415
0.1070336422 -0.0126578741 0.0137964799
0.0510497580 -0.0083083644 -0.0094441969
0.0526886922 -0.0098815512 -0.0085201337
0.0746735303 -0.0130907044 0.0454496486
0.0962846511 -0.0294058597 0.0326774305
0.0695225951 -0.0293186067 -0.0139180077
0.0462138921 -0.0295000002 0.0147001654
0.0511503976 -0.0295000002 0.0261353094
0.0621622877 -0.0295000002 0.0406160346
0.0772715936 -0.0295000002 0.0410228907
0.0914400755 -0.0295000002 0.0329219713
0.0492948737 -0.0295000002 0.0032844706
0.0583145501 -0.0295000002 -0.0075669120
0.0757906947 -0.0295000002 -0.0127589432
0.0903541070 -0.0295000002 -0.0056742872
0.0988662627 -0.0295000002 0.0039410141
0.1006480315 -0.0295000002 0.0222377809
0.0820713514 -0.0292027460 -0.0090571271
-0.0231980910 0.0187890433 0.0061000003
0.0164712789 -0.0103237555 0.0061000003
0.0096184012 0.0179856384 0.0061000003
-0.0166850499 -0.0113342133 0.0061000003
-0.0011664124 0.0254811069 0.0061000003
-0.0019377928 -0.0254075802 0.0061000003
0.0215164041 0.0031582507 0.0061000003
-0.0259705367 -0.0086062926 0.0061000003
-0.0192268759 0.0123132824 0.0061000003
-0.0221636054 -0.0177142703 0.0061000003
-0.0189126130 -0.0096313009 0.0061000003
-0.0203509548 0.0246131303 0.0061000003
-0.0222846861 -0.0212950455 0.0061000003
-0.0097818141 0.0253434645 0.0061000003
-0.0050513907 -0.0244158416 0.0061000003
-0.0166608443 -0.0255854309 0.0061000003
-0.0238237604 -0.0245502009 0.0061000003
0.0085409000 0.0239157408 0.0061000003
-0.0117081904 0.0230846032 0.0061000003
0.0106355838 0.0249717322 0.0061000003
0.0213736497 0.0037743897 0.0061000003
0.0189393994 0.0164488653 0.0061000003
0.0223269194 0.0202983235 0.0061000003
0.0235419212 -0.0081540830 0.0061000003
0.0248122958 -0.0152360461 0.0061000003
0.0124313907 -0.0207891426 0.0061000003
0.0234017202 -0.0196497930 0.0061000003
0.0146864537 -0.0263318677 0.0061000003
0.0239685969 -0.0273361453 0.0061000003
0.0055238806 -0.0170437247 0.0001556728
0.0121947692 -0.0131654690 0.0051603501
0.0173145425 -0.0046311145 0.0006511112
0.0176779655 0.0032696784 0.0019775511
0.0134462238 0.0118526688 0.0008704171
0.0084497675 0.0157952111 0.0057259637
-0.0028707715 0.0177172542 0.0059861440
-0.0100330093 0.0149395803 0.0056214625
-0.0154230048 0.0091461165 0.0059404213
-0.0178746298 -0.0012729027 0.0026883530
-0.0155115677 -0.0089804270 0.0047930265
-0.0084928707 -0.0157721719 0.0024630631
-0.0010727005 -0.0178943479 0.0045897377
-0.0167087281 0.0144785280 0.0013151027
-0.0166936596 -0.0159832999 0.0002904588
0.0135052646 -0.0151935837 0.0013603000
0.0135299584 0.0153041669 0.0001789998
-0.0008539711 -0.0285000000 0.0016172069
-0.0106062606 -0.0285000000 0.0007278005
0.0138376961 -0.0285000000 -0.0014212919
-0.0166778259 -0.0285000000 0.0001408481
-0.0116929147 -0.0285000000 0.0055929608
-0.0031710494 -0.0285000000 0.0044140501
0.0098986655 -0.0285000000 0.0056853060
-0.0231254337 -0.0127787289 -0.0019000000
-0.0155987017 0.0196558753 -0.0019000000
-0.0198594119 0.0188534045 -0.0019000000
-0.0257514085 0.0150531272 -0.0019000000
-0.0246636007 -0.0139343903 -0.0019000000
-0.0152540266 -0.0204866176 -0.0019000000
0.0068052975 -0.0236674370 -0.0019000000
-0.0139197347 -0.0246816549 -0.0019000000
-0.0042035525 -0.0257747830 -0.0019000000
0.0148319467 -0.0281274030 -0.0019000000
0.0157309379 -0.0263869666 -0.0019000000
0.0187582570 -0.0157444052 -0.0019000000
0.0240945434 -0.0119293883 -0.0019000000
0.0248731549 0.0076790499 -0.0019000000
0.0209731337 0.0175227609 -0.0019000000
0.0199760815 0.0239090907 -0.0019000000
0.0153977061 0.0256346591 -0.0019000000
-0.0227248621 0.0260000005 -0.0000670188
-0.0116836299 0.0260000005 0.0034917409
0.0055442130 0.0260000005 0.0008335735
0.0077810060 0.0260000005 0.0023615863
0.0032435943 0.0260000005 0.0031767305
0.0061999163 0.0260000005 0.0040244963
0.0188344989 0.0260000005 0.0042803279
0.0260000005 0.0223534930 0.0002541802
0.0260000005 0.0072205115 0.0052200241
0.0260000005 0.0076959909 -0.0013982000
0.0260000005 0.0073333257 0.0044446396
0.0260000005 0.0048900452 0.0015434269
0.0260000005 -0.0005565636 0.0053037119
0.0260000005 -0.0206255097 0.0007819825
0.0260000005 -0.0239774773 0.0056370008
-0.0260000005 -0.0248060660 -0.0003842195
-0.0260000005 0.0161460835 -0.0012955736
-0.0260000005 0.0160628070 -0.0011899788
-0.0260000005 -0.0081218973 0.0008073449
-0.0260000005 -0.0006927461 0.0017874150
-0.0260000005 0.0137898495 0.0042189739
-0.0260000005 0.0030469623 0.0042127843
-0.0017396362 0.0210040145 0.0027000001
-0.0027037719 0.0227105400 0.0046221059
-0.0161446878 0.0179980860 0.0059101224
-0.0234012449 -0.0003280510 0.0027000001
-0.0236740450 0.0019779808 0.0052080677
-0.0168414736 -0.0176425490 0.0039484624
-0.0016332876 -0.0191304504 0.0027000001
-0.0019335594 -0.0192251778 0.0033582113
0.0159725311 -0.0180130739 0.0053374004
0.0208332899 0.0020508208 0.0027000001
0.0201078455 0.0025589739 0.0037349380
0.0168767665 0.0127943097 0.0055064643
0.0145851435 0.0123550333 0.0056590505
0.0148148851 0.0115902087 0.0001000001
-0.0093820795 -0.0153901727 0.0001000001
-0.0164230503 0.0110134573 0.0001000001
-0.0229062073 -0.0026886693 0.0001000001
-0.0018299233 0.0208476433 0.0001000001
-0.0222180801 0.0086429827 0.0001000001
-0.0057114388 -0.0213920765 0.0001000001
0.0235495306 0.0022571855 0.0001000001
0.0182804618 0.0138906986 0.0001000001
0.0183471231 -0.0094116991 0.0001000001
0.0181298277 -0.0033177961 0.0001000001
0.0104624532 -0.0180378525 0.0001000001
-0.0089876362 0.0185128407 0.0001000001
-0.0201348316 -0.0084194558 0.0001000001
0.0242535558 0.0027919411 -0.0016372761
0.0232241876 -0.0076766006 -0.0005606238
0.0014155993 -0.0244117379 -0.0001206321
-0.0223569117 0.0098814667 -0.0002376272
-0.0178764365 -0.0166381303 -0.0014608611
-0.0123741686 0.0211011614 -0.0008949351
-0.0197906094 -0.0194170132 0.0000164640
-0.0190639837 -0.0283777226 0.0039497288
-0.0201405370 -0.0172236717 0.0000252362
0.0190162200 -0.0266213657 0.0002636032
0.0219904198 -0.0228144208 0.0025089575
0.0184752289 -0.0203657511 0.0034438822
-0.0196690513 0.0094256155 0.0044115050
0.0074344397 0.0207776875 0.0044945882
-0.0094531667 -0.0199549457 0.0041382123
0.0192744058 -0.0093198708 0.0052475606
-0.0230691968 0.0259308038 0.0047512931
-0.0214572573 -0.0138114048 0.0023291657
-0.0197366755 0.0151388560 0.0033127935
