-0.1250000000 0.0299847685 0.0097224715
-0.1250000000 0.0238557588 0.0107517571
-0.1250000000 0.0207740745 0.0035164831
-0.1250000000 0.0136594049 0.0032999894
-0.1250000000 0.0160248921 0.0109996182
-0.1250000000 0.0067084404 0.0124816839
-0.1250000000 0.0013101911 0.0067336300
-0.1250000000 0.0351150279 -0.0017573893
-0.1250000000 0.0542008609 0.0143408018
-0.1250000000 0.0615388485 0.0045353961
-0.1250000000 0.0494178985 0.0039794248
-0.1250000000 0.0696709357 0.0002891367
-0.1250000000 0.0740894154 0.0012539997
-0.1250000000 0.0678441308 0.0137280637
-0.1250000000 0.0612567152 0.0130085843
-0.1250000000 -0.0051113548 -0.0032135794
-0.1250000000 -0.0132427268 0.0014347462
-0.1250000000 -0.0139485475 0.0040227420
-0.1250000000 -0.0081251294 0.0154769307
-0.1250000000 -0.0052825582 0.0124942982
-0.1250000000 -0.0070963190 0.0085679302
-0.1250000000 -0.0078554118 0.0008088928
-0.1250000000 0.0029907898 0.0015965827
-0.1250000000 0.0082916689 0.0001443228
-0.1250000000 0.0139205300 -0.0003559487
-0.1250000000 0.0039772595 -0.0035035390
-0.1250000000 0.0259213395 0.0027813723
-0.1250000000 0.0279550847 -0.0039740600
-0.1250000000 0.0457823032 0.0065566735
-0.1250000000 0.0364290264 0.0038137258
-0.1250000000 0.0412502820 0.0117901673
-0.1250000000 0.0384728915 0.0138788691
-0.1250000000 0.0640447989 0.0004708182
-0.1250000000 0.0626843104 0.0021182555
-0.1250000000 0.0505352860 0.0027655405
-0.1250000000 0.0486460193 -0.0002573192
-0.1250000000 0.0460302410 0.0018894401
-0.1250000000 0.0711682077 0.0175240109
-0.1250000000 0.0580859006 0.0144864200
-0.1250000000 0.0526023659 0.0172335453
-0.1250000000 0.0323770261 0.0177276338
-0.1250000000 0.0271800361 0.0163469716
-0.1250000000 0.0096095057 0.0146981130
-0.1250000000 0.0013623348 0.0177320163
-0.1250000000 0.0651545373 0.0032709508
-0.1250000000 0.0654234833 0.0099276071
-0.1250000000 0.0720590974 0.0081681102
-0.1250000000 0.0773316184 0.0060339275
-0.1042250924 -0.0158501605 0.0004971780
-0.0932575975 -0.0158911925 0.0005459942
-0.0293943382 -0.0158961912 0.0008950538
-0.0384327537 -0.0160579558 0.0008718784
-0.0337040020 -0.0177765314 0.0086922481
-0.0309682943 -0.0174935878 0.0044540910
-0.0401795048 -0.0173503891 0.0034069280
-0.0718753471 -0.0155970701 0.0138039265
-0.1038212444 -0.0151946767 0.0142826588
-0.0293175280 -0.0161866940 0.0127378215
-0.0505016568 -0.0153893375 0.0140510685
-0.0835557807 -0.0147994899 0.0147528175
-0.0722543327 -0.0150076353 0.0145051843
-0.0774662842 -0.0141015877 0.0152302566
-0.0471222584 -0.0134450988 0.0156689085
-0.0571194761 -0.0130260194 0.0159489285
-0.0718718549 -0.0140438031 0.0152688670
-0.0393109489 -0.0120647811 0.0165912074
-0.0961814233 -0.0136336254 0.0155429391
-0.0985989289 -0.0126547606 0.0161969957
-0.1244365389 -0.0141237865 0.0152154238
-0.0813205832 -0.0127562961 0.0161291519
-0.0914097285 -0.0134368935 0.0156743912
-0.0523603656 -0.0112381080 0.0171435729
-0.0524509984 -0.0098277515 0.0174375254
-0.0937609765 -0.0107415456 0.0172557607
-0.0571832537 -0.0087840123 0.0176451377
-0.0308381582 -0.0110591394 0.0171925875
-0.0544167182 -0.0107087720 0.0172622798
-0.1131977053 -0.0074940354 0.0179017297
-0.0703892799 -0.0085095251 0.0176997366
-0.1246855696 -0.0104422502 0.0173152942
-0.0899223602 -0.0086376077 0.0176742594
-0.1108715757 -0.0102627230 0.0173510043
-0.1151796575 -0.0106667043 0.0172706476
-0.0330953837 -0.0149314025 -0.0005958797
-0.0850487369 -0.0149418703 -0.0005834260
-0.0952680966 -0.0139317611 -0.0013437313
-0.0679426292 -0.0145196604 -0.0009509095
-0.0933964616 -0.0126534513 -0.0021978705
-0.1221941666 -0.0126690505 -0.0021874475
-0.1024710384 -0.0126180183 -0.0022215461
-0.0960054121 -0.0146510681 -0.0008631057
-0.0266293962 -0.0117943480 -0.0027719050
-0.0424242921 -0.0129332721 -0.0020109003
-0.0489315661 -0.0114605125 -0.0029949667
-0.0693393837 -0.0112734542 -0.0031199551
-0.0614760171 -0.0131335307 -0.0018770917
-0.0723029435 -0.0100881322 -0.0033857325
-0.0925666636 -0.0084633222 -0.0037089271
-0.1076701816 -0.0109133181 -0.0032215929
-0.0495150190 -0.0107217464 -0.0032596989
-0.1189232247 -0.0073516169 -0.0039300589
-0.1038053037 -0.0094147643 -0.0035196736
-0.0494444833 -0.0073180167 -0.0039367424
-0.0481163119 -0.0082973468 -0.0037419417
-0.0480065574 -0.0079297531 -0.0038150606
-0.0629010668 -0.0083251629 -0.0037364087
-0.1073203678 -0.0072018054 -0.0039598583
-0.0991934188 0.0515151970 -0.0039999997
-0.0874496121 0.0477118770 -0.0039999997
-0.1068935922 0.0568688222 -0.0039999997
-0.1248581396 0.0638289455 -0.0039999997
-0.0896918909 0.0469493217 -0.0039999997
-0.1020043945 0.0557003441 -0.0039999997
-0.0408837233 0.0094995042 -0.0039999997
-0.0412096780 0.0115864271 -0.0039999997
-0.0267554442 0.0357570251 -0.0039999997
-0.0322796523 0.0388479024 -0.0039999997
-0.0293499641 0.0194576089 -0.0039999997
-0.0460078323 0.0310893354 -0.0039999997
-0.0286339027 0.0234405834 -0.0039999997
-0.0349090213 0.0494577089 -0.0039999997
-0.0397631479 0.0171115638 -0.0039999997
-0.0402838291 0.0408945498 -0.0039999997
-0.0491073490 0.0360778163 -0.0039999997
-0.0372677714 0.0108172439 -0.0039999997
-0.0521168631 0.0271496025 -0.0039999997
-0.0508609954 0.0298284056 -0.0039999997
-0.0297065752 0.0248124996 -0.0039999997
-0.0518790136 0.0278819657 -0.0039999997
-0.0363380063 0.0159535955 -0.0039999997
-0.0504433029 0.0271186866 -0.0039999997
-0.0494114369 0.0223399566 -0.0039999997
-0.0264533952 0.0636335160 -0.0039999997
-0.0477589922 0.0316524489 -0.0039999997
-0.0355202373 0.0371211052 -0.0039999997
-0.0370705197 0.0486001062 -0.0039999997
-0.0340714284 0.0195220533 -0.0039999997
-0.0410888404 0.0475599260 -0.0039999997
-0.0397787856 0.0420290453 -0.0039999997
-0.0393914113 0.0421815000 -0.0039999997
-0.0494705130 0.0358061442 -0.0039999997
-0.0267175826 0.0607095587 -0.0039999997
-0.0324635422 0.0574793072 -0.0039999997
-0.0337531610 0.0608754718 -0.0039999997
-0.0274733902 -0.0038499596 -0.0039999997
-0.0376128218 0.0286872692 -0.0039999997
-0.0433970269 0.0500770097 -0.0039999997
-0.0472009054 0.0463814899 -0.0039999997
-0.0478516758 0.0481278794 -0.0039999997
-0.0761111633 0.0665818313 -0.0039999997
-0.0631959729 0.0563289959 -0.0039999997
-0.0603316733 0.0552461537 -0.0039999997
-0.1090082138 0.0686806811 -0.0039999997
-0.0807452578 0.0700403622 -0.0039999997
-0.0341658780 0.0690329587 -0.0039999997
-0.0764995678 0.0686920566 -0.0039999997
-0.0652259406 0.0652346362 -0.0039999997
-0.0824064867 0.0527501430 -0.0039999997
-0.1024005997 0.0657243051 -0.0039999997
-0.0513522538 0.0511431005 -0.0039999997
-0.0628866872 0.0636271464 -0.0039999997
-0.0717152886 0.0583812985 -0.0039999997
-0.0724339446 0.0595076029 -0.0039999997
-0.0855490197 0.0675023112 -0.0039999997
-0.0838828884 0.0669308531 -0.0039999997
-0.0549241947 0.0477223042 -0.0039999997
-0.0651769637 0.0479883154 -0.0039999997
-0.0983558099 0.0605291514 -0.0039999997
-0.0426699977 0.0569759123 -0.0039999997
-0.0350643990 0.0706206758 -0.0039999997
-0.0570048384 0.0681201705 -0.0039999997
-0.1036903449 0.0612197548 -0.0039999997
-0.0715715425 0.0577316952 -0.0039999997
-0.0882513479 0.0538407220 -0.0039999997
-0.0557101587 0.0520160330 -0.0039999997
-0.0847058570 0.0656751411 -0.0039999997
-0.0597400674 0.0486271542 -0.0039999997
-0.0550373960 0.0662540230 -0.0039999997
-0.0670071501 0.0533227142 -0.0039999997
-0.0433429084 0.0595001074 -0.0039999997
-0.0519195854 0.0655922322 -0.0039999997
-0.0543316420 0.0700299809 -0.0039999997
-0.0508367289 0.0689472302 -0.0039999997
-0.0643812433 0.0406898806 -0.0039999997
-0.0686266820 0.0587211546 -0.0039999997
-0.0875760856 0.0632838499 -0.0039999997
-0.0394598239 0.0694223383 -0.0039999997
-0.0571991539 0.0400405535 -0.0039999997
-0.0537081195 0.0557939398 -0.0039999997
-0.0941415966 0.0698277609 -0.0039999997
-0.0567993236 0.0469356510 -0.0039999997
-0.0971459971 0.0671443310 -0.0039999997
-0.0651135369 0.0708926988 -0.0039999997
-0.0379667353 0.0615748352 -0.0039999997
-0.1022205229 0.0695591879 -0.0039999997
-0.0637716180 0.0362560835 -0.0039999997
-0.0725770488 0.0394041327 -0.0039999997
-0.0951808477 0.0146215236 -0.0039999997
-0.1002236479 0.0106842516 -0.0039999997
-0.1181045429 -0.0007201349 -0.0039999997
-0.1106841469 0.0037896518 -0.0039999997
-0.0819781826 0.0209572626 -0.0039999997
-0.1074899578 0.0090169766 -0.0039999997
-0.1069299154 0.0039027553 -0.0039999997
-0.0684004505 0.0266437952 -0.0039999997
-0.0632796993 0.0020652628 -0.0039999997
-0.0781098719 0.0188056793 -0.0039999997
-0.0559841392 -0.0006983993 -0.0039999997
-0.0757178873 0.0042832694 -0.0039999997
-0.0543412520 0.0200481172 -0.0039999997
-0.0858292118 0.0141028067 -0.0039999997
-0.0733114850 -0.0036092825 -0.0039999997
-0.0479158554 0.0046877206 -0.0039999997
-0.0802169447 0.0080699062 -0.0039999997
-0.0668565380 0.0230836446 -0.0039999997
-0.0619132427 0.0115048926 -0.0039999997
-0.0483101325 -0.0048958534 -0.0039999997
-0.0505277757 0.0097768137 -0.0039999997
-0.0644987191 -0.0028052679 -0.0039999997
-0.0573483725 0.0101680334 -0.0039999997
-0.0505258238 0.0156559981 -0.0039999997
-0.0686187445 -0.0010451802 -0.0039999997
-0.0601967782 -0.0054810177 -0.0039999997
-0.0862809729 0.0043327299 -0.0039999997
-0.0454896930 -0.0038938995 -0.0039999997
-0.1002259910 0.0025376874 -0.0039999997
-0.0866396458 0.0018149469 -0.0039999997
-0.0537364817 0.0149049405 -0.0039999997
-0.0654474497 -0.0051319789 -0.0039999997
-0.0961615963 -0.0025022536 -0.0039999997
-0.0972786405 0.0012421729 -0.0039999997
-0.0752904670 -0.0004150823 -0.0039999997
-0.0529151570 0.0089912693 -0.0039999997
-0.0733909436 -0.0047567090 -0.0039999997
-0.0719619790 -0.0013913444 -0.0039999997
-0.0730312217 0.0145063465 -0.0039999997
-0.0647172394 0.0058580085 -0.0039999997
-0.0876445524 0.0138192398 -0.0039999997
-0.0990821120 0.0051046299 -0.0039999997
-0.0506747483 0.0018468812 -0.0039999997
-0.0569727634 0.0022746368 -0.0039999997
-0.0662238012 0.0003482019 -0.0039999997
-0.0843946217 0.0130066226 -0.0039999997
-0.0613001176 0.0258512478 -0.0039999997
-0.1113502711 -0.0068974359 -0.0039999997
-0.0973212948 0.0033237473 -0.0039999997
-0.0861868722 0.0000486519 -0.0039999997
-0.0535268564 0.0189544788 -0.0039999997
-0.0626696008 0.0276895976 -0.0039999997
-0.0417702168 0.0029244646 -0.0039999997
-0.0748536375 -0.0049973099 -0.0039999997
-0.0318006078 -0.0011590346 -0.0039999997
-0.0910548922 0.0174549684 -0.0039999997
-0.1023693826 0.0123241818 -0.0039999997
-0.0937700834 0.0168979280 -0.0039999997
-0.1026502682 0.0174671050 -0.0039999997
-0.1048419889 0.0154128806 -0.0039999997
-0.0719392228 0.0281969857 -0.0039999997
-0.0928492606 0.0213221147 -0.0039999997
-0.1126538335 0.0158134195 -0.0039999997
-0.1048399049 0.0113771695 -0.0039999997
-0.1104000419 0.0172413885 -0.0039999997
-0.1239826401 0.0124065562 -0.0039999997
-0.1085042394 0.0167847875 -0.0039999997
-0.1183400937 0.0140980546 -0.0039999997
-0.0888586216 0.0192434714 -0.0039999997
-0.0694987491 0.0303337020 -0.0039999997
-0.1146792213 0.0208805277 -0.0039999997
-0.0967711950 0.0272703638 -0.0039999997
-0.1158879152 0.0238327615 -0.0039999997
-0.0929941369 0.0271060909 -0.0039999997
-0.1241404913 0.0284582278 -0.0039999997
-0.1223370710 0.0264601056 -0.0039999997
-0.1044456623 0.0278026880 -0.0039999997
-0.1130990547 0.0204444346 -0.0039999997
-0.1224884052 0.0249059071 -0.0039999997
-0.1015774702 0.0311174999 -0.0039999997
-0.1188175667 0.0310513807 -0.0039999997
-0.0895213742 0.0325469370 -0.0039999997
-0.1214505389 0.0449785538 -0.0039999997
-0.0988909455 0.0361120300 -0.0039999997
-0.1089809044 0.0394267200 -0.0039999997
-0.1015164677 0.0376747857 -0.0039999997
-0.0851191135 0.0367053110 -0.0039999997
-0.0966199756 0.0328051835 -0.0039999997
-0.0846909633 0.0334641225 -0.0039999997
-0.0982547622 0.0346239196 -0.0039999997
-0.1097260099 0.0429922933 -0.0039999997
-0.1104266234 0.0393177785 -0.0039999997
-0.0936889410 0.0371454984 -0.0039999997
-0.0872098622 0.0348641548 -0.0039999997
-0.1122153831 0.0364942595 -0.0039999997
-0.1222155912 0.0606034999 -0.0039999997
-0.1041447195 0.0483961112 -0.0039999997
-0.1059824493 0.0453407051 -0.0039999997
-0.1041727825 0.0448726201 -0.0039999997
-0.1155657476 0.0526506024 -0.0039999997
-0.0984756255 0.0415909299 -0.0039999997
-0.1111117982 0.0525960552 -0.0039999997
-0.0682625012 0.0357916461 -0.0039999997
-0.1136752428 0.0489148451 -0.0039999997
-0.0912263625 0.0466337277 -0.0039999997
-0.0978592385 0.0450625010 -0.0039999997
-0.1125057270 0.0562759362 -0.0039999997
-0.1040727763 0.0527549999 -0.0039999997
-0.1063268902 0.0795940549 0.0138075122
-0.1063637022 0.0796665119 0.0137213090
-0.0302782761 0.0799018952 0.0130964110
-0.0339426258 0.0818039275 0.0054278580
-0.0260432979 0.0818402083 0.0078033378
-0.0358149479 0.0815876548 0.0097529524
-0.1072907222 0.0797798030 0.0004134750
-0.0667855410 0.0796958164 0.0003135548
-0.0299050813 0.0794382154 0.0001300184
-0.0302368646 0.0812985436 0.0032360840
-0.0433502235 0.0798200596 0.0004613689
-0.0788363083 0.0793762367 -0.0000666542
-0.0830667428 0.0781232465 -0.0012157856
-0.0685510796 0.0775910571 -0.0015713832
-0.0291964316 0.0755292493 -0.0029490391
-0.1023144872 0.0782906285 -0.0011039445
-0.0315091387 0.0761463860 -0.0025366815
-0.0794671133 0.0775225725 -0.0016171432
-0.1206419521 0.0772264779 -0.0018149872
-0.1164881912 0.0784409203 -0.0010035228
-0.0768912889 0.0759700668 -0.0026544942
-0.1245364909 0.0776692328 -0.0015191479
-0.0566733716 0.0753990887 -0.0030360096
-0.0568990775 0.0738203082 -0.0034390063
-0.0544115156 0.0723063405 -0.0037401530
-0.0936999462 0.0751567503 -0.0031731715
-0.0561464818 0.0738678858 -0.0034295425
-0.0769811378 0.0750893205 -0.0031865841
-0.0901603798 0.0739403285 -0.0034151328
-0.0862834674 0.0725482947 -0.0036920254
-0.1158243260 0.0745855225 -0.0032867958
-0.0948316495 0.0717855302 -0.0038437486
-0.0939363617 0.0711850996 -0.0039631816
-0.0864628569 0.0728131151 -0.0036393493
-0.0478298932 0.0788846453 0.0146515080
-0.0494727025 0.0793521417 0.0140953201
-0.0750497454 0.0790843846 0.0144138750
-0.0981315473 0.0785565606 0.0149262542
-0.1067731852 0.0786918918 0.0148358287
-0.1193590114 0.0764826318 0.0163120093
-0.1194653517 0.0787741090 0.0147808929
-0.1218419623 0.0754673992 0.0169903662
-0.0267002315 0.0755936249 0.0169060248
-0.0349486541 0.0766512305 0.0161993552
-0.0502890061 0.0756453227 0.0168714815
-0.0805728670 0.0759379777 0.0166759356
-0.0786414241 0.0761623764 0.0165259972
-0.0352287542 0.0751997322 0.0171646221
-0.0636051603 0.0743880261 0.0173260803
-0.0727147774 0.0744755921 0.0173086623
-0.0492401907 0.0743090922 0.0173417812
-0.1191311631 0.0716563276 0.0178694482
-0.0830596435 0.0734798189 0.0175067337
-0.0711717673 0.0724589832 0.0177097903
-0.0411879652 0.0740925234 0.0173848593
-0.0777971213 0.0725863469 0.0176844561
-0.0789844919 0.0727183988 0.0176581894
-0.0567142276 0.0712806562 0.0179441738
-0.0850991195 0.0707433567 0.0179999992
-0.0906364686 0.0680432117 0.0179999992
-0.1048442715 0.0667326677 0.0179999992
-0.1153061193 0.0664003900 0.0179999992
-0.1022113361 0.0694468708 0.0179999992
-0.0986677612 0.0706698423 0.0179999992
-0.1104877929 0.0675573378 0.0179999992
-0.0684283415 0.0696174370 0.0179999992
-0.0802671316 0.0686551190 0.0179999992
-0.0668307066 0.0634598064 0.0179999992
-0.1238449513 0.0541790378 0.0179999992
-0.0827313148 0.0594410175 0.0179999992
-0.1165384110 0.0583057779 0.0179999992
-0.0898230100 0.0565941684 0.0179999992
-0.1101315968 0.0644804535 0.0179999992
-0.0906118897 0.0653467157 0.0179999992
-0.1239323466 0.0547001893 0.0179999992
-0.1054272556 0.0605256630 0.0179999992
-0.1068966851 0.0575802953 0.0179999992
-0.1131359441 0.0518539391 0.0179999992
-0.0889492520 0.0572175072 0.0179999992
-0.0512561558 0.0663396193 0.0179999992
-0.0735890494 0.0633629801 0.0179999992
-0.1130431838 0.0540660034 0.0179999992
-0.1100876716 0.0582777474 0.0179999992
-0.0696075409 0.0663858034 0.0179999992
-0.0984439397 0.0605750200 0.0179999992
-0.1237541566 0.0591291636 0.0179999992
-0.0538205688 0.0656775113 0.0179999992
-0.1237759275 0.0514085935 0.0179999992
-0.0734075651 0.0583891219 0.0179999992
-0.0337203475 0.0255033007 0.0179999992
-0.0725837796 0.0454369624 0.0179999992
-0.0478041816 0.0075962567 0.0179999992
-0.1031768076 0.0526144812 0.0179999992
-0.0571646344 0.0129143211 0.0179999992
-0.0717431402 0.0592847934 0.0179999992
-0.0266211097 0.0646019949 0.0179999992
-0.0503026959 0.0194699190 0.0179999992
-0.0613705570 0.0302962394 0.0179999992
-0.0527157276 0.0330935589 0.0179999992
-0.0761985602 0.0356151851 0.0179999992
-0.0699533068 0.0314904627 0.0179999992
-0.0481417644 0.0604674649 0.0179999992
-0.0451465506 0.0593143807 0.0179999992
-0.0749492477 0.0370224182 0.0179999992
-0.0531610894 0.0195158192 0.0179999992
-0.0573297774 0.0586168944 0.0179999992
-0.0444875372 0.0614011987 0.0179999992
-0.0792750568 0.0543584875 0.0179999992
-0.0479437677 0.0225771895 0.0179999992
-0.0518242146 0.0543209995 0.0179999992
-0.0544247754 0.0201662924 0.0179999992
-0.0667594189 0.0213888647 0.0179999992
-0.0409776025 0.0667460799 0.0179999992
-0.0395260083 0.0563930617 0.0179999992
-0.1092514748 0.0491559347 0.0179999992
-0.0377215380 0.0247562075 0.0179999992
-0.0627582607 0.0275027297 0.0179999992
-0.0338640764 0.0154865708 0.0179999992
-0.0694072381 0.0358002813 0.0179999992
-0.0793542227 0.0350422082 0.0179999992
-0.0384696508 0.0009440445 0.0179999992
-0.0383771171 0.0469573034 0.0179999992
-0.0280976866 0.0577599884 0.0179999992
-0.0705767638 0.0239016024 0.0179999992
-0.0393908510 0.0505164727 0.0179999992
-0.0438779706 0.0427052639 0.0179999992
-0.0996968661 0.0466962588 0.0179999992
-0.0543332529 0.0327655838 0.0179999992
-0.0658357524 0.0536982948 0.0179999992
-0.0449173401 0.0191425967 0.0179999992
-0.0432701141 0.0337869344 0.0179999992
-0.0404469143 0.0191918172 0.0179999992
-0.0351056649 0.0407882308 0.0179999992
-0.0618576851 0.0505256334 0.0179999992
-0.1194082082 0.0453956135 0.0179999992
-0.0466623282 0.0484234457 0.0179999992
-0.0720084798 0.0485576638 0.0179999992
-0.0530929082 0.0214135835 0.0179999992
-0.0377986611 0.0009372768 0.0179999992
-0.0889931795 0.0278576562 0.0179999992
-0.0402063600 0.0622492592 0.0179999992
-0.0837701922 0.0478918255 0.0179999992
-0.0418030708 0.0569687382 0.0179999992
-0.0486435252 0.0081657690 0.0179999992
-0.0321543094 0.0308632186 0.0179999992
-0.0703642349 0.0303464493 0.0179999992
-0.0476166892 0.0428032684 0.0179999992
-0.0373097596 0.0428052380 0.0179999992
-0.0586513671 0.0135158416 0.0179999992
-0.0964295492 0.0434464137 0.0179999992
-0.0690438182 0.0272802346 0.0179999992
-0.0439555917 0.0578500767 0.0179999992
-0.0616638580 0.0240601314 0.0179999992
-0.0266165364 0.0281657479 0.0179999992
-0.0301292100 0.0141817509 0.0179999992
-0.0582450982 0.0304337157 0.0179999992
-0.0460638646 0.0644263051 0.0179999992
-0.0468258250 0.0213498596 0.0179999992
-0.0277617911 0.0334403817 0.0179999992
-0.0909475244 0.0396817019 0.0179999992
-0.0784715641 0.0373369958 0.0179999992
-0.0610768194 0.0238261197 0.0179999992
-0.0904609342 0.0387185021 0.0179999992
-0.0266690042 -0.0039441097 0.0179999992
-0.0455602642 0.0501538695 0.0179999992
-0.0860079935 0.0316302033 0.0179999992
-0.0391147797 0.0398148927 0.0179999992
-0.0745735642 0.0206831122 0.0179999992
-0.0637110084 0.0429451791 0.0179999992
-0.0519382767 0.0157865313 0.0179999992
-0.0274206989 0.0277351392 0.0179999992
-0.0539570365 0.0127754279 0.0179999992
-0.0781021705 0.0479632736 0.0179999992
-0.0458684344 0.0183573732 0.0179999992
-0.0648098688 0.0317905398 0.0179999992
-0.0333220901 0.0482414954 0.0179999992
-0.0361262432 0.0218987404 0.0179999992
-0.0272690182 0.0430604305 0.0179999992
-0.0903648574 0.0518475751 0.0179999992
-0.0311044581 0.0325343726 0.0179999992
-0.0277120223 0.0268650954 0.0179999992
-0.0677597640 0.0420605900 0.0179999992
-0.0728829915 0.0275507130 0.0179999992
-0.0306580061 0.0521284279 0.0179999992
-0.0686897748 0.0252066402 0.0179999992
-0.0344135944 0.0679668510 0.0179999992
-0.0601780173 0.0240422890 0.0179999992
-0.1088319757 0.0337966850 0.0179999992
-0.1045399334 0.0307301612 0.0179999992
-0.0896840938 0.0238004065 0.0179999992
-0.0437250434 0.0026026457 0.0179999992
-0.1172369284 0.0329255648 0.0179999992
-0.0735212075 0.0182992546 0.0179999992
-0.0459750154 0.0024487382 0.0179999992
-0.1019122243 0.0236970743 0.0179999992
-0.1209714880 0.0396929048 0.0179999992
-0.1215152211 0.0371454810 0.0179999992
-0.1010111637 0.0321892957 0.0179999992
-0.0596980441 0.0102417873 0.0179999992
-0.0609020841 0.0109786309 0.0179999992
-0.0987372736 0.0227678063 0.0179999992
-0.1142704666 0.0412359872 0.0179999992
-0.1087439496 0.0380199254 0.0179999992
-0.1249022132 0.0348417710 0.0179999992
-0.0736211388 0.0154448082 0.0179999992
-0.1113986893 0.0283482796 0.0179999992
-0.0733606512 0.0180907787 0.0179999992
-0.1215273870 0.0351913807 0.0179999992
-0.1186739891 0.0287488435 0.0179999992
-0.1125580023 0.0228461399 0.0179999992
-0.1213792787 0.0231878265 0.0179999992
-0.1050345122 0.0152427030 0.0179999992
-0.1058488341 0.0171459753 0.0179999992
-0.0822215885 0.0075315444 0.0179999992
-0.1209125232 0.0174559395 0.0179999992
-0.0921922025 0.0129552990 0.0179999992
-0.1080285945 0.0189782390 0.0179999992
-0.1147970526 0.0213689435 0.0179999992
-0.1010177910 0.0155433920 0.0179999992
-0.1212312960 0.0222184531 0.0179999992
-0.1143725939 0.0264072249 0.0179999992
-0.0818852516 0.0115311716 0.0179999992
-0.1116399379 0.0185684865 0.0179999992
-0.1132925026 0.0152201954 0.0179999992
-0.1186994356 0.0200544554 0.0179999992
-0.0925086210 0.0162998904 0.0179999992
-0.0978287500 0.0041033068 0.0179999992
-0.1163148554 0.0145656288 0.0179999992
-0.1201711555 0.0059173433 0.0179999992
-0.1052561210 0.0123419574 0.0179999992
-0.1204437488 0.0160845860 0.0179999992
-0.0686330341 -0.0029473158 0.0179999992
-0.0612428425 -0.0006298474 0.0179999992
-0.1123089925 0.0061501623 0.0179999992
-0.1106133289 0.0112810805 0.0179999992
-0.0895493980 0.0033885369 0.0179999992
-0.0748646514 -0.0032127529 0.0179999992
-0.1071024277 0.0008789022 0.0179999992
-0.0880601917 -0.0014095420 0.0179999992
-0.0756607880 0.0040282325 0.0179999992
-0.1138180801 0.0001826576 0.0179999992
-0.0506579215 -0.0012785649 0.0179999992
-0.0818186080 0.0018599973 0.0179999992
-0.1090816644 0.0000449956 0.0179999992
-0.0599816312 -0.0006141027 0.0179999992
-0.0770866848 -0.0013657032 0.0179999992
-0.0660379787 -0.0030625905 0.0179999992
-0.1130812014 -0.0062194934 0.0179999992
-0.1234618549 -0.0037927947 0.0179999992
-0.0930291006 -0.0043370634 0.0179999992
-0.1196852300 -0.0012807714 0.0179999992
-0.0866531912 -0.0053207972 0.0179999992
-0.1097725253 -0.0009015654 0.0179999992
-0.1239126387 -0.0019500462 0.0179999992
-0.0709402794 -0.0045979804 0.0179999992
-0.1242433457 -0.0044881047 0.0179999992
-0.0750302881 -0.0039781354 0.0179999992
-0.0260000005 -0.0186233242 -0.0028595421
-0.0260000005 -0.0142545164 -0.0021463713
-0.0260000005 0.0818301984 0.0046922431
-0.0260000005 0.0824646856 -0.0054778834
-0.0260000005 0.0213672529 0.0180645902
-0.0260000005 0.0095967496 0.0188454208
-0.0260000005 0.0501887069 0.0187299159
-0.0260000005 0.0811757592 -0.0113461782
-0.0260000005 0.0779425883 -0.0155600473
-0.0260000005 -0.0132973666 -0.0092650584
-0.0260000005 -0.0121208855 -0.0109552469
-0.0260000005 -0.0104499627 -0.0120358265
-0.0260000005 0.0697934655 -0.0169153016
-0.0260000005 0.0622373953 -0.0118553520
-0.0260000005 0.0488154057 -0.0123034385
-0.0260000005 0.0110947170 -0.0071628414
-0.0260000005 0.0019307683 -0.0057351532
-0.0260000005 0.0704856388 -0.0050618368
-0.0260000005 0.0601206382 -0.0169427230
-0.0260000005 0.0483964902 -0.0117176169
-0.0260000005 0.0693906960 -0.0066123737
-0.0260000005 0.0131534930 -0.0061377148
-0.0260000005 0.0582645640 -0.0110363132
-0.0260000005 0.0611660031 -0.0132313663
-0.0260000005 0.0251821459 -0.0071713786
-0.0260000005 0.0098584456 -0.0048832981
-0.0260000005 0.0342027102 -0.0088670954
-0.0260000005 0.0218120429 -0.0076488359
-0.0260000005 0.0378752586 -0.0056604271
-0.0260000005 0.0106919865 -0.0187408162
-0.0260000005 0.0054817990 -0.0182851065
-0.0260000005 0.0005265194 -0.0117129875
-0.0260000005 0.0370026211 -0.0171428770
-0.0260000005 0.0146494711 -0.0167315574
-0.0260000005 0.0606246431 -0.0178840188
-0.0260000005 0.0142218082 -0.0164696502
-0.0260000005 0.0072487712 -0.0157780952
-0.0260000005 0.0132702472 -0.0098722005
-0.0260000005 0.0368761430 -0.0174757999
-0.0260000005 0.0164159469 -0.0160427065
-0.0260000005 0.0158711388 -0.0124700611
-0.0260000005 0.0087419342 -0.0168266521
-0.0260000005 0.0310858048 -0.0164697283
-0.0260000005 -0.0072978845 -0.0066366929
-0.0257422375 0.0834999979 -0.0037177957
-0.0245988264 0.0834999979 0.0029802285
-0.0040229050 0.0834999979 -0.0036369479
-0.0003017050 0.0834999979 -0.0023705641
-0.0186358738 0.0834999979 0.0019553437
-0.0116506461 0.0834999979 0.0020109556
-0.0192744843 0.0149195154 0.0195000004
-0.0243547043 0.0243378536 0.0195000004
-0.0250862766 0.0027159179 0.0195000004
-0.0196448386 0.0222344912 0.0195000004
-0.0191973231 0.0603704026 0.0195000004
-0.0252689176 0.0128642943 0.0195000004
-0.0169986465 0.0482916818 0.0195000004
-0.0161940404 0.0524492277 0.0195000004
-0.0145706426 0.0509403099 0.0195000004
-0.0219209179 0.0229596404 0.0195000004
-0.0214171648 0.0389366126 0.0195000004
-0.0197209246 0.0138482917 0.0195000004
-0.0252829140 0.0354805370 0.0195000004
-0.0139471760 0.0312473490 0.0195000004
-0.0066149514 0.0503286812 0.0195000004
-0.0221722582 0.0657379943 0.0195000004
-0.0077645696 0.0501103930 0.0195000004
-0.0240500294 0.0363299501 0.0195000004
-0.0146279464 0.0682712476 0.0195000004
-0.0076784272 0.0683214369 0.0195000004
-0.0063678212 0.0643783849 0.0195000004
-0.0208575160 0.0243827239 0.0195000004
-0.0128228518 0.0645247902 0.0195000004
-0.0100752411 0.0431130466 0.0195000004
-0.0238774976 0.0516188473 0.0195000004
-0.0041669656 0.0377073489 0.0195000004
-0.0057123217 0.0398165157 0.0195000004
-0.0149212800 0.0142417779 0.0195000004
-0.0090838951 0.0337075074 0.0195000004
-0.0107212340 -0.0006405760 0.0195000004
-0.0073315167 0.0426069946 0.0195000004
-0.0157761616 -0.0021572379 0.0195000004
-0.0081569611 0.0252887458 0.0195000004
-0.0108014848 0.0226689698 0.0195000004
-0.0021019102 0.0243075610 0.0195000004
-0.0212860252 0.0076542437 0.0195000004
-0.0044901081 -0.0029559895 0.0195000004
-0.0189466714 -0.0015594499 0.0195000004
-0.0005013179 0.0079292236 0.0195000004
-0.0023479003 0.0424760257 0.0195000004
-0.0062738681 0.0325493519 0.0195000004
-0.0045851023 0.0318198997 0.0195000004
-0.0206406850 0.0079676670 0.0195000004
-0.0068751106 0.0143993030 0.0195000004
-0.0142626919 0.0133657420 0.0195000004
-0.0103414491 0.0341958797 0.0195000004
-0.0046979107 0.0048653831 0.0195000004
-0.0090205201 0.0143451317 0.0195000004
-0.0144388772 0.0246327399 0.0195000004
-0.0224347378 -0.0195000004 -0.0033380233
-0.0050074505 -0.0195000004 -0.0021534670
-0.0116068754 -0.0195000004 -0.0012477118
-0.0171916142 -0.0195000004 0.0000107883
-0.0066673150 -0.0195000004 0.0034900774
-0.0223848003 -0.0195000004 -0.0019293832
-0.0028416678 0.0421351688 -0.0195000004
-0.0093999643 0.0419525247 -0.0195000004
-0.0126093682 0.0335818895 -0.0195000004
-0.0003119865 0.0370266511 -0.0195000004
-0.0031671960 0.0562126842 -0.0195000004
-0.0120873699 0.0499424720 -0.0195000004
-0.0117472577 0.0513721959 -0.0195000004
-0.0000102902 0.0665742319 -0.0195000004
-0.0142960718 0.0432343229 -0.0195000004
-0.0085529115 0.0290527126 -0.0195000004
-0.0094562017 0.0384605666 -0.0195000004
-0.0021624806 0.0124007653 -0.0195000004
-0.0072474745 0.0638264313 -0.0195000004
-0.0081403695 0.0676590234 -0.0195000004
-0.0115009841 0.0391661001 -0.0195000004
-0.0211298314 0.0591083572 -0.0195000004
-0.0182541516 0.0554694608 -0.0195000004
-0.0130944131 0.0407316556 -0.0195000004
-0.0101333822 0.0347148598 -0.0195000004
-0.0173148275 0.0517311604 -0.0195000004
-0.0224447382 0.0635733211 -0.0195000004
-0.0014587035 0.0640705923 -0.0195000004
-0.0042313291 0.0104695925 -0.0195000004
-0.0022149066 0.0602613998 -0.0195000004
-0.0090697154 0.0460259551 -0.0195000004
-0.0206131243 0.0184192672 -0.0195000004
-0.0172412057 0.0147657318 -0.0195000004
-0.0158567072 0.0088713205 -0.0195000004
-0.0247768122 0.0503039802 -0.0195000004
-0.0246314120 0.0294294101 -0.0195000004
-0.0210799064 0.0099981762 -0.0195000004
-0.0137341441 0.0276910412 -0.0195000004
-0.0120883066 0.0095791381 -0.0195000004
-0.0234305812 0.0206175930 -0.0195000004
-0.0252008010 0.0575910609 -0.0195000004
-0.0136580190 -0.0016822801 -0.0195000004
-0.0200393626 0.0407812295 -0.0195000004
-0.0171964917 0.0403239970 -0.0195000004
-0.0082187425 -0.0031707209 -0.0195000004
-0.0229265241 0.0308020058 -0.0195000004
-0.0235997431 0.0154394941 -0.0195000004
-0.0020891534 -0.0044946641 -0.0195000004
-0.0254404370 0.0408872312 -0.0195000004
-0.0145854186 0.0349436876 -0.0195000004
-0.0036578618 0.0007883363 -0.0195000004
-0.0198873306 -0.0030936588 -0.0195000004
-0.0105422075 0.0220762283 -0.0195000004
-0.0165652241 0.0069192106 -0.0195000004
-0.0222301230 0.0400969328 -0.0195000004
0.0000000000 0.0296457886 -0.0092959541
0.0000000000 0.0326168552 -0.0161046699
-0.0000000000 0.0143542648 -0.0190083144
0.0000000000 0.0481126493 -0.0143883169
0.0000000000 0.0441176824 -0.0154165993
-0.0000000000 0.0200046221 -0.0151210865
0.0000000000 0.0322825798 -0.0148350075
0.0000000000 0.0399071075 -0.0139448322
0.0000000000 0.0330653140 -0.0118740375
-0.0000000000 0.0217817766 -0.0169734817
0.0000000000 0.0321894996 -0.0112141774
0.0000000000 0.0342376936 -0.0092120831
0.0000000000 0.0600577284 -0.0156223552
-0.0000000000 0.0235391064 -0.0067606422
-0.0000000000 0.0203515473 -0.0049551791
-0.0000000000 0.0151248251 0.0044235784
-0.0000000000 0.0151197200 0.0110282852
-0.0000000000 0.0028248354 0.0168865874
0.0000000000 0.0462820766 0.0159344655
-0.0000000000 0.0306794845 0.0168473487
-0.0000000000 0.0105220858 0.0154930907
-0.0000000000 0.0219001899 0.0139338813
-0.0000000000 0.0166098176 0.0173654119
-0.0000000000 0.0139220446 0.0159661157
0.0000000000 0.0358327217 0.0151766020
0.0000000000 0.0407533011 0.0147222735
-0.0000000000 0.0285999227 0.0173804961
0.0000000000 0.0456457037 0.0193364797
0.0000000000 0.0683113235 0.0074149175
0.0000000000 0.0439716458 0.0028798854
0.0000000000 0.0672823205 0.0071458113
0.0000000000 0.0605579558 -0.0092296641
0.0000000000 0.0647408086 -0.0115551707
-0.0000000000 0.0163838840 -0.0079304229
-0.0000000000 0.0134563330 -0.0119970335
-0.0000000000 -0.0015978771 -0.0163584256
-0.0000000000 -0.0078142480 -0.0170581925
-0.0000000000 -0.0151028708 -0.0133195241
0.0000000000 0.0565525666 0.0160082098
0.0000000000 0.0441417093 0.0093055104
0.0000000000 0.0416446406 0.0068378750
0.0000000000 0.0597751464 0.0150155053
0.0000000000 0.0504879890 0.0096750386
0.0000000000 0.0673769518 0.0129320343
0.0000000000 0.0476440506 0.0052174637
0.0000000000 0.0548191273 0.0072325847
0.0000000000 0.0773960511 0.0144274884
0.0000000000 0.0540112534 -0.0048008622
0.0000000000 0.0677388114 -0.0071834170
0.0000000000 0.0697369147 -0.0101258425
0.0000000000 0.0762420960 -0.0049402627
0.0000000000 0.0786731298 -0.0049531770
0.0000000000 0.0424973610 0.0002117524
0.0000000000 0.0637297944 -0.0027516787
0.0000000000 0.0516859354 -0.0007900401
0.0000000000 0.0649217017 -0.0011291747
0.0000000000 0.0696533808 0.0005748154
0.0000000000 0.0783001613 -0.0031361245
0.0000000000 0.0757580240 -0.0022311361
0.0000000000 0.0760356917 -0.0008238207
0.0000000000 0.0797434207 0.0062430851
0.0000000000 0.0611587544 0.0049186697
0.0000000000 0.0508041888 -0.0083828853
0.0000000000 0.0477615618 -0.0093924644
0.0000000000 0.0592762455 -0.0125593182
0.0000000000 0.0456528714 -0.0042360595
0.0000000000 0.0643308886 -0.0129145217
-0.0000000000 -0.0159556426 0.0083974207
-0.0000000000 -0.0151844660 -0.0003754679
-0.0000000000 -0.0162028399 -0.0046641525
-0.0000000000 -0.0159851409 -0.0090951293
-0.0000000000 0.0207021053 0.0066535011
-0.0000000000 0.0045372328 0.0141047589
-0.0000000000 -0.0041443691 0.0168736878
-0.0000000000 -0.0105646108 0.0169970334
-0.0146014300 0.0691129891 -0.0194029121
-0.0233101523 0.0686208490 -0.0194808594
-0.0088820695 0.0707665288 -0.0191410174
-0.0202671758 0.0745232186 -0.0180586457
-0.0211714340 0.0736223741 -0.0185176493
-0.0071720333 0.0755858332 -0.0175172160
-0.0205147340 0.0780226917 -0.0159293411
-0.0132872498 0.0773954387 -0.0165565933
-0.0229238276 0.0803267508 -0.0136252852
-0.0128047345 0.0793096192 -0.0146424154
-0.0184172459 0.0821152678 -0.0104120909
-0.0069903208 0.0820176562 -0.0106036647
-0.0188513352 0.0822734177 -0.0101017037
-0.0220791550 0.0832498988 -0.0060790671
-0.0190033909 0.0833947203 -0.0051646978
-0.0105595716 0.0832604492 -0.0060124541
-0.0161484845 0.0834688579 0.0046966107
-0.0229998317 0.0828473449 0.0086206990
-0.0031849907 0.0832033578 0.0063729164
-0.0123993395 0.0819052155 0.0108243419
-0.0049759377 0.0811132650 0.0123786340
-0.0030716954 0.0817534048 0.0111222875
-0.0237733452 0.0789906222 0.0149614105
-0.0043038234 0.0804539984 0.0134980368
-0.0012375316 0.0780838167 0.0158682145
-0.0121257086 0.0772315238 0.0166786922
-0.0200720292 0.0755703245 0.0175251170
-0.0007697721 0.0746507714 0.0179936535
-0.0075484299 0.0718553317 0.0189685681
-0.0048634136 0.0726679674 0.0188398594
-0.0136086878 0.0686277533 0.0194797658
-0.0086329228 -0.0192638679 -0.0059908777
-0.0174721028 -0.0190976151 -0.0070405542
-0.0127547507 -0.0188938993 -0.0083267616
-0.0088355742 -0.0187723324 -0.0090943027
-0.0226285287 -0.0187256653 -0.0092141144
-0.0011122528 -0.0171029313 -0.0123989134
-0.0095891838 -0.0177177058 -0.0111923490
-0.0239735680 -0.0137427318 -0.0162093027
-0.0051369553 -0.0146131761 -0.0153388586
-0.0225126562 -0.0134598232 -0.0164922112
-0.0181058227 -0.0110431850 -0.0177937096
-0.0182887576 -0.0099494272 -0.0183510070
-0.0092089377 -0.0094389338 -0.0186111164
-0.0253504685 -0.0064154340 -0.0191966254
-0.0234661366 -0.0050045164 -0.0194200928
-0.0117348804 -0.0050220001 -0.0194173236
-0.0199451106 -0.0065383479 0.0191771578
-0.0057821021 -0.0048971686 0.0194370950
-0.0147053294 -0.0075121177 0.0190229279
-0.0052842308 -0.0091392903 0.0187637924
-0.0155306229 -0.0097410414 0.0184571846
-0.0014738637 -0.0122515016 0.0171780401
-0.0051376987 -0.0136022015 0.0163498311
-0.0212444941 -0.0135451083 0.0164069243
-0.0128321549 -0.0159127735 0.0140392605
-0.0171127924 -0.0162197736 0.0137322605
-0.0091368908 -0.0167154019 0.0131594830
-0.0080090695 -0.0181339028 0.0103755150
-0.0054628703 -0.0176318242 0.0113609009
-0.0220288090 -0.0189212289 0.0081542099
-0.0004428344 -0.0188398647 0.0086679221
-0.0148619259 -0.0194401812 0.0048776829
-0.0008322317 0.0327776345 0.0088225109
-0.0010000020 0.0328839346 -0.0057652721
-0.0010000020 0.0238775222 -0.0003947660
-0.0010000020 0.0291776179 -0.0049570474
-0.0010000020 0.0261460535 0.0024705618
-0.0010000020 0.0358908900 0.0036296305
-0.0010000020 0.0353379081 -0.0038855283
-0.0010000020 0.0405797274 -0.0019216132
-0.0000522898 0.0095478975 0.0108365462
-0.0005094668 -0.0133636458 -0.0050347705
-0.0010000020 -0.0045302745 -0.0113061995
-0.0010000020 -0.0017083687 -0.0088335866
-0.0010000020 0.0012058887 -0.0080536275
-0.0010000020 -0.0100954805 0.0004462457
-0.0010000020 -0.0026529392 -0.0010631118
-0.0010000020 -0.0031061676 0.0084003382
-0.0010000020 -0.0075095357 0.0089004198
-0.0010000020 -0.0025739086 0.0011807385
-0.0010000020 0.0051087143 0.0122095802
-0.0010000020 0.0018095048 0.0114792261
-0.0010000020 -0.0005810701 0.0094777782
-0.0010000020 0.0129562673 -0.0018403572
-0.0010000020 0.0102253234 0.0018568265
-0.0010000020 0.0091284155 0.0069291342
-0.0010000020 0.0050163525 -0.0083409631
-0.0010000020 0.0091532537 -0.0076462029
-0.0010000020 0.0078447622 -0.0038446717
-0.0638052847 0.0306352217 0.0082575250
-0.0588487194 0.0343566031 -0.0014245298
-0.0581193868 0.0304348340 -0.0018542401
-0.0599967413 0.0289688212 0.0067846673
-0.0630409626 0.0295330815 0.0022561654
-0.0641960824 0.0323878284 0.0008063971
-0.0622884288 0.0349547658 0.0041846676
-0.0965412386 0.0799999982 0.0114193819
-0.1106011121 0.0799999982 0.0105173980
-0.1096365522 0.0799999982 0.0094713398
-0.1162033953 0.0799999982 0.0101664031
-0.1004205493 0.0799999982 0.0098908146
-0.1085357346 0.0799999982 0.0097819918
-0.1241310234 0.0799999982 0.0120823287
-0.1233981748 0.0799999982 0.0056009068
-0.0794717581 0.0799999982 0.0082955121
-0.0997726423 0.0799999982 0.0080159077
-0.0563072207 0.0799999982 0.0083824041
-0.0585410413 0.0799999982 0.0077946792
-0.0898151302 0.0799999982 0.0029616312
-0.0837649179 0.0799999982 0.0024121892
-0.0804477811 0.0799999982 0.0027626418
-0.0850078501 0.0799999982 0.0022943061
-0.0971295004 0.0799999982 0.0014593566
-0.0496336104 0.0799999982 0.0010636548
-0.0441243670 0.0799999982 0.0067383110
-0.0443486616 0.0799999982 0.0120081929
-0.0855250897 0.0799999982 0.0067231491
-0.0994420524 0.0799999982 0.0072148269
-0.0833351595 0.0799999982 0.0051679547
-0.0781871294 0.0799999982 0.0039689003
-0.0966544010 0.0799999982 0.0059930612
-0.0872852889 0.0799999982 0.0060512945
-0.1083630102 -0.0160000008 0.0039099130
-0.0833538577 -0.0160000008 0.0016035162
-0.1073199484 -0.0160000008 0.0052603637
-0.0989869328 -0.0160000008 0.0031559306
-0.1106277509 -0.0160000008 0.0011241307
-0.0957369924 -0.0160000008 0.0023475495
-0.1227874019 -0.0160000008 0.0033727572
-0.0460731255 -0.0160000008 0.0012015817
-0.0688101368 -0.0160000008 0.0039732648
-0.0598685142 -0.0160000008 0.0048197512
-0.0949311834 -0.0160000008 0.0051996812
-0.1222850823 -0.0160000008 0.0062189994
-0.1205346654 -0.0160000008 0.0112491247
-0.1049364045 -0.0160000008 0.0129577635
-0.1099908316 -0.0160000008 0.0099708641
-0.0787209750 -0.0160000008 0.0123935573
-0.1121490703 -0.0160000008 0.0121569156
-0.1181894933 -0.0160000008 0.0120337913
-0.0668319521 -0.0160000008 0.0074859451
-0.0932400594 -0.0160000008 0.0065595449
-0.0993120310 -0.0160000008 0.0086378545
-0.0852414713 -0.0160000008 0.0077876355
-0.0902971110 -0.0160000008 0.0079296030
-0.0734627386 -0.0160000008 0.0096619237
-0.0446095187 -0.0160000008 0.0039114693
-0.0456896131 -0.0160000008 0.0032358386
-0.0439293674 -0.0160045999 0.0126300440
-0.0429442591 0.0801702192 0.0026490114
-0.1110935465 -0.0096334694 0.0061114226
-0.1121739868 -0.0136603038 0.0062738104
-0.0575113323 -0.0110578014 0.0069489880
-0.1120129836 0.0757706073 0.0061128096
-0.0560928911 0.0796324926 0.0060840847
-0.1228394409 0.0713731590 0.0064729807
-0.1243717091 -0.0055051831 0.0071126433
-0.1249054041 0.0569321388 0.0044925554
-0.1239999980 0.0577149205 0.0080529814
-0.1239999980 0.0100357643 0.0086873886
-0.1386801873 0.0279219919 0.0036149962
-0.1338868089 0.0286307600 0.0043032608
-0.1275095649 0.0297200553 0.0063284382
-0.1274832470 0.0296046171 0.0081023841
-0.1261169289 0.0281217149 0.0102057844
-0.1292057022 0.0269618042 0.0106422856
-0.1397533348 0.0241200512 0.0103962696
-0.1295499119 0.0235258295 0.0098533289
-0.1297796071 0.0221239544 0.0070894002
-0.1258778907 0.0222011516 0.0066224968
-0.1384436775 0.0232618633 0.0044106377
-0.1418580292 0.0249589170 0.0033789573
-0.1416934474 0.0270340445 0.0033770713
-0.1284913873 0.0315114905 0.0085428822
-0.1364543302 0.0380697447 0.0094999997
-0.1422927021 0.0395087431 0.0094999997
-0.1298138314 0.0422156889 0.0094999997
-0.1259081981 0.0381631689 0.0094999997
-0.1330827686 0.0344577641 0.0094999997
-0.1328312640 0.0425468328 0.0094874510
-0.1440904136 0.0434999987 0.0064055880
-0.1264077359 0.0434999987 0.0069328980
-0.1386280141 0.0427524550 0.0045676451
-0.1357266726 0.0375171078 0.0045000003
-0.1322462303 0.0338178418 0.0045000003
-0.1285247077 0.0362796297 0.0045000003
-0.1278743780 0.0356433387 0.0045000003
-0.1319989334 0.0402095958 0.0045000003
-0.1347583284 0.0315000005 0.0082255711
-0.1276272382 0.0315000005 0.0068306576
-0.1449999958 0.0339846651 0.0054184785
-0.1627936705 0.0275346467 0.0058025964
-0.1490235719 0.0279547656 0.0068311866
-0.1493913836 0.0270856259 0.0086464253
-0.1550506429 0.0253738376 0.0088322203
-0.1596499722 0.0240040322 0.0070150480
-0.1648027700 0.0243420156 0.0059259337
-0.1631876192 0.0261923511 0.0050515401
-0.1619699368 0.0391673093 0.0059352601
-0.1636193687 0.0393956364 0.0073894836
-0.1642335549 0.0378823348 0.0088975542
-0.1593716754 0.0362016088 0.0084336596
-0.1596486191 0.0355268428 0.0068998256
-0.1584607000 0.0363678592 0.0054000898
-0.1649999917 0.0385042514 0.0054295467
-0.1241685867 0.0417924093 0.0055000000
-0.1250000000 0.0384512912 0.0065999947
-0.1241648883 0.0250277126 0.0092394763
