-0.0235565548 0.0340142273 -0.0195000004
-0.0219222323 0.0304651856 -0.0195000004
-0.0474156434 -0.0049126853 -0.0195000004
-0.0478131559 -0.0070495028 -0.0195000004
-0.0418990697 -0.0061723352 -0.0195000004
-0.0578658729 -0.0017988484 -0.0195000004
-0.0512035600 0.0000947480 -0.0195000004
-0.0405790622 0.0027071644 -0.0195000004
-0.0360500708 0.0038637073 -0.0195000004
-0.0338008514 -0.0146259825 -0.0195000004
-0.0367425224 -0.0131452735 -0.0195000004
-0.0517811934 -0.0134791174 -0.0195000004
-0.0546449942 -0.0148119884 -0.0195000004
-0.0531594255 -0.0077719641 -0.0195000004
-0.0427520216 -0.0092854113 -0.0195000004
-0.0522691927 0.0045037969 -0.0195000004
-0.0585189160 0.0052967255 -0.0195000004
-0.0489661937 0.0090924647 -0.0195000004
-0.0464053911 0.0095888911 -0.0195000004
-0.0459937652 0.0155471442 -0.0195000004
-0.0350115653 0.0135610301 -0.0195000004
-0.0345240721 0.0097645102 -0.0195000004
-0.0374717380 0.0363963317 -0.0195000004
-0.0277333290 0.0278580329 -0.0195000004
-0.0372552437 0.0403291979 -0.0195000004
-0.0256707303 0.0314990061 -0.0195000004
-0.0335756175 0.0494983976 -0.0195000004
-0.0298023033 0.0466887769 -0.0195000004
-0.0488822172 0.0193149098 -0.0195000004
-0.0464423150 0.0178319778 -0.0195000004
-0.0446162074 0.0227159040 -0.0195000004
-0.0440426592 0.0228678620 -0.0195000004
-0.0361683288 0.0247189185 -0.0195000004
-0.0330374760 0.0163412964 -0.0195000004
-0.0446501555 0.0338126188 -0.0195000004
-0.0487802761 0.0327692968 -0.0195000004
-0.0323251526 0.0262128062 -0.0195000004
-0.0306425591 0.0246137577 -0.0195000004
-0.0434797616 -0.0273885573 -0.0195000004
-0.0341733337 -0.0226069661 -0.0195000004
-0.0327144153 -0.0186724911 -0.0195000004
-0.0413262315 -0.0228820505 -0.0195000004
-0.0508737157 -0.0290829033 -0.0195000004
-0.0557294655 -0.0203576811 -0.0195000004
-0.0383023641 -0.0192855540 -0.0195000004
-0.0213870369 -0.0291402175 -0.0195000004
-0.0273606104 -0.0275534267 -0.0195000004
-0.0350549505 -0.0334033338 -0.0195000004
-0.0378394001 -0.0385936554 -0.0195000004
-0.0388494970 -0.0326567846 -0.0195000004
-0.0436379964 -0.0322854062 -0.0195000004
-0.0196537775 -0.0384385928 -0.0195000004
-0.0238821133 -0.0423818787 -0.0195000004
-0.0320821452 -0.0495281126 -0.0195000004
-0.0322986735 -0.0493249679 -0.0195000004
-0.0340455778 -0.0396218834 -0.0195000004
-0.0270075958 -0.0349161682 -0.0195000004
0.0404614054 -0.0185035854 -0.0195000004
0.0428262791 -0.0217580488 -0.0195000004
0.0329516141 -0.0146122861 -0.0195000004
-0.0123479224 -0.0432931055 -0.0195000004
-0.0095356258 -0.0417719677 -0.0195000004
-0.0171609166 -0.0523329334 -0.0195000004
-0.0178302120 -0.0495158246 -0.0195000004
-0.0193031391 -0.0450057333 -0.0195000004
-0.0259078160 -0.0508343240 -0.0195000004
0.0019241515 -0.0428999645 -0.0195000004
-0.0004821630 -0.0422234053 -0.0195000004
-0.0055943862 -0.0399612196 -0.0195000004
-0.0032577487 -0.0495488522 -0.0195000004
-0.0063543666 -0.0446203879 -0.0195000004
-0.0094171013 -0.0593986126 -0.0195000004
-0.0093221702 -0.0529567330 -0.0195000004
0.0506563653 -0.0274461821 -0.0195000004
0.0400713431 -0.0230115798 -0.0195000004
0.0491740398 -0.0329752588 -0.0195000004
0.0440850324 -0.0299796745 -0.0195000004
0.0283869002 -0.0262665492 -0.0195000004
0.0384823685 -0.0307669753 -0.0195000004
0.0281417366 -0.0288731632 -0.0195000004
0.0365129375 -0.0353096778 -0.0195000004
0.0269840738 -0.0285476773 -0.0195000004
0.0266618983 -0.0274336615 -0.0195000004
0.0354578672 -0.0103512803 -0.0195000004
0.0485390078 -0.0112022729 -0.0195000004
0.0510130235 -0.0142150510 -0.0195000004
0.0444577906 -0.0125511620 -0.0195000004
0.0498063715 -0.0167434632 -0.0195000004
0.0545771009 -0.0239919363 -0.0195000004
0.0499686541 -0.0223144714 -0.0195000004
0.0522200069 0.0025732482 -0.0195000004
0.0358296435 -0.0017418002 -0.0195000004
0.0483892250 -0.0032271424 -0.0195000004
0.0584930411 -0.0037956643 -0.0195000004
0.0590883942 -0.0096525582 -0.0195000004
0.0468584868 -0.0050703688 -0.0195000004
0.0388928985 0.0117254621 -0.0195000004
0.0352215376 0.0080430211 -0.0195000004
0.0542928493 0.0139393551 -0.0195000004
0.0410421913 0.0070097052 -0.0195000004
0.0588549865 0.0021130886 -0.0195000004
0.0548219159 0.0051393485 -0.0195000004
0.0375387126 0.0177759502 -0.0195000004
0.0363643781 0.0192542801 -0.0195000004
0.0366879939 0.0185956652 -0.0195000004
0.0474196877 0.0227084435 -0.0195000004
0.0519083286 0.0284253454 -0.0195000004
0.0450698285 0.0151513567 -0.0195000004
0.0561073832 0.0186263114 -0.0195000004
-0.0250034679 0.0467888387 -0.0195000004
-0.0316326085 0.0514131568 -0.0195000004
-0.0176553502 0.0486826288 -0.0195000004
-0.0207768125 0.0520119793 -0.0195000004
-0.0112559367 0.0376201263 -0.0195000004
-0.0119832962 0.0350389609 -0.0195000004
0.0069731975 -0.0355208079 -0.0195000004
0.0079449319 -0.0397272715 -0.0195000004
0.0055285478 -0.0450850855 -0.0195000004
0.0110987317 -0.0543697674 -0.0195000004
0.0023323479 -0.0463475164 -0.0195000004
0.0024027458 -0.0569480129 -0.0195000004
0.0360890672 -0.0454487232 -0.0195000004
0.0295237016 -0.0413062864 -0.0195000004
0.0322895710 -0.0485518700 -0.0195000004
0.0249877640 -0.0383808639 -0.0195000004
0.0265798653 -0.0493730719 -0.0195000004
0.0257882704 -0.0486611420 -0.0195000004
0.0173042601 -0.0344094360 -0.0195000004
0.0257247620 -0.0506289939 -0.0195000004
0.0182493755 -0.0432479342 -0.0195000004
0.0194951544 -0.0525474471 -0.0195000004
0.0190041759 -0.0507131535 -0.0195000004
0.0290916026 0.0214019615 -0.0195000004
0.0381541863 0.0362601051 -0.0195000004
0.0414670141 0.0335357179 -0.0195000004
0.0444781529 0.0365177239 -0.0195000004
0.0390870270 0.0265982418 -0.0195000004
0.0490020307 0.0324642062 -0.0195000004
0.0194589907 0.0421476473 -0.0195000004
0.0193249020 0.0418757850 -0.0195000004
0.0258607929 0.0523243646 -0.0195000004
0.0299703885 0.0490059204 -0.0195000004
0.0250007824 0.0321164719 -0.0195000004
0.0257646801 0.0328095424 -0.0195000004
0.0178335193 0.0323855668 -0.0195000004
0.0306773484 0.0413103731 -0.0195000004
0.0295746464 0.0392196729 -0.0195000004
0.0306211961 0.0320869175 -0.0195000004
0.0348408626 0.0378398243 -0.0195000004
0.0061213619 0.0381879373 -0.0195000004
0.0071315325 0.0452288234 -0.0195000004
0.0118883144 0.0499182887 -0.0195000004
0.0168738341 0.0549231358 -0.0195000004
0.0182734871 0.0462286219 -0.0195000004
0.0108068145 0.0371613653 -0.0195000004
-0.0123922413 0.0467684655 -0.0195000004
-0.0133168540 0.0502764615 -0.0195000004
-0.0077351497 0.0573434057 -0.0195000004
-0.0051713260 0.0568388988 -0.0195000004
-0.0047195973 0.0491744298 -0.0195000004
-0.0040015741 0.0405333889 -0.0195000004
-0.0031578320 0.0442642225 -0.0195000004
0.0005477613 0.0524074324 -0.0195000004
0.0021795149 0.0521031945 -0.0195000004
0.0069085883 0.0514372104 -0.0195000004
0.0034996225 0.0532394641 -0.0195000004
0.0066200153 -0.0020330615 -0.0423150079
0.0057642341 -0.0039022401 -0.0604844592
0.0056147750 -0.0041545971 -0.0559682538
0.0054768605 -0.0042827481 -0.0703781094
0.0029440789 -0.0062300219 -0.0579634876
0.0012103436 -0.0068746876 -0.0611615214
0.0002148554 -0.0068780086 -0.0462295437
-0.0014518446 -0.0068167622 -0.0539271764
0.0217560670 -0.0259357121 -0.0261470489
0.0262383321 -0.0205273395 -0.0281176561
0.0274074516 -0.0193860296 -0.0273336312
0.0269207886 -0.0226482817 -0.0211617580
0.0291760979 -0.0159029614 -0.0286789819
0.0308314653 -0.0155984285 -0.0235265745
0.0332007002 -0.0093691503 -0.0239967416
0.0344474345 -0.0088036630 -0.0198396438
0.0347008081 -0.0013128988 -0.0231006028
0.0326739597 0.0042448605 -0.0301127888
0.0327059863 0.0071200357 -0.0276615141
0.0318839451 0.0087920010 -0.0290213351
0.0349809914 0.0064522923 -0.0200524038
0.0305639150 0.0121995199 -0.0304470580
0.0299599275 0.0164755602 -0.0248242523
0.0240323492 0.0230058690 -0.0283690787
0.0237401066 0.0235119645 -0.0279258943
0.0178798780 0.0277468713 -0.0293558252
0.0211301246 0.0286600503 -0.0195375717
0.0214340100 0.0273868868 -0.0228001292
0.0104599754 0.0313097494 -0.0294499376
0.0090743500 0.0327956473 -0.0261857333
0.0038223315 0.0325592099 -0.0301631413
0.0046789652 0.0336618831 -0.0255962800
-0.0009733092 0.0334323122 -0.0278280287
-0.0049165962 0.0349368352 -0.0209097197
-0.0103113216 0.0315276294 -0.0286538472
-0.0072605852 0.0323685407 -0.0292562299
-0.0092298395 0.0334482140 -0.0230797840
-0.0151719222 0.0313262480 -0.0231770514
-0.0207235425 0.0273438610 -0.0249703473
-0.0232228379 0.0237629046 -0.0284536568
-0.0246952366 0.0223022345 -0.0284250735
-0.0284407306 0.0168900608 -0.0290209627
-0.0298476388 0.0174576121 -0.0234023975
-0.0301738122 0.0141665896 -0.0288547793
-0.0306949867 0.0140946269 -0.0271477458
-0.0336371845 0.0106984982 -0.0206727038
-0.0325393892 0.0023295202 -0.0307293076
-0.0341521681 0.0022703991 -0.0247120321
-0.0327677484 -0.0014155818 -0.0306931644
-0.0331827870 -0.0073970940 -0.0259000459
-0.0300004512 -0.0137537250 -0.0294524739
-0.0303607550 -0.0116925914 -0.0310511115
-0.0322802194 -0.0141431145 -0.0209507778
-0.0273647559 -0.0180140587 -0.0302400155
-0.0252941494 -0.0223214914 -0.0273357345
-0.0225855969 -0.0247575537 -0.0273812833
-0.0225417880 -0.0274179881 -0.0200253512
-0.0183114461 -0.0286619226 -0.0258397748
-0.0143495032 -0.0323922383 -0.0205742670
-0.0176967524 -0.0299132962 -0.0227986759
-0.0109510066 -0.0322824967 -0.0254721186
-0.0053611460 -0.0333403358 -0.0270759760
-0.0006137264 -0.0335386154 -0.0272584383
-0.0024367182 -0.0351364957 -0.0210555774
0.0040146716 -0.0342901680 -0.0240554749
0.0075641702 -0.0341774973 -0.0217774400
0.0134006621 -0.0297650171 -0.0306490957
0.0139904986 -0.0307660906 -0.0263035202
0.0154678433 -0.0315058037 -0.0214397930
0.0183894773 -0.0276907957 -0.0288153218
-0.0123050188 0.0192530633 -0.0320000015
-0.0162388020 0.0274916965 -0.0320000015
-0.0082256138 0.0136984236 -0.0320000015
-0.0118274490 0.0070771899 -0.0320000015
-0.0221944465 0.0153466999 -0.0320000015
-0.0197443717 0.0140413059 -0.0320000015
-0.0175441951 0.0148905765 -0.0320000015
-0.0247108915 0.0202524818 -0.0320000015
-0.0078991558 -0.0009877859 -0.0320000015
-0.0171593425 0.0018116719 -0.0320000015
-0.0190069443 0.0028297308 -0.0320000015
-0.0308908327 0.0084620426 -0.0320000015
-0.0314023597 0.0066981228 -0.0320000015
0.0070721371 -0.0059193048 -0.0320000015
0.0087334734 -0.0026869495 -0.0320000015
0.0104594349 -0.0057783825 -0.0320000015
0.0188673704 -0.0114082721 -0.0320000015
0.0136779988 -0.0116038591 -0.0320000015
0.0164226477 -0.0145643885 -0.0320000015
0.0162508674 0.0024457349 -0.0320000015
0.0230929070 0.0002795459 -0.0320000015
0.0316690222 -0.0019897001 -0.0320000015
0.0272521838 -0.0062987540 -0.0320000015
0.0257389168 -0.0037051235 -0.0320000015
0.0168753598 -0.0037860732 -0.0320000015
0.0175880274 0.0124856453 -0.0320000015
0.0204612544 0.0136057078 -0.0320000015
0.0226963903 0.0129732427 -0.0320000015
0.0237448310 0.0086802026 -0.0320000015
0.0233843851 0.0046751678 -0.0320000015
-0.0064620840 -0.0047069124 -0.0320000015
-0.0253381732 -0.0124882513 -0.0320000015
-0.0198368517 -0.0069597870 -0.0320000015
-0.0282483959 -0.0049033428 -0.0320000015
-0.0193099404 -0.0031753412 -0.0320000015
-0.0082429749 -0.0085643989 -0.0320000015
-0.0217068450 -0.0224713992 -0.0320000015
-0.0170459585 -0.0170630733 -0.0320000015
-0.0208772780 -0.0182198936 -0.0320000015
-0.0257951689 -0.0176993953 -0.0320000015
-0.0041251831 -0.0225769740 -0.0320000015
-0.0075858143 -0.0288164213 -0.0320000015
-0.0081576756 -0.0289443814 -0.0320000015
-0.0170043393 -0.0259009558 -0.0320000015
-0.0097950039 -0.0196005978 -0.0320000015
0.0127057878 -0.0168719803 -0.0320000015
0.0150342476 -0.0189058841 -0.0320000015
0.0070486305 -0.0148172206 -0.0320000015
0.0109282134 -0.0180594180 -0.0320000015
0.0058967046 -0.0141732394 -0.0320000015
0.0049616185 -0.0210598688 -0.0320000015
0.0027739758 -0.0261757609 -0.0320000015
-0.0011543279 -0.0264612500 -0.0320000015
-0.0004783563 -0.0198209266 -0.0320000015
0.0053910449 0.0129411397 -0.0320000015
0.0149929926 0.0227091812 -0.0320000015
0.0201351019 0.0239567628 -0.0320000015
0.0176161098 0.0162317113 -0.0320000015
0.0170457573 0.0179775773 -0.0320000015
-0.0084928077 0.0280286338 -0.0320000015
-0.0058464811 0.0207549624 -0.0320000015
-0.0047628578 0.0213275917 -0.0320000015
-0.0018555313 0.0266593480 -0.0320000015
-0.0022168328 0.0094070997 -0.0320000015
0.0004258076 0.0220028802 -0.0320000015
0.0042806286 0.0184405353 -0.0320000015
0.0028157367 0.0213181508 -0.0320000015
0.0119508293 0.0246098691 -0.0320000015
0.0102906502 0.0216410936 -0.0320000015
0.0064734475 0.0043406994 -0.0348855058
-0.0033354584 0.0070686061 -0.0348872101
-0.0070094446 -0.0033487890 -0.0350396300
0.0018829002 -0.0075535478 -0.0353993277
0.0026249472 0.0051921974 -0.0357500017
-0.0060971513 0.0031750897 -0.0473197857
-0.0058787289 0.0036521631 -0.0497098187
-0.0059568885 0.0034814485 -0.0696179178
-0.0054903085 0.0042702522 -0.0589593145
-0.0051006249 0.0046323485 -0.0683966005
-0.0036211139 0.0059782757 -0.0655955165
-0.0023658452 0.0064450302 -0.0684464848
-0.0006117392 0.0068925929 -0.0559251106
0.0004437088 0.0068538082 -0.0624361258
0.0033159599 -0.0052522352 -0.0707499981
0.0001690496 0.0041339110 -0.0707499981
-0.0038205101 0.0048581965 -0.0707499981
-0.0062494703 0.0007053902 -0.0584355126
-0.0065822205 0.0012452604 -0.0570722560
-0.0063642971 0.0008916907 -0.0704515356
-0.0042868806 -0.0024788117 -0.0602172702
-0.0051968648 -0.0010024086 -0.0359138685
-0.0018928179 -0.0063630565 -0.0599058780
-0.0032380069 -0.0041805559 -0.0482754897
0.0066896110 -0.0014194959 -0.0466115369
0.0052338431 0.0009424132 -0.0703112390
0.0048539095 0.0015588362 -0.0595949883
0.0044399044 0.0022305384 -0.0697505947
0.0049830317 0.0013493420 -0.0375143525
0.0035272869 0.0037112138 -0.0494376634
0.0060409365 -0.0003670546 -0.0389939265
0.0025861439 0.0052381704 -0.0464155791
-0.0257525184 0.0554925800 -0.0178465880
-0.0214789017 0.0573797012 -0.0174487986
-0.0117021750 0.0597564825 -0.0184215548
-0.0070880588 0.0602675947 -0.0187006964
0.0062607692 0.0618512809 -0.0155511668
0.0120230545 0.0610148606 -0.0156606821
0.0192218436 0.0593858635 -0.0152007169
0.0307232526 0.0545810602 -0.0145308159
0.0331473816 0.0532747068 -0.0145251558
0.0447718147 0.0439994931 -0.0143986568
0.0494922906 0.0382847320 -0.0147977287
0.0516209662 0.0339284474 -0.0163593763
0.0564360743 0.0267923632 -0.0148740650
0.0581226241 0.0224103365 -0.0153061959
0.0602161343 0.0153840526 -0.0156375402
0.0599567514 0.0091634737 -0.0190087851
0.0612836501 0.0002541848 -0.0174984049
0.0611005975 -0.0071410161 -0.0170135308
0.0591064199 -0.0147639519 -0.0182630037
0.0565686756 -0.0269848759 -0.0145429435
0.0537057066 -0.0304300552 -0.0164629085
0.0507169269 -0.0355853950 -0.0160569036
0.0456964905 -0.0404535138 -0.0181017537
0.0410424916 -0.0463556060 -0.0162163363
0.0352762323 -0.0508087116 -0.0163816376
0.0251724913 -0.0573241363 -0.0145818851
0.0191251196 -0.0583359402 -0.0171867365
0.0124289060 -0.0609342192 -0.0154880222
0.0059676615 -0.0620314508 -0.0152767141
-0.0008837019 -0.0622013465 -0.0155882507
-0.0094366289 -0.0607126844 -0.0171403993
-0.0171115911 -0.0579668953 -0.0192562516
-0.0267527298 -0.0553789814 -0.0169583684
-0.0338047755 -0.0505581682 -0.0184792874
-0.0400735317 -0.0461939451 -0.0177688325
-0.0431724729 -0.0425705548 -0.0188183772
-0.0511799904 -0.0338666669 -0.0174615716
-0.0528115288 -0.0297006348 -0.0189042064
-0.0580248960 -0.0209864972 -0.0166822032
-0.0584321919 -0.0153716342 -0.0192846835
-0.0620212538 -0.0067391649 -0.0151692935
-0.0617708875 -0.0005512594 -0.0163838379
-0.0607186977 0.0094712517 -0.0172857497
-0.0596067567 0.0155640339 -0.0168131747
-0.0568434840 0.0227210448 -0.0176564203
-0.0528536899 0.0296304389 -0.0190366789
-0.0497770316 0.0343561143 -0.0191493463
-0.0470491990 0.0380889235 -0.0190771877
-0.0409867374 0.0449814150 -0.0183319524
-0.0327264397 0.0513877552 -0.0183259218
-0.0274993429 0.0572972266 -0.0117840680
-0.0231591838 0.0589626980 -0.0122813936
-0.0135683038 0.0620081810 -0.0119391029
-0.0039082163 0.0639093960 -0.0103850669
-0.0015591090 0.0628948698 -0.0138030480
0.0116526497 0.0621533317 -0.0130317805
0.0156546997 0.0616031000 -0.0115632246
0.0238417824 0.0582093837 -0.0137961873
0.0312920970 0.0553232034 -0.0116095741
0.0395462209 0.0493436533 -0.0130037741
0.0449222937 0.0457275219 -0.0098882871
0.0505035873 0.0383138244 -0.0124771173
0.0529472338 0.0351150648 -0.0116568718
0.0548290607 0.0307347487 -0.0141956191
0.0604832725 0.0184200305 -0.0128631976
0.0623735141 0.0113337697 -0.0122404752
0.0630799392 0.0043273028 -0.0127274307
0.0634935167 -0.0045298583 -0.0114061920
0.0623423754 -0.0123419679 -0.0117575751
0.0611288137 -0.0158735575 -0.0129847803
0.0586891015 -0.0231970444 -0.0131533031
0.0538824095 -0.0338375584 -0.0114764833
0.0487084901 -0.0403969379 -0.0127023729
0.0477966692 -0.0417881100 -0.0121117796
0.0421375202 -0.0472045339 -0.0128166334
0.0364421033 -0.0524210094 -0.0109429715
0.0262399980 -0.0584364971 -0.0099079466
0.0218057355 -0.0596249805 -0.0120219359
0.0111367445 -0.0632123773 -0.0094804093
0.0037192774 -0.0641952935 -0.0090816956
-0.0002019336 -0.0631459731 -0.0133366237
-0.0090566806 -0.0626427870 -0.0126544905
-0.0160312538 -0.0622894009 -0.0093902902
-0.0272657030 -0.0577807910 -0.0104663397
-0.0335229370 -0.0546664639 -0.0096759562
-0.0414310444 -0.0488576645 -0.0099563711
-0.0450790644 -0.0454888745 -0.0100065125
-0.0503316657 -0.0398206423 -0.0095604374
-0.0572707700 -0.0296042874 -0.0087363870
-0.0577741200 -0.0262239444 -0.0120259334
-0.0599944161 -0.0196303061 -0.0132024140
-0.0635171189 -0.0099686240 -0.0091107210
-0.0632709184 -0.0039637739 -0.0122401570
-0.0634334729 0.0045336397 -0.0115055373
-0.0633397043 0.0106753339 -0.0095911186
-0.0604802448 0.0206790621 -0.0103837566
-0.0582720603 0.0256776482 -0.0114253728
-0.0528709521 0.0362410169 -0.0097819252
-0.0486988742 0.0411614246 -0.0108926126
-0.0423199400 0.0480737636 -0.0099615877
-0.0374568521 0.0513066903 -0.0117142920
-0.0323670476 0.0548413519 -0.0113555538
-0.0268650135 0.0595873123 -0.0029704223
-0.0177812337 0.0623455314 -0.0061543174
-0.0147858018 0.0631176671 -0.0059867576
-0.0052178673 0.0645012370 -0.0070859891
0.0039663758 0.0645210893 -0.0079747764
0.0120803388 0.0639560791 -0.0049997338
0.0136661643 0.0631273034 -0.0078348590
0.0251209850 0.0598854221 -0.0053032548
0.0292107064 0.0576006995 -0.0077420701
0.0404706196 0.0505155568 -0.0073445540
0.0438808969 0.0472492702 -0.0083027839
0.0510432348 0.0400199694 -0.0060823088
0.0540032201 0.0354745398 -0.0074042260
0.0576150941 0.0290546778 -0.0080031877
0.0623063611 0.0178543970 -0.0067629731
0.0641499792 0.0110157894 -0.0045675876
0.0647940781 0.0029351876 -0.0061590415
0.0647434126 0.0009439815 -0.0069597658
0.0643624023 -0.0100829757 -0.0037468000
0.0622694657 -0.0182749441 -0.0054759575
0.0591820721 -0.0270955268 -0.0043015664
0.0565822380 -0.0321155080 -0.0043560388
0.0537813149 -0.0360223430 -0.0073590154
0.0462144011 -0.0458375582 -0.0041507645
0.0406782988 -0.0504985434 -0.0058183961
0.0362019282 -0.0542214715 -0.0037072501
0.0287446564 -0.0584432601 -0.0040420479
0.0196258548 -0.0621199068 -0.0037534307
0.0140626229 -0.0636651698 -0.0036560092
0.0001940980 -0.0653455026 -0.0031054569
-0.0018042246 -0.0647864838 -0.0063268014
-0.0075659459 -0.0645883514 -0.0051732105
-0.0119376045 -0.0634266387 -0.0078982935
-0.0235061012 -0.0605572497 -0.0058376940
-0.0281127265 -0.0583369036 -0.0064689446
-0.0367982635 -0.0532463073 -0.0071530877
-0.0409026575 -0.0497982093 -0.0085778660
-0.0489793963 -0.0423713187 -0.0070357725
-0.0526477246 -0.0379250499 -0.0056326378
-0.0572633539 -0.0300016868 -0.0075058215
-0.0605505545 -0.0230706331 -0.0064050870
-0.0617282778 -0.0187148650 -0.0082349213
-0.0640141943 -0.0081804352 -0.0080719649
-0.0643825800 -0.0029074104 -0.0085866805
-0.0645325380 0.0077501518 -0.0049200221
-0.0629004352 0.0141509769 -0.0083637935
-0.0610101759 0.0221806912 -0.0053354403
-0.0590295055 0.0272637211 -0.0048263940
-0.0546330986 0.0355480304 -0.0035476696
-0.0504216864 0.0405366100 -0.0070789243
-0.0440577827 0.0480317023 -0.0035454280
-0.0403294695 0.0505001103 -0.0080942953
-0.0307025113 0.0574492110 -0.0038059539
-0.0249417517 0.0603377694 0.0019576890
-0.0170021843 0.0630291970 0.0017056042
-0.0097510359 0.0645649503 0.0008330753
-0.0038044945 0.0652780823 -0.0018662406
0.0092794630 0.0646171491 0.0024513377
0.0125899255 0.0641438128 -0.0001162206
0.0206777498 0.0619932723 -0.0017340928
0.0257039606 0.0600342909 -0.0024523173
0.0342507597 0.0556844418 0.0006277813
0.0408701634 0.0510277417 -0.0003591535
0.0456010638 0.0467444492 0.0007113453
0.0488189753 0.0433423012 -0.0014117638
0.0538291341 0.0369327701 -0.0013151073
0.0593256737 0.0272806070 -0.0023444610
0.0626459074 0.0185910793 0.0021093608
0.0643604524 0.0111909686 0.0017251200
0.0653664521 0.0018882460 -0.0016532436
0.0652399953 -0.0019905087 -0.0014811580
0.0640234280 -0.0130276882 -0.0021038000
0.0637093144 -0.0146163643 -0.0001256505
0.0595912847 -0.0266548311 0.0027033294
0.0576000149 -0.0307832197 0.0025357406
0.0538274434 -0.0370389755 -0.0008213486
0.0493682711 -0.0428589799 0.0000156568
0.0426898983 -0.0494321563 0.0017606211
0.0363480759 -0.0542688257 0.0009942204
0.0276562725 -0.0591238162 0.0026734686
0.0231815440 -0.0611265302 0.0025468224
0.0131972422 -0.0639364648 0.0013488933
0.0065258272 -0.0649969860 0.0004132252
-0.0009616535 -0.0653412997 0.0000960300
-0.0057732460 -0.0650346625 -0.0002347154
-0.0127175487 -0.0640220605 0.0002146217
-0.0169828864 -0.0630971444 -0.0028468010
-0.0284481256 -0.0587556816 -0.0016993785
-0.0356536537 -0.0546895227 0.0002189534
-0.0439295296 -0.0484185341 0.0020108852
-0.0480349359 -0.0442184965 0.0007568832
-0.0520644932 -0.0393638553 -0.0020314253
-0.0574969187 -0.0309450704 -0.0010090915
-0.0614470998 -0.0222591100 0.0020747857
-0.0638019578 -0.0142374418 -0.0009782401
-0.0648843686 -0.0074880456 0.0016070503
-0.0653482894 0.0017769060 0.0024844687
-0.0650660100 0.0052398087 -0.0004033180
-0.0643533640 0.0112766875 -0.0008373666
-0.0615402320 0.0217485817 0.0021619049
-0.0595757570 0.0267993914 0.0020623134
-0.0551389664 0.0349570084 0.0008251642
-0.0495187592 0.0425216669 -0.0000373160
-0.0425382926 0.0495372820 0.0018561074
-0.0370776517 0.0537201618 0.0007376985
-0.0337495919 0.0559699899 0.0000094436
-0.0204980707 0.0612490510 0.0080106168
-0.0194418021 0.0622049216 0.0043402206
-0.0094589157 0.0641226160 0.0061510467
0.0025229571 0.0645590503 0.0077353717
-0.0011406202 0.0650867397 0.0041784089
0.0082656810 0.0646605093 0.0034790179
0.0152908215 0.0634154057 0.0031938450
0.0265141315 0.0596262383 0.0034952234
0.0342420301 0.0552876649 0.0053231953
0.0387972713 0.0521415235 0.0049132112
0.0462672331 0.0452804853 0.0072154402
0.0500937246 0.0415632298 0.0041721889
0.0554341284 0.0332797496 0.0075010866
0.0597208083 0.0252297221 0.0067112921
0.0612263429 0.0218450590 0.0047166689
0.0643535492 0.0099171040 0.0047994355
0.0646670596 0.0059180833 0.0051835827
0.0651485634 -0.0003080720 0.0039098811
0.0640323298 -0.0080572389 0.0081288851
0.0623393302 -0.0175411768 0.0063996413
0.0598985008 -0.0241409616 0.0077067531
0.0567284405 -0.0316059939 0.0052393977
0.0529715988 -0.0371115695 0.0072700549
0.0480530154 -0.0436229304 0.0057068263
0.0433259729 -0.0482378414 0.0065601778
0.0320315607 -0.0559694455 0.0084944782
0.0288751227 -0.0579140366 0.0069613039
0.0228326254 -0.0608608504 0.0053581263
0.0148757779 -0.0632066294 0.0057286160
0.0026739194 -0.0645165839 0.0077539459
-0.0008947180 -0.0648372617 0.0063758229
-0.0101711801 -0.0638158701 0.0075267904
-0.0216432901 -0.0607510059 0.0084621187
-0.0236662491 -0.0608570645 0.0035513241
-0.0242529240 -0.0606326616 0.0033014090
-0.0371267531 -0.0529458548 0.0077112410
-0.0424415345 -0.0490823105 0.0057718368
-0.0450741520 -0.0470802719 0.0038769222
-0.0538850779 -0.0367496661 0.0037007430
-0.0566611503 -0.0316328923 0.0055189571
-0.0603182670 -0.0236494863 0.0063336956
-0.0632707656 -0.0154853542 0.0040844083
-0.0648833981 -0.0071776226 0.0032351407
-0.0650424510 0.0003334319 0.0047138079
-0.0645110935 0.0089976583 0.0042616262
-0.0635942866 0.0142917493 0.0035235880
-0.0601388069 0.0251717339 0.0041142193
-0.0567469314 0.0321893827 0.0037093964
-0.0543910182 0.0353251166 0.0057701185
-0.0501143842 0.0407353568 0.0077855322
-0.0431043488 0.0480899108 0.0076328626
-0.0404205075 0.0504419695 0.0080606220
-0.0301615859 0.0571198005 0.0075356504
-0.0220645882 0.0591882566 0.0128930473
-0.0183953085 0.0611645712 0.0107706826
-0.0091767181 0.0623290010 0.0135031408
-0.0000272107 0.0631353344 0.0129881390
0.0059821722 0.0632672024 0.0117042596
0.0165389764 0.0608524722 0.0132698606
0.0215236133 0.0593229029 0.0131415951
0.0280659730 0.0577296181 0.0096501978
0.0340710928 0.0546314001 0.0091997580
0.0399511537 0.0487777892 0.0135901540
0.0495520868 0.0387724164 0.0139028602
0.0522361142 0.0371041914 0.0099783433
0.0549330577 0.0315617888 0.0126556663
0.0590888806 0.0225595587 0.0126900847
0.0609537792 0.0151313054 0.0141896410
0.0627496771 0.0091146475 0.0123826244
0.0629543249 0.0015392329 0.0138757197
0.0625109744 -0.0078185822 0.0135521411
0.0618625058 -0.0157512623 0.0107381202
0.0595101056 -0.0213378273 0.0130622371
0.0554506234 -0.0307443018 0.0121308020
0.0511435567 -0.0375404518 0.0119859433
0.0501665875 -0.0398109533 0.0100002880
0.0439065291 -0.0457735096 0.0121353047
0.0393962793 -0.0501291568 0.0109162094
0.0299005611 -0.0557901139 0.0128305305
0.0266831932 -0.0578155571 0.0111799193
0.0156090380 -0.0617450614 0.0115029254
0.0077945297 -0.0636578657 0.0100469573
0.0063337101 -0.0641024382 0.0088711762
-0.0076403070 -0.0636522826 0.0100636134
-0.0119097910 -0.0625717176 0.0111151063
-0.0192050192 -0.0614962271 0.0086778807
-0.0285402631 -0.0577815277 0.0086740511
-0.0360771203 -0.0533245389 0.0089749189
-0.0416813485 -0.0478597410 0.0120267188
-0.0466148436 -0.0443472691 0.0089637477
-0.0532086605 -0.0354788527 0.0105975338
-0.0547760231 -0.0332185429 0.0099485134
-0.0588906110 -0.0254765787 0.0095531408
-0.0614157348 -0.0182464913 0.0098842119
-0.0630255502 -0.0077553113 0.0118571033
-0.0638142741 -0.0020575277 0.0106065246
-0.0631270251 0.0095066522 0.0109573018
-0.0627060453 0.0126547361 0.0102311019
-0.0585479769 0.0246456637 0.0120402497
-0.0568357803 0.0292269006 0.0104079419
-0.0525201248 0.0361247383 0.0109744944
-0.0481990100 0.0425591790 0.0091107314
-0.0404915850 0.0484179039 0.0132206615
-0.0338559221 0.0546097418 0.0096223696
0.0288754522 -0.0537194774 0.0182827588
0.0237778264 -0.0580901994 0.0143321676
0.0199105844 -0.0592989129 0.0147064155
0.0113923938 -0.0611191240 0.0155020937
0.0037176683 -0.0622201313 0.0151598305
-0.0062916339 -0.0605384535 0.0184138248
-0.0133331720 -0.0606946202 0.0156239478
-0.0205415264 -0.0579118918 0.0171211932
-0.0256734736 -0.0562023495 0.0163264727
-0.0353361184 -0.0514132577 0.0151826935
-0.0432684684 -0.0429260467 0.0181396826
-0.0469172371 -0.0395854620 0.0173970814
-0.0536532347 -0.0277185598 0.0194577554
-0.0559050028 -0.0260990702 0.0166193061
-0.0583792350 -0.0169259556 0.0184871285
-0.0604334180 -0.0118717954 0.0168715991
-0.0604839778 -0.0044047995 0.0189086979
-0.0620445681 0.0031274143 0.0157356427
-0.0608010546 0.0103868256 0.0167096077
-0.0578345544 0.0193758770 0.0180519654
-0.0540655848 0.0269281926 0.0193066435
-0.0534022754 0.0310804133 0.0165656692
-0.0489449584 0.0382539594 0.0157594106
-0.0412277342 0.0449588693 0.0180198767
-0.0355200889 0.0496911062 0.0178477428
-0.0329572652 0.0534770855 0.0143716602
-0.0214320357 0.0566478955 0.0189517370
-0.0159224649 0.0585171014 0.0188114534
-0.0083961949 0.0602890304 0.0183154268
-0.0029995709 0.0606805228 0.0187183060
0.0060032665 0.0616558180 0.0160367720
0.0137904815 0.0604318042 0.0159410835
0.0216186194 0.0567136064 0.0186789157
0.0307486258 0.0521018902 0.0191908870
0.0363265259 0.0485319406 0.0188707416
0.0409208452 0.0446902932 0.0188888488
0.0456083010 0.0400211402 0.0187230516
0.0535880038 0.0317231927 0.0154410077
0.0575683508 0.0248086958 0.0145861926
0.0581144824 0.0234987135 0.0145502975
0.0601574411 0.0095432255 0.0184194347
0.0620194701 0.0079837598 0.0148252605
0.0619366904 -0.0032021155 0.0158528325
0.0612800726 -0.0110669612 0.0153223265
0.0590483470 -0.0187795965 0.0160057152
0.0559310940 -0.0264102314 0.0162863123
0.0551686177 -0.0297495245 0.0144784695
0.0497463858 -0.0380586739 0.0145079378
0.0430290225 -0.0451114329 0.0152277235
0.0382234469 -0.0483161950 0.0167164934
0.0320141766 -0.0525257388 0.0170500563
0.0078586153 -0.0120395727 0.0320000015
-0.0006114556 -0.0286097466 0.0320000015
0.0030778027 -0.0163637072 0.0320000015
0.0009112611 -0.0274480948 0.0320000015
0.0028719650 -0.0121734575 0.0320000015
0.0085761215 -0.0305447586 0.0320000015
0.0084128215 -0.0144994139 0.0320000015
0.0120876100 -0.0202753772 0.0320000015
-0.0141954113 -0.0263050258 0.0320000015
-0.0137704576 -0.0157059716 0.0320000015
-0.0069498051 -0.0132049677 0.0320000015
-0.0138373754 -0.0267197527 0.0320000015
-0.0099082976 -0.0301295275 0.0320000015
-0.0050467342 -0.0200074887 0.0320000015
-0.0035156979 -0.0270064804 0.0320000015
-0.0014545029 -0.0124807942 0.0320000015
-0.0074229948 -0.0014199835 0.0320000015
-0.0203634597 -0.0054745439 0.0320000015
-0.0232043933 -0.0088320169 0.0320000015
-0.0137934517 -0.0093233917 0.0320000015
-0.0167723633 -0.0104592505 0.0320000015
-0.0148857606 -0.0115789865 0.0320000015
-0.0133851323 -0.0119429062 0.0320000015
-0.0108164019 -0.0107131956 0.0320000015
-0.0238573253 0.0136494235 0.0320000015
-0.0226846371 0.0094253066 0.0320000015
-0.0249961255 0.0145234552 0.0320000015
-0.0081205480 0.0010019682 0.0320000015
-0.0304505381 0.0080627731 0.0320000015
-0.0102882858 0.0002166768 0.0320000015
-0.0143559499 0.0012310655 0.0320000015
-0.0304035770 -0.0029344093 0.0320000015
-0.0079253302 0.0192815728 0.0320000015
-0.0037545576 0.0063045030 0.0320000015
-0.0071648963 0.0135469160 0.0320000015
-0.0124772416 0.0151641969 0.0320000015
-0.0068515084 0.0109022877 0.0320000015
-0.0148496747 0.0138353293 0.0320000015
-0.0098565707 0.0078747240 0.0320000015
-0.0100571152 0.0091723091 0.0320000015
0.0048455282 0.0205369186 0.0320000015
0.0039805021 0.0192392695 0.0320000015
0.0063048281 0.0199492663 0.0320000015
-0.0018429059 0.0224894881 0.0320000015
-0.0001846078 0.0160802799 0.0320000015
-0.0022492854 0.0321558371 0.0320000015
-0.0040904320 0.0157206742 0.0320000015
-0.0052442044 0.0194102819 0.0320000015
0.0186989834 0.0101556215 0.0320000015
0.0203702980 0.0119639245 0.0320000015
0.0234001524 0.0166760841 0.0320000015
0.0117606057 0.0165501923 0.0320000015
0.0081640887 0.0073730298 0.0320000015
0.0175456810 0.0229424590 0.0320000015
0.0085511219 0.0209513886 0.0320000015
0.0116666649 0.0227656525 0.0320000015
0.0323958069 0.0002769800 0.0320000015
0.0279820275 -0.0033677171 0.0320000015
0.0295796024 -0.0016356220 0.0320000015
0.0293979309 0.0058209080 0.0320000015
0.0284379802 0.0014179573 0.0320000015
0.0229125195 0.0012948009 0.0320000015
0.0150936616 0.0077778782 0.0320000015
0.0257071721 0.0121444110 0.0320000015
0.0262675658 0.0097535397 0.0320000015
0.0147270737 -0.0183916886 0.0320000015
0.0080685715 -0.0079773336 0.0320000015
0.0255798744 -0.0132384467 0.0320000015
0.0180504907 -0.0087579115 0.0320000015
0.0180518091 -0.0128688411 0.0320000015
0.0222246292 -0.0065513344 0.0320000015
0.0167880003 -0.0073358649 0.0320000015
0.0206894646 -0.0069289108 0.0320000015
0.0171447908 -0.0283210927 0.0296836047
0.0131135840 -0.0302970105 0.0297349759
0.0119505603 -0.0306591934 0.0298162115
0.0075376195 -0.0332606460 0.0257468769
0.0041396454 -0.0337668067 0.0255429266
-0.0009298484 -0.0346127255 0.0240303211
-0.0015778578 -0.0345242206 0.0240830549
-0.0058597015 -0.0340853887 0.0233774007
-0.0096461468 -0.0339750259 0.0212739991
-0.0140016973 -0.0313593537 0.0243592969
-0.0135490282 -0.0328454589 0.0197990248
-0.0196988165 -0.0263601210 0.0297011443
-0.0209055689 -0.0269807829 0.0251892264
-0.0233195143 -0.0243092774 0.0271159073
-0.0276362746 -0.0219653210 0.0208484485
-0.0293619471 -0.0191842287 0.0219749470
-0.0311998970 -0.0134031578 0.0261981698
-0.0312909239 -0.0097118097 0.0302804401
-0.0331063373 -0.0085011626 0.0248668513
-0.0323650858 -0.0055942378 0.0303809017
-0.0338840016 -0.0038356316 0.0256122034
-0.0341657810 0.0011705897 0.0250947396
-0.0328169808 0.0037585411 0.0296785751
-0.0338469685 0.0076224031 0.0229480936
-0.0308388077 0.0119099983 0.0293628540
-0.0308380064 0.0142847962 0.0255917962
-0.0283201146 0.0165778332 0.0305210721
-0.0282883120 0.0184130212 0.0270066101
-0.0268147721 0.0234215257 0.0196713434
-0.0215550205 0.0255982036 0.0276104240
-0.0190452302 0.0272581824 0.0285631430
-0.0128076830 0.0301981088 0.0301149795
-0.0115776677 0.0312053418 0.0286362466
-0.0085783952 0.0322989287 0.0279213303
-0.0060333113 0.0331463427 0.0267334912
-0.0037603783 0.0325757414 0.0305576125
-0.0008714085 0.0343032524 0.0245507381
0.0008196950 0.0353554459 0.0204119639
0.0090883544 0.0317562575 0.0291955677
0.0088815034 0.0340764461 0.0209767771
0.0154063878 0.0286903559 0.0309294941
0.0142462225 0.0323535818 0.0208863843
0.0187874209 0.0301423850 0.0200949676
0.0197905868 0.0279776917 0.0253296684
0.0244841360 0.0242970597 0.0239292702
0.0278227143 0.0186456323 0.0274696062
0.0281318408 0.0218210865 0.0196774529
0.0312893699 0.0159994352 0.0218381802
0.0328527567 0.0090270940 0.0260426392
0.0339075578 0.0065779636 0.0236504443
0.0350249036 0.0037203198 0.0210488775
0.0339821901 0.0024201419 0.0256320925
0.0320861488 -0.0039608100 0.0318895653
0.0324079936 -0.0056081577 0.0301433630
0.0307935895 -0.0120152160 0.0292561875
0.0326976561 -0.0106251365 0.0241101852
0.0262321487 -0.0194522769 0.0310257550
0.0293024925 -0.0190666957 0.0219696906
0.0260275973 -0.0201395316 0.0303233936
0.0233821368 -0.0236973727 0.0282047235
0.0219114562 -0.0251339890 0.0282926729
-0.0288264284 0.0238558385 0.0195000004
-0.0279158824 0.0231020757 0.0195000004
-0.0276222099 0.0263705000 0.0195000004
-0.0302222426 0.0357760532 0.0195000004
-0.0278940213 0.0336946863 0.0195000004
-0.0285804494 0.0297762828 0.0195000004
-0.0338918228 0.0390997346 0.0195000004
-0.0289943438 0.0287656122 0.0195000004
-0.0367676357 0.0345726311 0.0195000004
-0.0083793340 -0.0411455222 0.0195000004
-0.0069731716 -0.0550818790 0.0195000004
-0.0201728170 -0.0502814662 0.0195000004
-0.0172187510 -0.0446527509 0.0195000004
-0.0185864027 -0.0485058821 0.0195000004
-0.0134699763 -0.0423271786 0.0195000004
-0.0153890162 -0.0507683003 0.0195000004
-0.0100110949 -0.0461808563 0.0195000004
-0.0124604620 -0.0552048645 0.0195000004
0.0271956133 -0.0511628196 0.0195000004
-0.0010513759 -0.0518554698 0.0195000004
-0.0011020190 -0.0407160514 0.0195000004
0.0019727159 -0.0495381570 0.0195000004
0.0000891238 -0.0514335507 0.0195000004
0.0042777140 -0.0378669695 0.0195000004
0.0049614523 -0.0423552661 0.0195000004
0.0080484515 -0.0498884284 0.0195000004
0.0103347505 -0.0533255684 0.0195000004
0.0144598096 -0.0578690497 0.0195000004
0.0146900199 -0.0344689414 0.0195000004
0.0108700611 -0.0460623148 0.0195000004
0.0157641900 -0.0562251803 0.0195000004
0.0168370025 -0.0483200711 0.0195000004
0.0205319998 -0.0453641770 0.0195000004
0.0207891761 -0.0449185178 0.0195000004
-0.0239495699 -0.0291761264 0.0195000004
-0.0213419248 -0.0288034445 0.0195000004
-0.0314377007 -0.0457944983 0.0195000004
-0.0202432643 -0.0352567345 0.0195000004
-0.0266806714 -0.0507041372 0.0195000004
-0.0234903090 -0.0505485786 0.0195000004
-0.0377444048 -0.0314276956 0.0195000004
-0.0303239281 -0.0227756177 0.0195000004
-0.0396583615 -0.0357588992 0.0195000004
-0.0400805241 -0.0383005547 0.0195000004
-0.0337630369 -0.0406099277 0.0195000004
-0.0355581053 -0.0436155024 0.0195000004
-0.0480519119 0.0313717353 0.0195000004
-0.0480073536 0.0349927684 0.0195000004
-0.0483439121 0.0265356500 0.0195000004
-0.0510058133 0.0231564347 0.0195000004
-0.0347600611 0.0164277394 0.0195000004
-0.0438487112 0.0187408950 0.0195000004
-0.0465233315 0.0199850614 0.0195000004
-0.0174706590 0.0401227899 0.0195000004
-0.0180218158 0.0388640475 0.0195000004
-0.0262069255 0.0437857502 0.0195000004
-0.0286192233 0.0474025357 0.0195000004
-0.0302377227 0.0406255561 0.0195000004
-0.0336252627 0.0453857289 0.0195000004
-0.0092849675 0.0367679396 0.0195000004
-0.0056441996 0.0369371204 0.0195000004
-0.0159385422 0.0533102010 0.0195000004
-0.0141459626 0.0570515585 0.0195000004
-0.0236126973 0.0550364489 0.0195000004
-0.0178138052 0.0559887043 0.0195000004
-0.0474507877 -0.0249071922 0.0195000004
-0.0408731945 -0.0217472372 0.0195000004
-0.0383510958 -0.0210113631 0.0195000004
-0.0493331177 -0.0291841513 0.0195000004
-0.0462682760 -0.0281012126 0.0195000004
-0.0377895697 -0.0283971119 0.0195000004
-0.0461535537 -0.0386254038 0.0195000004
-0.0347084716 -0.0090770585 0.0195000004
-0.0342939650 -0.0124974287 0.0195000004
-0.0577952952 -0.0161037250 0.0195000004
-0.0532644707 -0.0144028069 0.0195000004
-0.0435598654 -0.0177084706 0.0195000004
-0.0439588518 -0.0195264583 0.0195000004
-0.0545167027 0.0215957547 0.0195000004
-0.0556460248 0.0204880457 0.0195000004
-0.0521841496 0.0106862074 0.0195000004
-0.0501878859 0.0135582127 0.0195000004
-0.0373858233 0.0040949570 0.0195000004
-0.0410552278 0.0070110761 0.0195000004
-0.0417178059 0.0040602349 0.0195000004
-0.0509009493 0.0047033821 0.0195000004
-0.0583249620 0.0033742237 0.0195000004
-0.0377694943 0.0029122502 0.0195000004
-0.0430330509 0.0001747232 0.0195000004
-0.0548633724 -0.0004359488 0.0195000004
-0.0561076254 -0.0047302216 0.0195000004
-0.0468705702 -0.0071888302 0.0195000004
-0.0593299892 -0.0101635944 0.0195000004
0.0260946811 0.0267349216 0.0195000004
0.0333731108 0.0389311157 0.0195000004
0.0297781728 0.0443563696 0.0195000004
0.0257900618 0.0359220725 0.0195000004
0.0230160868 0.0348773185 0.0195000004
0.0222036213 0.0334559939 0.0195000004
0.0313673361 0.0233561732 0.0195000004
0.0349555604 0.0269220169 0.0195000004
0.0382766364 0.0304322134 0.0195000004
0.0458066415 0.0375964535 0.0195000004
0.0395801784 0.0334498833 0.0195000004
0.0357207458 0.0414634403 0.0195000004
0.0373914039 0.0433991650 0.0195000004
-0.0018997021 0.0367396583 0.0195000004
0.0028319429 0.0370942014 0.0195000004
0.0023907239 0.0558751439 0.0195000004
-0.0002160900 0.0512458210 0.0195000004
-0.0040032078 0.0435281314 0.0195000004
-0.0032844632 0.0439611890 0.0195000004
0.0239552096 0.0514563623 0.0195000004
0.0268724970 0.0529436729 0.0195000004
0.0194456842 0.0545525370 0.0195000004
0.0197344092 0.0545541515 0.0195000004
0.0144047732 0.0496054702 0.0195000004
0.0156649538 0.0454787963 0.0195000004
0.0143710595 0.0505375125 0.0195000004
0.0112810749 0.0460559160 0.0195000004
0.0100570240 0.0509113634 0.0195000004
0.0053525686 0.0493927277 0.0195000004
0.0044193314 0.0572634595 0.0195000004
0.0381496982 0.0145409805 0.0195000004
0.0494729631 0.0214729343 0.0195000004
0.0399605689 0.0202980193 0.0195000004
0.0522253325 0.0279117095 0.0195000004
0.0349796972 0.0204697085 0.0195000004
0.0437275563 0.0285919561 0.0195000004
0.0442765664 0.0079278004 0.0195000004
0.0424694773 0.0078687342 0.0195000004
0.0552121015 0.0097912739 0.0195000004
0.0557999571 0.0122689355 0.0195000004
0.0445177802 0.0133242681 0.0195000004
0.0512927331 0.0202312850 0.0195000004
0.0434682087 -0.0126431767 0.0195000004
0.0427860529 -0.0156300802 0.0195000004
0.0358030943 -0.0125396998 0.0195000004
0.0565745060 -0.0174517008 0.0195000004
0.0481979413 -0.0144266019 0.0195000004
0.0471396886 -0.0088287156 0.0195000004
0.0587082942 -0.0094394729 0.0195000004
0.0388718115 -0.0017674574 0.0195000004
0.0396678133 -0.0053128877 0.0195000004
0.0435211710 0.0001842840 0.0195000004
0.0546879798 -0.0010264772 0.0195000004
0.0503174609 0.0052514689 0.0195000004
0.0492185297 0.0045735861 0.0195000004
0.0333630048 -0.0198879277 0.0195000004
0.0348421566 -0.0188615660 0.0195000004
0.0496462072 -0.0263327869 0.0195000004
0.0506948364 -0.0270672227 0.0195000004
0.0463392840 -0.0217556154 0.0195000004
0.0544463905 -0.0251371978 0.0195000004
0.0303681774 -0.0493407348 0.0195000004
0.0311336761 -0.0491491422 0.0195000004
0.0326023408 -0.0463799954 0.0195000004
0.0288047574 -0.0398060367 0.0195000004
0.0379147573 -0.0457015164 0.0195000004
0.0336358230 -0.0415101622 0.0195000004
0.0344433605 -0.0380401818 0.0195000004
0.0354658190 -0.0384451725 0.0195000004
0.0398593357 -0.0425303588 0.0195000004
0.0410835743 -0.0434430809 0.0195000004
0.0352141061 -0.0288478583 0.0195000004
0.0359605181 -0.0275704296 0.0195000004
