0.0276453005 0.0132760834 -0.0025000009
0.0287116002 0.0139468211 -0.0025000009
0.0261378281 0.0149101539 -0.0025000009
0.0262987885 0.0136458491 -0.0025000009
0.0279033832 0.0151144361 -0.0025000009
0.0299691308 0.0171015993 -0.0025000009
0.0153598773 -0.0079453277 -0.0025000009
0.0131474383 -0.0059127554 -0.0025000009
0.0162124433 -0.0094800098 -0.0025000009
0.0123894664 -0.0090266046 -0.0025000009
0.0157677035 -0.0072597678 -0.0025000009
0.0148465752 -0.0053666089 -0.0025000009
0.0149111561 -0.0029035249 -0.0025000009
0.0158416321 -0.0064610275 -0.0025000009
0.0098118888 -0.0065738283 -0.0025000009
0.0122714969 -0.0077287497 -0.0025000009
0.0084438563 -0.0019514804 -0.0025000009
0.0087782246 -0.0003176228 -0.0025000009
0.0102334995 -0.0042144721 -0.0025000009
0.0139121369 0.0004515203 -0.0025000009
0.0180978627 -0.0084708104 -0.0025000009
0.0120836257 -0.0098097439 -0.0025000009
0.0095718622 0.0034009331 -0.0025000009
0.0142388134 -0.0070159215 -0.0025000009
0.0113012727 0.0005243355 -0.0025000009
0.0093649946 -0.0085661782 -0.0025000009
0.0170887668 -0.0031998320 -0.0025000009
0.0193973995 -0.0099250837 -0.0025000009
0.0122411502 -0.0010657109 -0.0025000009
0.0139438172 -0.0048120975 -0.0025000009
0.0133843551 -0.0062181225 -0.0025000009
0.0140755402 -0.0075032538 -0.0025000009
0.0171840821 -0.0034229229 -0.0025000009
0.0085883994 -0.0091212509 -0.0025000009
0.0221545995 0.0064153540 -0.0025000009
0.0156068892 0.0087423953 -0.0025000009
0.0205567768 -0.0052792079 -0.0025000009
0.0213160542 -0.0071724445 -0.0025000009
0.0129902413 0.0097948146 -0.0025000009
0.0192614613 0.0038692975 -0.0025000009
0.0213491592 0.0087667352 -0.0025000009
0.0194630068 -0.0006871673 -0.0025000009
0.0156493145 0.0086021778 -0.0025000009
0.0213676768 0.0091491299 -0.0025000009
0.0193765760 -0.0042341526 -0.0025000009
0.0222712452 -0.0080653989 -0.0025000009
0.0205859944 0.0060894267 -0.0025000009
0.0178525063 0.0002903870 -0.0025000009
0.0131867520 0.0048703931 -0.0025000009
0.0147140315 0.0021623697 -0.0025000009
0.0191460208 0.0050946136 -0.0025000009
0.0179342845 0.0007420004 -0.0025000009
0.0146232133 0.0073908790 -0.0025000009
0.0173730776 0.0089318607 -0.0025000009
0.0179685228 0.0088844318 -0.0025000009
0.0222845654 0.0034044429 -0.0025000009
0.0213087307 -0.0031823197 -0.0025000009
0.0193757817 0.0028346428 -0.0025000009
0.0173512361 -0.0000040753 -0.0025000009
0.0164346583 0.0096511190 -0.0025000009
0.0168130531 0.0062439946 -0.0025000009
-0.0067444372 -0.0088954295 -0.0025000009
-0.0074847052 -0.0036148195 -0.0025000009
-0.0072408146 0.0014109823 -0.0025000009
-0.0068809180 -0.0085953650 -0.0025000009
-0.0076752686 0.0106430076 -0.0025000009
-0.0063594191 -0.0140848119 -0.0025000009
-0.0070218932 -0.0042638396 -0.0025000009
-0.0060276888 -0.0076925554 -0.0025000009
-0.0069531762 -0.0118183872 -0.0025000009
-0.0063859226 -0.0023828798 -0.0025000009
0.0352164402 -0.0057241941 -0.0025000009
0.0353816969 -0.0041885364 -0.0025000009
-0.0040093725 0.0050671840 -0.0025000009
-0.0029087053 -0.0038365708 -0.0025000009
-0.0011776616 -0.0110922822 -0.0025000009
0.0351409324 0.0171359445 -0.0025000009
0.0305390739 0.0187138832 -0.0025000009
0.0344614556 0.0176761033 -0.0025000009
0.0289976238 0.0137548879 -0.0025000009
0.0274648372 0.0118228499 -0.0025000009
0.0237012347 0.0086953665 -0.0025000009
0.0233349503 0.0096408962 -0.0025000009
0.0229113423 -0.0063982071 -0.0025000009
0.0273154410 0.0054823231 -0.0025000009
0.0263929504 0.0063566404 -0.0025000009
0.0254563207 0.0093867182 -0.0025000009
0.0232187240 -0.0017045715 -0.0025000009
0.0257039735 -0.0009147533 -0.0025000009
0.0239066939 -0.0017087128 -0.0025000009
0.0281522378 0.0108851077 -0.0025000009
0.0225535119 -0.0065801421 -0.0025000009
0.0238964353 0.0033732191 -0.0025000009
0.0244497008 -0.0034096726 -0.0025000009
0.0261848270 0.0001551694 -0.0025000009
0.0255162629 0.0088021762 -0.0025000009
0.0266777931 0.0002745812 -0.0025000009
0.0287498543 0.0045767234 -0.0025000009
0.0302694941 0.0078482503 -0.0025000009
0.0248449052 -0.0048856324 -0.0025000009
0.0322835773 0.0100921371 -0.0025000009
0.0312723446 0.0069282990 -0.0025000009
0.0330287052 0.0099603513 -0.0025000009
0.0310027371 0.0053207195 -0.0025000009
0.0256930943 -0.0144039633 -0.0025000009
0.0274145088 -0.0155771290 -0.0025000009
0.0282186715 -0.0179388617 -0.0025000009
0.0269941496 -0.0139519139 -0.0025000009
-0.0055340038 0.0151463361 -0.0025000009
0.0016023119 -0.0143184379 -0.0025000009
-0.0008696965 -0.0156129345 -0.0025000009
0.0008194495 -0.0173388960 -0.0025000009
0.0035785231 -0.0154922542 -0.0025000009
0.0039254347 -0.0132687317 -0.0025000009
0.0017404734 -0.0020623029 -0.0025000009
0.0005638484 0.0008194016 -0.0025000009
-0.0002177370 -0.0005230723 -0.0025000009
0.0030603268 -0.0054730074 -0.0025000009
0.0003306409 -0.0087838994 -0.0025000009
0.0024544831 -0.0039007901 -0.0025000009
-0.0020639713 0.0017528120 -0.0025000009
0.0029053782 -0.0106102495 -0.0025000009
-0.0009579042 -0.0032438710 -0.0025000009
-0.0006328584 -0.0084991542 -0.0025000009
0.0040485855 -0.0115661388 -0.0025000009
0.0006532586 -0.0126153518 -0.0025000009
0.0002854517 -0.0112315963 -0.0025000009
0.0021782223 -0.0039153127 -0.0025000009
0.0005472993 -0.0122815080 -0.0025000009
0.0032676287 -0.0095359679 -0.0025000009
0.0007439726 -0.0119198410 -0.0025000009
0.0015677217 -0.0130091568 -0.0025000009
-0.0039176442 0.0098382109 -0.0025000009
-0.0011368523 0.0049578388 -0.0025000009
0.0037211082 -0.0039895537 -0.0025000009
0.0031057507 -0.0024660689 -0.0025000009
0.0018120608 0.0003050125 -0.0025000009
-0.0029273814 0.0101846415 -0.0025000009
-0.0019146758 0.0082143588 -0.0025000009
-0.0008232953 0.0081214794 -0.0025000009
-0.0019020106 0.0097124589 -0.0025000009
0.0072889836 0.0076253111 -0.0025000009
0.0055992904 0.0089100829 -0.0025000009
0.0052200569 0.0102551437 -0.0025000009
0.0070667260 -0.0086504669 -0.0025000009
0.0040850606 0.0034211256 -0.0025000009
0.0044533104 0.0014566941 -0.0025000009
0.0074375053 -0.0030417448 -0.0025000009
0.0049408437 0.0032005476 -0.0025000009
0.0063463376 0.0019287015 -0.0025000009
0.0036691407 0.0035088102 -0.0025000009
0.0033863914 0.0033726057 -0.0025000009
0.0068943845 0.0077169946 -0.0025000009
0.0072494213 0.0014517503 -0.0025000009
0.0069863704 -0.0075466071 -0.0025000009
0.0068973548 0.0011449436 -0.0025000009
0.0059945611 0.0002801213 -0.0025000009
0.0027346388 0.0088520167 -0.0025000009
0.0000664024 0.0119565261 -0.0025000009
0.0028182001 0.0114717998 -0.0025000009
0.0057616506 0.0112402514 -0.0025000009
-0.0034880245 -0.0031196826 -0.0025000009
-0.0035217200 -0.0026660305 -0.0025000009
-0.0040654996 0.0025841809 -0.0025000009
-0.0066106677 0.0136291010 -0.0025000009
-0.0040809086 -0.0024191455 -0.0025000009
-0.0043562835 -0.0016417645 -0.0025000009
-0.0063560933 0.0096400136 -0.0025000009
-0.0059427224 0.0061534008 -0.0025000009
-0.0076118297 0.0159851648 -0.0025000009
-0.0065127480 0.0078207059 -0.0025000009
-0.0049462041 -0.0109843064 -0.0025000009
-0.0056200000 -0.0027154558 -0.0025000009
-0.0048243503 -0.0101345561 -0.0025000009
-0.0054127296 -0.0173177946 -0.0025000009
-0.0023993697 -0.0186420256 -0.0025000009
-0.0038246187 -0.0174959426 -0.0025000009
0.0326484335 -0.0175101958 -0.0025000009
0.0345059006 -0.0183623638 -0.0025000009
0.0308574411 -0.0171543390 -0.0025000009
0.0368135170 -0.0178937503 -0.0025000009
0.0351970332 -0.0052236601 -0.0025000009
0.0351464888 -0.0063892305 -0.0025000009
0.0341686071 -0.0100437538 -0.0025000009
0.0343177834 -0.0028735580 -0.0025000009
0.0338978542 -0.0055408678 -0.0025000009
0.0354123783 0.0121990784 -0.0025000009
-0.0004098602 0.0132840461 -0.0025000009
0.0032881862 0.0142257581 -0.0025000009
0.0028416106 0.0169667378 -0.0025000009
0.0016914231 0.0143742698 -0.0025000009
0.0022221283 0.0171475031 -0.0025000009
0.0370410985 -0.0062084174 -0.0025000009
0.0372958522 -0.0166343447 -0.0025000009
0.0360775217 0.0057239545 -0.0025000009
0.0356624434 -0.0019778392 -0.0025000009
0.0359397201 0.0027548251 -0.0025000009
0.0366618321 -0.0141278093 -0.0025000009
0.0370213029 0.0040566306 -0.0025000009
0.0377276199 0.0080835006 -0.0025000009
0.0374345052 0.0075215254 -0.0025000009
0.0363005849 0.0067336609 -0.0025000009
0.0373083309 -0.0090699026 -0.0025000009
0.0374580399 -0.0090735721 -0.0025000009
0.0369430457 0.0133761469 -0.0025000009
0.0373942149 0.0068198845 -0.0025000009
0.0362755408 0.0050595120 -0.0025000009
0.0342264472 0.0025658563 -0.0025000009
0.0334348206 -0.0022839764 -0.0025000009
0.0326962238 -0.0112431066 -0.0025000009
0.0328272925 -0.0022807158 -0.0025000009
0.0289507576 -0.0002379904 -0.0025000009
0.0267936449 -0.0082610590 -0.0025000009
0.0313355021 -0.0018897986 -0.0025000009
0.0315747699 -0.0090399903 -0.0025000009
0.0294523740 -0.0069722641 -0.0025000009
0.0256071027 -0.0055356220 -0.0025000009
0.0277823075 -0.0090705752 -0.0025000009
0.0279344165 -0.0024512875 -0.0025000009
0.0286996785 -0.0076364001 -0.0025000009
0.0285407032 -0.0106883000 -0.0025000009
0.0286851858 -0.0020041329 -0.0025000009
0.0270423699 -0.0026876779 -0.0025000009
0.0316239903 0.0005090198 -0.0025000009
0.0253779198 -0.0064488056 -0.0025000009
0.0331647523 0.0041550795 -0.0025000009
0.0313446851 0.0012827055 -0.0025000009
0.0288518577 -0.0097559258 -0.0025000009
0.0277547625 -0.0015967807 -0.0025000009
0.0319978248 0.0046227432 -0.0025000009
0.0326229764 0.0038452100 -0.0025000009
0.0274589937 -0.0112235105 -0.0025000009
0.0262242510 -0.0121762493 -0.0025000009
0.0268392512 -0.0129368180 -0.0025000009
0.0271951837 -0.0135534071 -0.0025000009
-0.0012723675 0.0170582442 -0.0025000009
-0.0038689866 0.0181461695 -0.0025000009
-0.0014062115 0.0176175078 -0.0025000009
-0.0075422027 0.0189999994 -0.0016627064
-0.0026306193 0.0189999994 -0.0018880495
-0.0013095425 0.0189999994 -0.0005446411
-0.0008298275 0.0189999994 -0.0008275843
0.0374462475 -0.0189999994 -0.0011161144
0.0373611748 -0.0189999994 -0.0002276335
0.0290255414 -0.0189999994 -0.0021526841
0.0315707888 -0.0189999994 -0.0015366790
0.0355769762 0.0189999994 -0.0004875648
0.0355728921 0.0189999994 -0.0017953076
0.0376382973 0.0189999994 -0.0024623106
0.0314713606 0.0189999994 -0.0023559026
0.0379999988 -0.0134347558 -0.0001385285
0.0379999988 -0.0177977023 -0.0001524193
0.0379999988 -0.0124488318 -0.0000471855
0.0379999988 0.0020201424 -0.0010264515
0.0379999988 0.0054315590 -0.0014360009
0.0379999988 -0.0017566939 -0.0017896437
0.0379999988 -0.0020107993 -0.0015548861
0.0379999988 0.0143082884 -0.0024299024
0.0379999988 0.0030719147 -0.0020571747
0.0379999988 -0.0082648901 -0.0018512861
0.0379999988 0.0007858878 -0.0009626417
0.0379999988 -0.0075295574 -0.0019922619
0.0379999988 0.0105739473 -0.0016543896
0.0379999988 0.0123723833 -0.0011931097
0.0379999988 0.0113763270 -0.0015002381
0.0379999988 0.0098905076 -0.0001530121
0.0379999988 -0.0047828333 -0.0000071809
0.0379999988 0.0145774440 -0.0018714137
-0.0053883103 -0.0189999994 -0.0006203013
-0.0050217740 -0.0189999994 -0.0013001370
-0.0013379971 -0.0189999994 -0.0011913334
-0.0004746113 -0.0189999994 -0.0024648570
-0.0080000004 0.0022785700 -0.0007955609
-0.0080000004 0.0070846992 -0.0005226108
-0.0080000004 0.0183859797 -0.0019548009
-0.0080000004 0.0053714418 -0.0010968702
-0.0080000004 0.0090072598 -0.0015353971
-0.0080000004 0.0081518312 -0.0012102389
-0.0080000004 -0.0020047150 -0.0022732476
-0.0080000004 -0.0140235235 -0.0023548692
-0.0080000004 -0.0009935914 -0.0014324443
-0.0080000004 -0.0052991496 -0.0018450062
-0.0080000004 -0.0037514204 -0.0015397976
-0.0080000004 -0.0070840286 -0.0008693365
-0.0080000004 0.0059638053 -0.0013395880
-0.0080000004 0.0003491514 -0.0008518302
-0.0080000004 -0.0138383562 -0.0010596973
-0.0080000004 -0.0160522265 -0.0001756296
-0.0080000004 -0.0161874400 -0.0007655761
0.0196579988 0.0069167605 0.0000000005
0.0202752597 0.0099747088 0.0000000005
0.0178929876 0.0068705707 0.0000000005
0.0169402693 -0.0040181765 0.0000000005
0.0186618785 0.0057811750 0.0000000005
0.0184867982 0.0099977311 0.0000000005
0.0186592049 0.0100638005 0.0000000005
0.0175737989 0.0037865660 0.0000000005
0.0192019722 0.0124654284 0.0000000005
0.0179981260 0.0026176403 0.0000000005
0.0220803718 0.0111230918 0.0000000005
0.0352585131 -0.0168436268 0.0000000005
0.0341061051 -0.0189201820 0.0000000005
0.0343391511 -0.0182035052 0.0000000005
0.0248497715 -0.0126777620 0.0000000005
0.0193411453 -0.0092585511 0.0000000005
0.0242448866 -0.0106861675 0.0000000005
0.0250933122 -0.0109932357 0.0000000005
0.0217922918 -0.0096635536 0.0000000005
0.0172197127 -0.0096306641 0.0000000005
0.0213710147 -0.0124842133 0.0000000005
0.0186005419 -0.0122787297 0.0000000005
0.0146690411 -0.0093139154 0.0000000005
0.0100809548 -0.0123285709 0.0000000005
0.0158335808 -0.0112006045 0.0000000005
0.0146636807 -0.0121436285 0.0000000005
0.0343702941 -0.0116590467 0.0000000005
0.0378410440 -0.0128569617 0.0000000005
0.0374202447 -0.0108590003 0.0000000005
0.0374262970 -0.0126031293 0.0000000005
0.0352057212 -0.0156704266 0.0000000005
0.0283730741 -0.0178660828 0.0000000005
0.0247902085 -0.0136566444 0.0000000005
0.0270180314 -0.0164257880 0.0000000005
0.0261997511 -0.0138888431 0.0000000005
0.0319715779 -0.0115973322 0.0000000005
-0.0054322339 -0.0110580941 0.0000000005
-0.0072471405 -0.0176309355 0.0000000005
-0.0063331149 -0.0129192610 0.0000000005
-0.0071356743 -0.0135234918 0.0000000005
-0.0062779350 -0.0116629959 0.0000000005
0.0037800996 -0.0103008453 0.0000000005
0.0028347097 -0.0084789416 0.0000000005
0.0058643106 -0.0093628362 0.0000000005
-0.0034833055 -0.0099219556 0.0000000005
0.0035072298 -0.0087447914 0.0000000005
-0.0014116202 -0.0107774129 0.0000000005
0.0004616004 -0.0079837516 0.0000000005
-0.0000355698 -0.0073846786 0.0000000005
0.0037802133 -0.0090090130 0.0000000005
-0.0025099505 -0.0075659823 0.0000000005
-0.0042278934 -0.0108603853 0.0000000005
0.0025920762 -0.0159451736 0.0000000005
0.0010195762 -0.0173963699 0.0000000005
0.0008966127 -0.0180288086 0.0000000005
0.0051005014 -0.0145669292 0.0000000005
0.0070484737 -0.0126172534 0.0000000005
0.0157595055 -0.0076123822 0.0000000005
0.0147706413 -0.0079071179 0.0000000005
0.0089413637 -0.0101924851 0.0000000005
0.0034602131 -0.0112356222 0.0000000005
0.0088828077 -0.0097368949 0.0000000005
0.0082550354 -0.0094799285 0.0000000005
0.0007343194 -0.0187528685 0.0000000005
-0.0014859243 -0.0185567233 0.0000000005
-0.0017443392 -0.0182859595 0.0000000005
0.0134012522 -0.0057882313 0.0000000005
0.0035598982 -0.0015255293 0.0000000005
0.0006881461 0.0146630160 0.0000000005
0.0033013259 0.0148630716 0.0000000005
0.0005886916 0.0155204834 0.0000000005
0.0036783158 0.0143258405 0.0000000005
-0.0047636643 0.0161983895 0.0000000005
-0.0008565328 0.0182554122 0.0000000005
-0.0041946587 0.0189137018 0.0000000005
-0.0058794722 0.0054107961 0.0000000005
-0.0054970878 0.0082495602 0.0000000005
-0.0058835570 0.0074364397 0.0000000005
-0.0074744515 0.0033181991 0.0000000005
-0.0078882808 0.0007226221 0.0000000005
-0.0068350711 0.0065870449 0.0000000005
-0.0075321677 0.0117659545 0.0000000005
-0.0072065385 0.0114131601 0.0000000005
-0.0076875858 0.0028840928 0.0000000005
-0.0053110113 0.0152572080 0.0000000005
-0.0047840364 -0.0044604349 0.0000000005
-0.0038747774 0.0038119566 0.0000000005
-0.0054879694 0.0044806399 0.0000000005
-0.0037838686 -0.0007553950 0.0000000005
-0.0048089666 -0.0017865855 0.0000000005
-0.0037242701 0.0065555660 0.0000000005
-0.0043330060 0.0019852541 0.0000000005
-0.0044648047 0.0041306482 0.0000000005
-0.0022202059 0.0033696520 0.0000000005
0.0106019100 -0.0047290796 0.0000000005
0.0050794685 -0.0024168755 0.0000000005
0.0092469071 -0.0050165063 0.0000000005
-0.0030886417 -0.0062474424 0.0000000005
-0.0004762782 -0.0053222541 0.0000000005
0.0088392108 -0.0057039636 0.0000000005
0.0021845875 -0.0054412472 0.0000000005
-0.0017055930 -0.0042484870 0.0000000005
0.0104061829 -0.0068718701 0.0000000005
-0.0058295087 -0.0062799037 0.0000000005
0.0085612120 -0.0051527515 0.0000000005
0.0016106353 -0.0068666044 0.0000000005
0.0045355144 -0.0051883258 0.0000000005
-0.0018071357 -0.0026327439 0.0000000005
0.0136599114 -0.0056101349 0.0000000005
0.0161880031 0.0059082353 0.0000000005
0.0093225967 -0.0024952243 0.0000000005
0.0039103671 0.0021458117 0.0000000005
0.0143354840 0.0057889352 0.0000000005
0.0134900950 0.0029089805 0.0000000005
0.0121335885 0.0035439917 0.0000000005
0.0140028829 0.0003693467 0.0000000005
0.0141244747 0.0017095424 0.0000000005
0.0067780372 0.0001617982 0.0000000005
0.0066885481 0.0006860918 0.0000000005
0.0136273268 0.0003169467 0.0000000005
0.0146097792 0.0054399859 0.0000000005
0.0080176518 -0.0006729976 0.0000000005
0.0062496023 0.0004654226 0.0000000005
0.0109494809 -0.0026900849 0.0000000005
0.0135457292 0.0056253657 0.0000000005
0.0082430151 0.0006031779 0.0000000005
0.0146181603 0.0051952424 0.0000000005
0.0156182908 0.0035423572 0.0000000005
0.0049452628 0.0001184625 0.0000000005
0.0066563201 0.0017786929 0.0000000005
0.0148442143 -0.0055335393 0.0000000005
0.0121450603 0.0065368784 0.0000000005
0.0141276522 0.0031438307 0.0000000005
0.0134242615 0.0083297281 0.0000000005
0.0085627862 0.0065455517 0.0000000005
0.0099836009 0.0076494159 0.0000000005
0.0037465419 0.0036102810 0.0000000005
0.0052456793 0.0063645946 0.0000000005
0.0031039901 0.0042198403 0.0000000005
0.0111761342 0.0116791015 0.0000000005
0.0051231212 0.0059740596 0.0000000005
0.0062814254 0.0073132900 0.0000000005
0.0133893709 0.0108033243 0.0000000005
0.0083841289 0.0093583250 0.0000000005
0.0083974208 0.0074594321 0.0000000005
0.0022153289 0.0046378218 0.0000000005
0.0023415063 0.0043629927 0.0000000005
0.0009927897 0.0115529619 0.0000000005
0.0009064484 0.0079981193 0.0000000005
0.0029755763 0.0081869946 0.0000000005
0.0070648110 0.0124895127 0.0000000005
0.0018478911 0.0075674341 0.0000000005
0.0036820801 0.0091047152 0.0000000005
0.0019378361 0.0119980169 0.0000000005
0.0005479433 0.0141176082 0.0000000005
-0.0012430756 0.0121053310 0.0000000005
0.0002179570 0.0041779133 0.0000000005
-0.0016182156 0.0090493983 0.0000000005
-0.0011907468 0.0042011610 0.0000000005
-0.0038410313 0.0112796176 0.0000000005
0.0361297868 0.0176156336 0.0000000005
0.0369176962 0.0063631825 0.0000000005
0.0374726416 0.0100251103 0.0000000005
0.0377240878 0.0097891240 0.0000000005
0.0372034414 0.0004408965 0.0000000005
0.0362818111 0.0113618884 0.0000000005
0.0369499089 0.0053029321 0.0000000005
0.0372287035 -0.0012232776 0.0000000005
0.0350616961 0.0091656416 0.0000000005
0.0358901395 0.0032424562 0.0000000005
0.0368672962 -0.0018540776 0.0000000005
0.0354253155 0.0036068494 0.0000000005
0.0368310849 -0.0029864536 0.0000000005
0.0333945388 0.0075274798 0.0000000005
0.0241511759 -0.0098998801 0.0000000005
0.0285922643 -0.0108443864 0.0000000005
0.0305193232 -0.0095625353 0.0000000005
0.0326746514 -0.0087793359 0.0000000005
0.0312020450 -0.0101023575 0.0000000005
0.0372236973 -0.0072301218 0.0000000005
0.0241043219 -0.0080807020 0.0000000005
0.0327461190 -0.0099018635 0.0000000005
0.0263608887 -0.0077904936 0.0000000005
0.0347276861 -0.0093870276 0.0000000005
0.0262282770 -0.0023631866 0.0000000005
0.0259281613 0.0051981582 0.0000000005
0.0201869702 0.0036424303 0.0000000005
0.0265522819 0.0058382697 0.0000000005
0.0286996883 -0.0044887680 0.0000000005
0.0245357311 0.0049108199 0.0000000005
0.0272786228 0.0003885462 0.0000000005
0.0198226924 -0.0018886578 0.0000000005
0.0223445370 0.0045973557 0.0000000005
0.0190124873 -0.0002191428 0.0000000005
0.0308348192 -0.0062010663 0.0000000005
0.0205571081 0.0022106419 0.0000000005
0.0203095601 0.0038447996 0.0000000005
0.0270950656 -0.0023812114 0.0000000005
0.0291918835 0.0009779481 0.0000000005
0.0190055388 -0.0027114895 0.0000000005
0.0285376394 0.0018200316 0.0000000005
0.0185654814 -0.0069356642 0.0000000005
0.0269412105 0.0026216882 0.0000000005
0.0298365110 -0.0012508158 0.0000000005
0.0282459042 -0.0004042451 0.0000000005
0.0262546269 -0.0019405026 0.0000000005
0.0203237757 -0.0069848641 0.0000000005
0.0263925190 0.0054274244 0.0000000005
0.0260323740 -0.0060829654 0.0000000005
0.0194774612 -0.0052932473 0.0000000005
0.0223543705 0.0063643123 0.0000000005
0.0316864542 -0.0002785803 0.0000000005
0.0290875591 0.0031733902 0.0000000005
0.0307347789 -0.0045336015 0.0000000005
0.0226443763 -0.0055613189 0.0000000005
0.0229728788 -0.0056492030 0.0000000005
0.0224550758 0.0053671078 0.0000000005
0.0352416468 -0.0066316648 0.0000000005
0.0338921988 -0.0064295633 0.0000000005
0.0258371677 0.0082317951 0.0000000005
0.0232786035 -0.0025556534 0.0000000005
0.0238415870 0.0070712327 0.0000000005
0.0295191588 0.0042840938 0.0000000005
0.0334576367 0.0056962069 0.0000000005
0.0356656164 -0.0018390429 0.0000000005
0.0272840741 0.0078027079 0.0000000005
0.0300657844 0.0032866278 0.0000000005
0.0336973680 0.0004879656 0.0000000005
0.0317051793 0.0029294493 0.0000000005
0.0347071192 0.0017405997 0.0000000005
0.0367840246 -0.0052001521 0.0000000005
0.0317983942 0.0043291136 0.0000000005
0.0302924390 0.0044826839 0.0000000005
0.0298692726 0.0042681002 0.0000000005
0.0318824946 0.0032411294 0.0000000005
0.0311769830 0.0018907807 0.0000000005
0.0236619198 0.0122046303 0.0000000005
0.0297796514 0.0080406412 0.0000000005
0.0298186723 0.0172970852 0.0000000005
0.0282821419 0.0180725643 0.0000000005
0.0290196402 0.0172325332 0.0000000005
0.0276042834 0.0145623934 0.0000000005
0.0278312359 0.0134382120 0.0000000005
0.0236610921 0.0125741243 0.0000000005
0.0323830752 0.0166316406 0.0000000005
0.0322843662 0.0171366800 0.0000000005
0.0329030149 0.0167745203 0.0000000005
-0.0045271285 -0.0119358235 -0.0023879397
-0.0054772184 -0.0131980238 -0.0016100296
-0.0052740564 -0.0152238469 -0.0003204797
-0.0038282279 -0.0164223744 -0.0003632995
-0.0012085319 -0.0158533726 -0.0008952172
-0.0004151870 -0.0134226345 -0.0012660444
-0.0015722209 -0.0118565952 -0.0022619763
0.0337040199 0.0115492760 -0.0023822115
0.0351225227 0.0124614922 -0.0014439359
0.0351514840 0.0154783691 -0.0024401618
0.0343808884 0.0161807980 -0.0018773258
0.0321234208 0.0164113384 -0.0010904393
0.0304339144 0.0146174432 -0.0004019779
0.0308063131 0.0126092648 -0.0016418784
0.0322919239 0.0115502017 -0.0022515576
0.0344989044 -0.0160866835 -0.0023754782
0.0355848111 -0.0136790015 -0.0022445156
0.0345720470 -0.0119716457 -0.0014501785
0.0334433295 -0.0114897750 -0.0008073459
0.0315946830 -0.0118386828 -0.0001342110
0.0304151867 -0.0143241492 -0.0009683538
0.0310995412 -0.0157664551 -0.0003845319
-0.0034198035 0.0165155946 -0.0008469872
-0.0051527676 0.0154757060 -0.0017137418
-0.0052517186 0.0127297681 -0.0016777760
-0.0040657463 0.0116318376 -0.0015108465
-0.0020184949 0.0116126101 -0.0018158260
-0.0007453508 0.0127358534 -0.0002309784
-0.0008445328 0.0154701000 -0.0009824136
-0.0023970427 0.0164737908 -0.0004144140
0.0051450333 0.0148549666 -0.0001076511
0.0062343573 0.0137656429 -0.0014090352
0.0027447393 0.0172552601 -0.0012165271
0.0048428250 0.0151571748 -0.0015873472
0.0145120355 0.0125000002 -0.0000721115
0.0096135148 0.0125000002 -0.0007383456
0.0107586017 0.0125000002 -0.0031705651
0.0110071576 0.0125000002 -0.0039235984
0.0092805841 0.0125000002 -0.0162789264
0.0121498612 0.0125000002 -0.0033471548
0.0124150995 0.0125000002 -0.0070401872
0.0093721982 0.0125000002 -0.0187423409
0.0085270990 0.0125000002 -0.0216222652
0.0081285392 0.0125000002 -0.0024255083
0.0151612562 0.0125000002 -0.0028922088
0.0120683310 0.0125000002 -0.0072794806
0.0090463569 0.0125000002 -0.0024137142
0.0087653895 0.0125000002 -0.0183736389
0.0116650432 0.0125000002 -0.0046370598
0.0129643728 0.0125000002 -0.0033648064
0.0093772517 0.0125000002 -0.0147671986
0.0080228559 0.0125000002 -0.0195624027
0.0103810064 0.0125000002 -0.0118722923
0.0096598755 0.0125000002 -0.0156190105
0.0197902974 0.0125000002 -0.0172512377
0.0177319120 0.0125000002 -0.0289251137
0.0174683994 0.0125000002 -0.0285824097
0.0198526432 0.0125000002 -0.0165026777
0.0207362310 0.0125000002 -0.0231899022
0.0189430560 0.0125000002 -0.0246755280
0.0224996500 0.0125000002 -0.0222067511
0.0190177873 0.0125000002 -0.0242175443
0.0187001652 0.0125000002 -0.0236025381
0.0217657046 0.0125000002 -0.0116821575
0.0205821883 0.0125000002 -0.0238402126
0.0193943845 0.0125000002 -0.0231769434
0.0208798332 0.0125000002 -0.0163917933
0.0080033602 0.0125000002 -0.0258733736
0.0211614194 0.0125000002 -0.0277141203
0.0213929971 0.0125000002 -0.0258085484
0.0220551721 0.0125000002 -0.0251665289
0.0221860821 0.0125000002 -0.0020778418
0.0167199658 0.0125000002 -0.0272239403
0.0166058742 0.0125000002 -0.0072118309
0.0208498501 0.0125000002 -0.0018077462
0.0191178863 0.0125000002 -0.0099100422
0.0207932482 0.0125000002 -0.0100927596
0.0201604446 0.0125000002 -0.0035325517
0.0219028540 0.0125000002 -0.0033747808
0.0202182087 0.0125000002 -0.0093875134
0.0171647131 0.0125000002 -0.0086309626
0.0210973376 0.0125000002 -0.0028029807
0.0180771443 0.0125000002 -0.0117442254
0.0177265907 0.0125000002 -0.0125897656
0.0178090542 0.0125000002 -0.0146347023
0.0202135392 0.0125000002 -0.0065680341
0.0189268913 0.0125000002 -0.0066394020
0.0208891596 0.0125000002 -0.0095812913
0.0192930124 0.0125000002 -0.0020112661
0.0121116597 0.0125000002 -0.0276484400
0.0096830601 0.0125000002 -0.0262131859
0.0153012576 0.0125000002 -0.0048147632
0.0100869256 0.0125000002 -0.0252253515
0.0157191073 0.0125000002 -0.0159057693
0.0126600727 0.0125000002 -0.0108160080
0.0102081124 0.0125000002 -0.0173426449
0.0097127986 0.0125000002 -0.0203019767
0.0144930722 0.0125000002 -0.0241387457
0.0119918979 0.0125000002 -0.0141553273
0.0108440813 0.0125000002 -0.0261080006
0.0157854852 0.0125000002 -0.0093823532
0.0141779006 0.0125000002 -0.0115242933
0.0149522073 0.0125000002 -0.0112576606
0.0147723280 0.0125000002 -0.0224703546
0.0152953773 0.0125000002 -0.0142706140
0.0115178671 0.0125000002 -0.0262658977
0.0158364757 0.0125000002 -0.0107834512
0.0129929144 0.0125000002 -0.0282182244
0.0139318283 0.0125000002 -0.0168314258
0.0144739693 0.0125000002 -0.0184657443
0.0118132849 0.0125000002 -0.0154318568
0.0160416462 0.0125000002 -0.0264985357
0.0091736120 0.0125000002 -0.0252638440
0.0141127743 0.0125000002 -0.0289228580
0.0128785569 0.0125000002 -0.0306596821
0.0099859632 0.0125000002 -0.0271464805
0.0101534481 0.0125000002 -0.0280049039
0.0268802397 0.0168802390 -0.0004408750
0.0287703068 0.0187703053 -0.0019846818
0.0242187772 0.0142187776 -0.0018527641
0.0260656730 0.0160656726 -0.0018881601
0.0229691133 -0.0129691143 -0.0009943701
0.0269916188 -0.0169916180 -0.0004517219
0.0267448704 -0.0167448697 -0.0018546193
0.0253902807 -0.0153902806 -0.0015023037
0.0086576898 -0.0125000002 -0.0255179723
0.0213781376 -0.0125000002 -0.0013667000
0.0198996126 -0.0125000002 -0.0004805408
0.0205265818 -0.0125000002 -0.0052261610
0.0181687341 -0.0125000002 -0.0038139615
0.0216900552 -0.0125000002 -0.0053770990
0.0203962301 -0.0125000002 -0.0040015832
0.0203816561 -0.0125000002 -0.0095446555
0.0197137253 -0.0125000002 -0.0119736390
0.0199885984 -0.0125000002 -0.0016861344
0.0215195388 -0.0125000002 -0.0047591371
0.0210192102 -0.0125000002 -0.0120922424
0.0211332943 -0.0125000002 -0.0118534184
0.0223463335 -0.0125000002 -0.0024427570
0.0222709751 -0.0125000002 -0.0256532037
0.0121295777 -0.0125000002 -0.0212744722
0.0110254614 -0.0125000002 -0.0195534277
0.0140838688 -0.0125000002 -0.0283751621
0.0080484952 -0.0125000002 -0.0188427950
0.0075986979 -0.0125000002 -0.0176975170
0.0109426592 -0.0125000002 -0.0177514789
0.0086022137 -0.0125000002 -0.0075759861
0.0090292786 -0.0125000002 -0.0103793072
0.0107589239 -0.0125000002 -0.0162439853
0.0114650618 -0.0125000002 -0.0193613447
0.0094680097 -0.0125000002 -0.0115542825
0.0080782005 -0.0125000002 -0.0060093128
0.0080198402 -0.0125000002 -0.0237161557
0.0143105134 -0.0125000002 -0.0268209867
0.0084668913 -0.0125000002 -0.0234636635
0.0101375790 -0.0125000002 -0.0191111001
0.0092750508 -0.0125000002 -0.0155033924
0.0111627437 -0.0125000002 -0.0008421918
0.0114150142 -0.0125000002 -0.0009753167
0.0161204815 -0.0125000002 -0.0065730508
0.0158988143 -0.0125000002 -0.0155371715
0.0145668021 -0.0125000002 -0.0200154879
0.0122935434 -0.0125000002 -0.0039651676
0.0116004571 -0.0125000002 -0.0100231317
0.0154297760 -0.0125000002 -0.0180317158
0.0163208479 -0.0125000002 -0.0038661536
0.0120239613 -0.0125000002 -0.0167242781
0.0144801606 -0.0125000002 -0.0053761760
0.0135395893 -0.0125000002 -0.0023589109
0.0102192547 -0.0125000002 -0.0112196730
0.0153484553 -0.0125000002 -0.0130075350
0.0154424158 -0.0125000002 -0.0204875895
0.0081884498 -0.0125000002 -0.0048619190
0.0162607719 -0.0125000002 -0.0114421036
0.0126344197 -0.0125000002 -0.0017568793
0.0087493356 -0.0125000002 -0.0043268824
0.0140648580 -0.0125000002 -0.0243910708
0.0111950194 -0.0125000002 -0.0028083358
0.0130535229 -0.0125000002 -0.0162527799
0.0151963506 -0.0125000002 -0.0081546639
0.0158032472 -0.0125000002 -0.0245797910
0.0134377559 -0.0125000002 -0.0118947618
0.0099418047 -0.0125000002 -0.0092934903
0.0160559052 -0.0125000002 -0.0153270722
0.0151080365 -0.0125000002 -0.0154024287
0.0124157625 -0.0125000002 -0.0051989152
0.0181495827 -0.0125000002 -0.0156489985
0.0186002830 -0.0125000002 -0.0124818707
0.0174829152 -0.0125000002 -0.0076137439
0.0177555645 -0.0125000002 -0.0224626071
0.0172418004 -0.0125000002 -0.0059298698
0.0178996925 -0.0125000002 -0.0064745579
0.0177436164 -0.0125000002 -0.0291884949
0.0170687766 -0.0125000002 -0.0094865495
0.0164309423 -0.0125000002 -0.0141271761
0.0208930050 -0.0125000002 -0.0246088496
0.0186233812 -0.0125000002 -0.0149345023
0.0210542871 -0.0125000002 -0.0257030404
0.0195317807 -0.0125000002 -0.0237239776
0.0185928245 -0.0125000002 -0.0167770383
0.0165303579 -0.0125000002 -0.0125493323
0.0169155414 -0.0125000002 -0.0192894735
0.0176438235 -0.0125000002 -0.0110843411
0.0169602382 -0.0125000002 -0.0128041161
0.0183315995 -0.0125000002 -0.0299214804
0.0194892700 -0.0125000002 -0.0298284233
0.0095679913 -0.0125000002 -0.0280489575
0.0119369472 -0.0125000002 -0.0296479549
0.0031841193 -0.0168158802 -0.0004043596
0.0069808280 -0.0130191723 -0.0001838441
0.0065836059 -0.0134163944 -0.0012564014
0.0065280530 -0.0134719473 -0.0015543058
0.0075000003 -0.0108625332 -0.0027098576
0.0075000003 -0.0106761895 -0.0050558410
0.0075000003 -0.0102747062 -0.0130142846
0.0075000003 -0.0115181952 -0.0028939193
0.0075000003 -0.0100280279 -0.0097063655
0.0075000003 -0.0120984763 -0.0221295864
0.0075000003 -0.0124319252 -0.0178337769
0.0075000003 -0.0116898834 -0.0199302892
0.0075000003 -0.0102209032 -0.0225784609
0.0075000003 -0.0117096030 -0.0122571886
0.0224999990 -0.0122931426 -0.0153840946
0.0224999990 -0.0108411638 -0.0083009359
0.0224999990 -0.0122999762 -0.0200572005
0.0224999990 -0.0122880442 -0.0162138672
0.0224999990 -0.0112952590 -0.0034150347
0.0224999990 -0.0105009007 -0.0218378333
0.0224999990 -0.0112916344 -0.0215917189
0.0224999990 -0.0100509576 -0.0089874026
0.0224999990 -0.0104619794 -0.0208326656
0.0224999990 -0.0103929462 -0.0220739985
0.0223121473 -0.0101008179 -0.0258065437
0.0215885076 -0.0113431887 -0.0279436500
0.0203065517 -0.0106384679 -0.0297121562
0.0188964942 -0.0112620207 -0.0308203978
0.0167311627 -0.0108655140 -0.0317287502
0.0141924408 -0.0120367208 -0.0319236591
0.0122555349 -0.0117440607 -0.0314312191
0.0104022839 -0.0113576479 -0.0303697500
0.0088034328 -0.0112493752 -0.0286850243
0.0082618912 -0.0102870089 -0.0276160679
0.0075032602 -0.0109060640 -0.0245226725
0.0118756776 -0.0099999998 -0.0041485152
0.0121528798 -0.0099999998 -0.0092314451
0.0086033474 -0.0099999998 -0.0040039956
0.0133311551 -0.0099999998 -0.0091082555
0.0078588295 -0.0099999998 -0.0141962526
0.0100997198 -0.0099999998 -0.0166410894
0.0143270703 -0.0099999998 -0.0082840551
0.0141406125 -0.0099999998 -0.0061644302
0.0091181377 -0.0099999998 -0.0163972636
0.0082386292 -0.0099999998 -0.0057725838
0.0155378022 -0.0099999998 -0.0101879202
0.0154005036 -0.0099999998 -0.0098861667
0.0139402203 -0.0099999998 -0.0054093998
0.0205570796 -0.0099999998 -0.0030735908
0.0126242706 -0.0099999998 -0.0057418799
0.0142136862 -0.0099999998 -0.0098024086
0.0179668944 -0.0099999998 -0.0050628446
0.0116377114 -0.0099999998 -0.0093244421
0.0161445845 -0.0099999998 -0.0071798967
0.0148101539 -0.0099999998 -0.0030214986
0.0207252841 -0.0099999998 -0.0030576621
0.0148873464 -0.0099999998 -0.0048768574
0.0077056118 -0.0099999998 -0.0177822593
0.0115328773 -0.0099999998 -0.0108594579
0.0183757695 -0.0099999998 -0.0034641524
0.0103479429 -0.0099999998 -0.0170053786
0.0184634939 -0.0099999998 -0.0052653972
0.0135920602 -0.0099999998 -0.0083865179
0.0161801878 -0.0099999998 -0.0034331600
0.0207691326 -0.0099999998 -0.0025964037
0.0135608845 -0.0099999998 -0.0218050075
0.0146534646 -0.0099999998 -0.0228949439
0.0191346791 -0.0099999998 -0.0202895909
0.0146279019 -0.0099999998 -0.0219008727
0.0212153903 -0.0099999998 -0.0152872636
0.0099829751 -0.0099999998 -0.0220599641
0.0190328673 -0.0099999998 -0.0234528573
0.0144956007 -0.0099999998 -0.0146883175
0.0190800159 -0.0099999998 -0.0167044858
0.0170635256 -0.0099999998 -0.0238486538
0.0118548633 -0.0099999998 -0.0241876830
0.0103058156 -0.0099999998 -0.0226026653
0.0220865722 -0.0099999998 -0.0129849569
0.0124805322 -0.0099999998 -0.0242712726
0.0175800586 -0.0099999998 -0.0217739761
0.0198836608 -0.0099999998 -0.0137075189
0.0223674756 -0.0099999998 -0.0170237449
0.0205549193 -0.0099999998 -0.0057676842
0.0192074228 -0.0099999998 -0.0235588624
0.0148792254 -0.0099999998 -0.0163860754
0.0213309035 -0.0099999998 -0.0233907959
0.0166400938 -0.0099999998 -0.0201533453
0.0218534160 -0.0099999998 -0.0054508304
0.0179456662 -0.0099999998 -0.0211416116
0.0195793950 -0.0099999998 -0.0090248982
0.0214106418 -0.0099999998 -0.0167078220
0.0221252690 -0.0099999998 -0.0159585076
0.0210381546 -0.0099999998 -0.0242494834
0.0208107697 -0.0099999998 -0.0145704861
0.0190067936 -0.0099999998 -0.0172978425
0.0108097971 -0.0099999998 -0.0246810500
0.0172218246 -0.0099999998 -0.0246779942
0.0164936714 -0.0099999998 -0.0310876781
0.0147438556 -0.0099999998 -0.0306328489
0.0116284480 -0.0099999998 -0.0290572657
0.0208332136 -0.0099999998 -0.0266479480
0.0205214363 -0.0099999998 -0.0279206475
0.0175151364 -0.0099999998 -0.0269612573
0.0192776143 -0.0099999998 -0.0283965988
0.0123002983 -0.0099999998 -0.0259856228
0.0114433483 -0.0099999998 -0.0270813948
0.0101860453 -0.0099999998 -0.0262353064
0.0156872771 -0.0099999998 -0.0292836622
0.0080843254 -0.0099999998 -0.0268362477
0.0141601601 -0.0099999998 -0.0312656470
0.0075000003 0.0120805752 -0.0068810836
0.0075000003 0.0119340951 -0.0170860583
0.0075000003 0.0110964688 -0.0228655513
0.0075000003 0.0122489752 -0.0125795812
0.0075000003 0.0117919289 -0.0148192482
0.0075000003 0.0110002624 -0.0133774965
0.0075000003 0.0106124766 -0.0099450632
0.0075000003 0.0100554527 -0.0238106917
0.0075000003 0.0101307240 -0.0040460616
0.0075000003 0.0112736644 -0.0127988177
0.0075472974 0.0123033398 -0.0248289581
0.0080569911 0.0115749686 -0.0271673988
0.0090305197 0.0114252170 -0.0289470965
0.0106147613 0.0113947374 -0.0305063010
0.0121265299 0.0105001066 -0.0313933399
0.0147476352 0.0109775192 -0.0319236591
0.0160803951 0.0120087445 -0.0319198321
0.0182113569 0.0104941482 -0.0312607091
0.0200241885 0.0121850865 -0.0300380203
0.0217073989 0.0120341882 -0.0276833141
0.0222317936 0.0116517650 -0.0263654187
0.0224999990 0.0102205124 -0.0224610383
0.0224999990 0.0117666852 -0.0242648477
0.0224999990 0.0112798250 -0.0181270807
0.0224999990 0.0109381646 -0.0174930593
0.0224999990 0.0110309831 -0.0151978389
0.0224999990 0.0115207976 -0.0132532977
0.0224999990 0.0104321539 -0.0054427997
0.0224999990 0.0119713733 -0.0153698373
0.0224999990 0.0120595733 -0.0036311237
0.0224999990 0.0112663122 -0.0050203060
0.0152046368 0.0099999998 -0.0096209284
0.0134192079 0.0099999998 -0.0076710308
0.0175796393 0.0099999998 -0.0073208896
0.0181286003 0.0099999998 -0.0104089300
0.0211577800 0.0099999998 -0.0141533281
0.0214726228 0.0099999998 -0.0184958207
0.0223608173 0.0099999998 -0.0156104104
0.0195680737 0.0099999998 -0.0167544584
0.0211222215 0.0099999998 -0.0172062138
0.0214665144 0.0099999998 -0.0078685764
0.0205739566 0.0099999998 -0.0174406211
0.0149735633 0.0099999998 -0.0120897593
0.0197625734 0.0099999998 -0.0200676353
0.0086963447 0.0099999998 -0.0027641066
0.0116170853 0.0099999998 -0.0079532692
0.0160291176 0.0099999998 -0.0104746138
0.0175842725 0.0099999998 -0.0124980302
0.0165923423 0.0099999998 -0.0131565090
0.0179179318 0.0099999998 -0.0122420048
0.0202811945 0.0099999998 -0.0095273913
0.0214011991 0.0099999998 -0.0227012875
0.0223374274 0.0099999998 -0.0129256379
0.0220442318 0.0099999998 -0.0218762838
0.0145879877 0.0099999998 -0.0126156667
0.0137876116 0.0099999998 -0.0071376551
0.0187207248 0.0099999998 -0.0070060212
0.0213931962 0.0099999998 -0.0118903523
0.0199218327 0.0099999998 -0.0040381368
0.0168009269 0.0099999998 -0.0034140867
0.0209448954 0.0099999998 -0.0159272210
0.0125987198 0.0099999998 -0.0138308180
0.0084115208 0.0099999998 -0.0228702322
0.0118320717 0.0099999998 -0.0191509253
0.0187801614 0.0099999998 -0.0209068634
0.0131369500 0.0099999998 -0.0177089214
0.0086816831 0.0099999998 -0.0206405070
0.0210167788 0.0099999998 -0.0226626026
0.0132879849 0.0099999998 -0.0179068892
0.0108135735 0.0099999998 -0.0098349002
0.0099833935 0.0099999998 -0.0224949581
0.0154051778 0.0099999998 -0.0197121685
0.0075769612 0.0099999998 -0.0167110001
0.0179193719 0.0099999998 -0.0229773410
0.0118102116 0.0099999998 -0.0105778504
0.0117338765 0.0099999998 -0.0206351565
0.0173660999 0.0099999998 -0.0196527877
0.0181942847 0.0099999998 -0.0191416628
0.0190631597 0.0099999998 -0.0205992206
0.0123904860 0.0099999998 -0.0214073379
0.0100735081 0.0099999998 -0.0169826730
0.0076008863 0.0099999998 -0.0127806384
0.0081505201 0.0099999998 -0.0105389921
0.0127041705 0.0099999998 -0.0158404196
0.0109118858 0.0099999998 -0.0233452423
0.0093565623 0.0099999998 -0.0212989619
0.0091499556 0.0099999998 -0.0235582057
0.0174306993 0.0099999998 -0.0231200494
0.0102011633 0.0099999998 -0.0070522423
0.0130268434 0.0099999998 -0.0150305765
0.0176814464 0.0099999998 -0.0196225816
0.0076208673 0.0099999998 -0.0252056416
0.0099578145 0.0099999998 -0.0261784758
0.0082809316 0.0099999998 -0.0258940569
0.0098620374 0.0099999998 -0.0277268162
0.0097679465 0.0099999998 -0.0276698835
0.0091906933 0.0099999998 -0.0269809649
0.0153202561 0.0099999998 -0.0266527042
0.0093106034 0.0099999998 -0.0289831868
0.0152854624 0.0099999998 -0.0302056874
0.0148794382 0.0099999998 -0.0299656857
0.0157515243 0.0099999998 -0.0299678086
0.0206902354 0.0099999998 -0.0271490856
0.0160378265 0.0099999998 -0.0287748336
0.0218300248 0.0099999998 -0.0262623072
0.0145768522 0.0099999998 -0.0285675137
0.0181146249 0.0099999998 -0.0306405727
-0.0029424849 0.0002519886 0.0004389458
-0.0023300666 0.0017691781 0.0067218396
-0.0020012436 0.0021815084 0.0037679022
-0.0020080938 0.0021729185 0.0030439347
-0.0017673035 0.0023951763 0.0082543051
-0.0008235695 0.0028496550 0.0044302548
-0.0004868343 0.0029247836 0.0043449038
0.0003841685 0.0029247836 0.0002843120
-0.0000885416 0.0029247836 0.0004540996
0.0011488279 0.0026930187 0.0080422342
0.0013994555 0.0025723228 0.0051477223
0.0019083281 0.0022980214 0.0034734172
0.0022680688 0.0018469209 0.0007038685
0.0027553417 0.0010719192 0.0049509192
0.0028406589 0.0006981195 0.0096537697
0.0029315118 0.0003000662 0.0013178430
0.0029400680 -0.0002625790 0.0037796302
0.0029066134 -0.0004091532 0.0014371895
0.0023524401 -0.0017411226 0.0077095949
0.0022004811 -0.0019316732 0.0009147647
0.0022396992 -0.0018824952 0.0013136196
0.0012216447 -0.0026579520 0.0066968801
0.0008002630 -0.0028608787 0.0015934243
-0.0001735766 -0.0029247836 0.0083118628
-0.0005113982 -0.0029247836 0.0021956944
-0.0001684435 -0.0029247836 0.0050253242
-0.0009712407 -0.0027785402 0.0098495210
-0.0018586069 -0.0023512069 0.0088896226
-0.0020305888 -0.0021447107 0.0090938126
-0.0026292895 -0.0013939650 0.0084849713
-0.0028186198 -0.0007946798 0.0093096873
-0.0028864110 -0.0004976655 0.0096167805
-0.0029163930 -0.0003663053 0.0031097406
-0.0029702383 0.0001303924 0.0073243124
0.0009373827 -0.0001906364 0.0099999988
0.0017603931 -0.0020872277 0.0099999988
-0.0025194245 -0.0014235309 0.0099999988
-0.0007605327 0.0008959829 0.0099999988
0.0004567345 0.0010365480 0.0099999988
