0.0275797298 0.0134117699 -0.0025000009
0.0286427208 0.0140877392 -0.0025000009
0.0260642457 0.0150384130 -0.0025000009
0.0262314173 0.0137749143 -0.0025000009
0.0278287757 0.0152513686 -0.0025000009
0.0298847329 0.0172486589 -0.0025000009
0.0153987350 -0.0078697544 -0.0025000009
0.0131763347 -0.0058480783 -0.0025000009
0.0162588321 -0.0094002286 -0.0025000009
0.0124336730 -0.0089656146 -0.0025000009
0.0158031875 -0.0071821988 -0.0025000009
0.0148727674 -0.0052935890 -0.0025000009
0.0149252442 -0.0028302173 -0.0025000009
0.0158731903 -0.0063831048 -0.0025000009
0.0098440737 -0.0065255339 -0.0025000009
0.0123093274 -0.0076683551 -0.0025000009
0.0084533438 -0.0019099641 -0.0025000009
0.0087796795 -0.0002744831 -0.0025000009
0.0102540857 -0.0041641343 -0.0025000009
0.0139097506 0.0005198783 -0.0025000009
0.0181392697 -0.0083817766 -0.0025000009
0.0121316843 -0.0097502473 -0.0025000009
0.0095550348 0.0034479278 -0.0025000009
0.0142731175 -0.0069458683 -0.0025000009
0.0112985599 0.0005798630 -0.0025000009
0.0094069751 -0.0085200557 -0.0025000009
0.0171042847 -0.0031158203 -0.0025000009
0.0194459370 -0.0098296465 -0.0025000009
0.0122462395 -0.0010055457 -0.0025000009
0.0139672955 -0.0047435204 -0.0025000009
0.0134147492 -0.0061522775 -0.0025000009
0.0141122409 -0.0074339970 -0.0025000009
0.0172006952 -0.0033384401 -0.0025000009
0.0086331168 -0.0090789378 -0.0025000009
0.0221228080 0.0065241427 -0.0025000009
0.0155637416 0.0088189811 -0.0025000009
0.0205824709 -0.0051781297 -0.0025000009
0.0213510424 -0.0070676125 -0.0025000009
0.0129419537 0.0098585297 -0.0025000009
0.0192422158 0.0039639003 -0.0025000009
0.0213058229 0.0088715377 -0.0025000009
0.0194661490 -0.0005915191 -0.0025000009
0.0156068555 0.0086789738 -0.0025000009
0.0213224611 0.0092540188 -0.0025000009
0.0193971489 -0.0041388864 -0.0025000009
0.0223106098 -0.0079558623 -0.0025000009
0.0205558234 0.0061905114 -0.0025000009
0.0178508643 0.0003781096 -0.0025000009
0.0131626604 0.0049351333 -0.0025000009
0.0147032285 0.0022346475 -0.0025000009
0.0191207556 0.0051886343 -0.0025000009
0.0179304224 0.0008301193 -0.0025000009
0.0145867189 0.0074626474 -0.0025000009
0.0173289777 0.0090171231 -0.0025000009
0.0179246489 0.0089726208 -0.0025000009
0.0222675678 0.0035139066 -0.0025000009
0.0213241118 -0.0030775717 -0.0025000009
0.0193616190 0.0029298198 -0.0025000009
0.0173510471 0.0000811875 -0.0025000009
0.0163870353 0.0097317615 -0.0025000009
0.0167821680 0.0063265375 -0.0025000009
-0.0067006443 -0.0089284636 -0.0025000009
-0.0074668517 -0.0036515549 -0.0025000009
-0.0072476605 0.0013753847 -0.0025000009
-0.0068385979 -0.0086290734 -0.0025000009
-0.0077274744 0.0106051638 -0.0025000009
-0.0062901308 -0.0141158915 -0.0025000009
-0.0070008561 -0.0042982930 -0.0025000009
-0.0059898155 -0.0077220820 -0.0025000009
-0.0068950177 -0.0118524118 -0.0025000009
-0.0063741361 -0.0024142307 -0.0025000009
0.0352441435 -0.0055510741 -0.0025000009
0.0354018526 -0.0040146227 -0.0025000009
-0.0040342238 0.0050474210 -0.0025000009
-0.0028898176 -0.0038508177 -0.0025000009
-0.0011231408 -0.0110979351 -0.0025000009
0.0350563054 0.0173084175 -0.0025000009
0.0304467462 0.0188637239 -0.0025000009
0.0343741805 0.0178452307 -0.0025000009
0.0289296840 0.0138972138 -0.0025000009
0.0274064090 0.0119576673 -0.0025000009
0.0236582206 0.0088117278 -0.0025000009
0.0232872943 0.0097554462 -0.0025000009
0.0229425066 -0.0062855452 -0.0025000009
0.0272881716 0.0056164831 -0.0025000009
0.0263613958 0.0064862568 -0.0025000009
0.0254098879 0.0095116955 -0.0025000009
0.0232268204 -0.0015904559 -0.0025000009
0.0257081585 -0.0007884349 -0.0025000009
0.0239148023 -0.0015912164 -0.0025000009
0.0280984092 0.0110233145 -0.0025000009
0.0225855746 -0.0064692365 -0.0025000009
0.0238795715 0.0034906038 -0.0025000009
0.0244661610 -0.0032894874 -0.0025000009
0.0261837486 0.0002838379 -0.0025000009
0.0254727018 0.0089274551 -0.0025000009
0.0266761222 0.0004056705 -0.0025000009
0.0287270182 0.0047179426 -0.0025000009
0.0302305636 0.0079968973 -0.0025000009
0.0248686136 -0.0047634875 -0.0025000009
0.0322335963 0.0102506545 -0.0025000009
0.0312379227 0.0070818850 -0.0025000009
0.0329793638 0.0101225313 -0.0025000009
0.0309762188 0.0054730002 -0.0025000009
0.0257635637 -0.0142775359 -0.0025000009
0.0274907221 -0.0154422285 -0.0025000009
0.0283064798 -0.0177999812 -0.0025000009
0.0270623821 -0.0138190985 -0.0025000009
-0.0056083651 0.0151189595 -0.0025000009
0.0016726521 -0.0143103919 -0.0025000009
-0.0007929652 -0.0156170205 -0.0025000009
0.0009046415 -0.0173346606 -0.0025000009
0.0036546075 -0.0154744830 -0.0025000009
0.0039905887 -0.0132492824 -0.0025000009
0.0017505862 -0.0020537258 -0.0025000009
0.0005598149 0.0008221621 -0.0025000009
-0.0002151642 -0.0005241363 -0.0025000009
0.0030871835 -0.0054579034 -0.0025000009
0.0003738002 -0.0087821689 -0.0025000009
0.0024736214 -0.0038886822 -0.0025000009
-0.0020725597 0.0017426483 -0.0025000009
0.0029574809 -0.0105958449 -0.0025000009
-0.0009419526 -0.0032485392 -0.0025000009
-0.0005910866 -0.0085021617 -0.0025000009
0.0041053716 -0.0115461050 -0.0025000009
0.0007152415 -0.0126119897 -0.0025000009
0.0003406394 -0.0112300584 -0.0025000009
0.0021974353 -0.0039045621 -0.0025000009
0.0006076430 -0.0122786706 -0.0025000009
0.0033144481 -0.0095197961 -0.0025000009
0.0008025367 -0.0119160415 -0.0025000009
0.0016316287 -0.0130012964 -0.0025000009
-0.0039659413 0.0098188408 -0.0025000009
-0.0011612011 0.0049521922 -0.0025000009
0.0037406675 -0.0039712204 -0.0025000009
0.0031178311 -0.0024507778 -0.0025000009
0.0018105400 0.0003139131 -0.0025000009
-0.0029773926 0.0101701338 -0.0025000009
-0.0019550173 0.0082048512 -0.0025000009
-0.0008631937 0.0081173357 -0.0025000009
-0.0019497138 0.0097029952 -0.0025000009
0.0072514254 0.0076610369 -0.0025000009
0.0055554393 0.0089374902 -0.0025000009
0.0051696009 0.0102806712 -0.0025000009
0.0071091483 -0.0086156369 -0.0025000009
0.0040682001 0.0034411581 -0.0025000009
0.0044460985 0.0014785599 -0.0025000009
0.0074523623 -0.0030051605 -0.0025000009
0.0049250568 0.0032247881 -0.0025000009
0.0063367835 0.0019598640 -0.0025000009
0.0036518543 0.0035267979 -0.0025000009
0.0033697777 0.0033892056 -0.0025000009
0.0068563805 0.0077507803 -0.0025000009
0.0072421999 0.0014873562 -0.0025000009
0.0070233694 -0.0075121853 -0.0025000009
0.0068916453 0.0011788231 -0.0025000009
0.0059931122 0.0003095750 -0.0025000009
0.0026911076 0.0088653478 -0.0025000009
0.0000076482 0.0119567081 -0.0025000009
0.0027617945 0.0114855100 -0.0025000009
0.0057063473 0.0112684282 -0.0025000009
-0.0034726525 -0.0031367848 -0.0025000009
-0.0035085768 -0.0026833038 -0.0025000009
-0.0040781490 0.0025641721 -0.0025000009
-0.0066775599 0.0135964525 -0.0025000009
-0.0040689718 -0.0024391696 -0.0025000009
-0.0043481632 -0.0016631511 -0.0025000009
-0.0064033864 0.0096086642 -0.0025000009
-0.0059728876 0.0061241247 -0.0025000009
-0.0076902871 0.0159475683 -0.0025000009
-0.0065510994 0.0077886086 -0.0025000009
-0.0048921685 -0.0110084793 -0.0025000009
-0.0056065885 -0.0027430393 -0.0025000009
-0.0047744918 -0.0101581405 -0.0025000009
-0.0053275659 -0.0173441829 -0.0025000009
-0.0023077353 -0.0186535912 -0.0025000009
-0.0037385987 -0.0175145257 -0.0025000009
0.0327340836 -0.0173495530 -0.0025000009
0.0345957166 -0.0181925827 -0.0025000009
0.0309413636 -0.0170025005 -0.0025000009
0.0369010037 -0.0177126349 -0.0025000009
0.0352222772 -0.0050506415 -0.0025000009
0.0351774610 -0.0062164462 -0.0025000009
0.0342175510 -0.0098757302 -0.0025000009
0.0343314903 -0.0027048880 -0.0025000009
0.0339246725 -0.0053742293 -0.0025000009
0.0353520060 0.0123729451 -0.0025000009
-0.0004751320 0.0132818714 -0.0025000009
0.0032182421 0.0142417441 -0.0025000009
0.0027582030 0.0169804964 -0.0025000009
0.0016207686 0.0143824075 -0.0025000009
0.0021378400 0.0171582154 -0.0025000009
0.0370711610 -0.0060263247 -0.0025000009
0.0373771444 -0.0164508742 -0.0025000009
0.0360489602 0.0059011680 -0.0025000009
0.0356717331 -0.0018025725 -0.0025000009
0.0359257504 0.0029313973 -0.0025000009
0.0367308147 -0.0139474848 -0.0025000009
0.0370009237 0.0042385018 -0.0025000009
0.0376874447 0.0082687936 -0.0025000009
0.0373970950 0.0077053849 -0.0025000009
0.0362670592 0.0069119583 -0.0025000009
0.0373524516 -0.0088864621 -0.0025000009
0.0375021768 -0.0088893960 -0.0025000009
0.0368768718 0.0135575207 -0.0025000009
0.0373602529 0.0070035546 -0.0025000009
0.0362502421 0.0052377066 -0.0025000009
0.0342134263 0.0027340113 -0.0025000009
0.0334456413 -0.0021196527 -0.0025000009
0.0327510780 -0.0110823043 -0.0025000009
0.0328381042 -0.0021193772 -0.0025000009
0.0289515785 -0.0000957258 -0.0025000009
0.0268339163 -0.0081292972 -0.0025000009
0.0313444109 -0.0017357955 -0.0025000009
0.0316188110 -0.0088847248 -0.0025000009
0.0294862803 -0.0068274530 -0.0025000009
0.0256339960 -0.0054097239 -0.0025000009
0.0278265448 -0.0089339454 -0.0025000009
0.0279461256 -0.0023139904 -0.0025000009
0.0287368573 -0.0074952798 -0.0025000009
0.0285928806 -0.0105479239 -0.0025000009
0.0286946886 -0.0018631519 -0.0025000009
0.0270552514 -0.0025547614 -0.0025000009
0.0316211082 0.0006644115 -0.0025000009
0.0254093032 -0.0063240226 -0.0025000009
0.0331439353 0.0043179984 -0.0025000009
0.0313380045 0.0014367154 -0.0025000009
0.0288994497 -0.0096140320 -0.0025000009
0.0277622749 -0.0014603767 -0.0025000009
0.0319747238 0.0047799222 -0.0025000009
0.0326036885 0.0040054704 -0.0025000009
0.0275138141 -0.0110884434 -0.0025000009
0.0262837677 -0.0120472383 -0.0025000009
0.0269024981 -0.0128047760 -0.0025000009
0.0272614559 -0.0134196087 -0.0025000009
-0.0013561750 0.0170517864 -0.0025000009
-0.0039581084 0.0181269388 -0.0025000009
-0.0014927655 0.0176103853 -0.0025000009
-0.0076354756 0.0189627087 -0.0016627064
-0.0027239518 0.0189868436 -0.0018880495
-0.0014028910 0.0189933352 -0.0005446411
-0.0009231819 0.0189956924 -0.0008275843
0.0375391626 -0.0188157613 -0.0011161144
0.0374540909 -0.0188161793 -0.0002276335
0.0291185541 -0.0188571412 -0.0021526841
0.0316637720 -0.0188446337 -0.0015366790
0.0354831833 0.0191745922 -0.0004875648
0.0354790993 0.0191745721 -0.0017953076
0.0375444802 0.0191847212 -0.0024623106
0.0313776162 0.0191544177 -0.0023559026
0.0380655587 -0.0132478642 -0.0001385285
0.0380869992 -0.0176107576 -0.0001524193
0.0380607136 -0.0122619521 -0.0000471855
0.0379896136 0.0022068468 -0.0010264515
0.0379728506 0.0056182223 -0.0014360009
0.0380081738 -0.0015699436 -0.0017896437
0.0380094222 -0.0018240459 -0.0015548861
0.0379292321 0.0144948444 -0.0024299024
0.0379844466 0.0032586066 -0.0020571747
0.0380401549 -0.0080780609 -0.0018512861
0.0379956786 0.0009726072 -0.0009626417
0.0380365417 -0.0073427371 -0.0019922619
0.0379475815 0.0107605484 -0.0016543896
0.0379387443 0.0125589626 -0.0011931097
0.0379436388 0.0115629184 -0.0015002381
0.0379509398 0.0100771169 -0.0001530121
0.0380230421 -0.0045960466 -0.0000071809
0.0379279090 0.0147639967 -0.0018714137
-0.0052948808 -0.0190262479 -0.0006203013
-0.0049283489 -0.0190244468 -0.0013001370
-0.0012446165 -0.0190063452 -0.0011913334
-0.0003812411 -0.0190021027 -0.0024648570
-0.0080111003 0.0022392313 -0.0007955609
-0.0080347171 0.0070453025 -0.0005226108
-0.0080902504 0.0183464469 -0.0019548009
-0.0080262983 0.0053320658 -0.0010968702
-0.0080441644 0.0089678400 -0.0015353971
-0.0080399609 0.0081124217 -0.0012102389
-0.0079900526 -0.0020440020 -0.0022732476
-0.0079309933 -0.0140626656 -0.0023548692
-0.0079950211 -0.0010328907 -0.0014324443
-0.0079738640 -0.0053383969 -0.0018450062
-0.0079814694 -0.0037906864 -0.0015397976
-0.0079650933 -0.0071232544 -0.0008693365
-0.0080292091 0.0059244221 -0.0013395880
-0.0080016193 0.0003098360 -0.0008518302
-0.0079319032 -0.0138775005 -0.0010596973
-0.0079210245 -0.0160913441 -0.0001756296
-0.0079203600 -0.0162265559 -0.0007655761
0.0196237742 0.0070132747 0.0000000005
0.0202260011 0.0100742193 0.0000000005
0.0178590114 0.0069584125 0.0000000005
0.0169598108 -0.0039348847 0.0000000005
0.0186332461 0.0058728081 0.0000000005
0.0184374483 0.0100884530 0.0000000005
0.0186095282 0.0101553688 0.0000000005
0.0175549810 0.0038728766 0.0000000005
0.0191404876 0.0125596347 0.0000000005
0.0179850469 0.0027060501 0.0000000005
0.0220254483 0.0112314585 0.0000000005
0.0353408584 -0.0166701653 0.0000000005
0.0341986666 -0.0187523586 0.0000000005
0.0344281876 -0.0180345453 0.0000000005
0.0249117693 -0.0125554993 0.0000000005
0.0193864082 -0.0091633985 0.0000000005
0.0242971052 -0.0105669009 0.0000000005
0.0251470294 -0.0108697962 0.0000000005
0.0218395152 -0.0095563512 0.0000000005
0.0172668299 -0.0095459315 0.0000000005
0.0214321034 -0.0123790474 0.0000000005
0.0186606545 -0.0121871800 0.0000000005
0.0147146324 -0.0092417204 0.0000000005
0.0101414147 -0.0122788851 0.0000000005
0.0158884291 -0.0111226643 0.0000000005
0.0147231769 -0.0120714258 0.0000000005
0.0344271730 -0.0114900125 0.0000000005
0.0379037664 -0.0126708582 0.0000000005
0.0374731539 -0.0106749888 0.0000000005
0.0374877771 -0.0124190669 0.0000000005
0.0352823009 -0.0154972393 0.0000000005
0.0284605231 -0.0177264444 0.0000000005
0.0248570170 -0.0135346625 0.0000000005
0.0270984196 -0.0162928255 0.0000000005
0.0262676834 -0.0137599319 0.0000000005
0.0320281807 -0.0114400860 0.0000000005
-0.0053778298 -0.0110846544 0.0000000005
-0.0071604160 -0.0176663345 0.0000000005
-0.0062695542 -0.0129502255 0.0000000005
-0.0070691348 -0.0135583927 0.0000000005
-0.0062205483 -0.0116937044 0.0000000005
0.0038306717 -0.0102821459 0.0000000005
0.0028763407 -0.0084649096 0.0000000005
0.0059102485 -0.0093339062 0.0000000005
-0.0034345076 -0.0099389523 0.0000000005
0.0035501590 -0.0087274515 0.0000000005
-0.0013586437 -0.0107842191 0.0000000005
0.0005008267 -0.0079813869 0.0000000005
0.0000007187 -0.0073847642 0.0000000005
0.0038244376 -0.0089903285 0.0000000005
-0.0024727414 -0.0075782247 0.0000000005
-0.0041744754 -0.0108810298 0.0000000005
0.0026703981 -0.0159322442 0.0000000005
0.0011050482 -0.0173911502 0.0000000005
0.0009851940 -0.0180241855 0.0000000005
0.0051720203 -0.0145416901 0.0000000005
0.0071103885 -0.0125824656 0.0000000005
0.0157967227 -0.0075348493 0.0000000005
0.0148093187 -0.0078344406 0.0000000005
0.0089913413 -0.0101484250 0.0000000005
0.0035153825 -0.0112184832 0.0000000005
0.0089305473 -0.0096931279 0.0000000005
0.0083015199 -0.0094392494 0.0000000005
0.0008264607 -0.0187490343 0.0000000005
-0.0013947201 -0.0185638013 0.0000000005
-0.0016544624 -0.0182943106 0.0000000005
0.0134295341 -0.0057223087 0.0000000005
0.0035673517 -0.0015080179 0.0000000005
0.0006160848 0.0146662203 0.0000000005
0.0032282499 0.0148791146 0.0000000005
0.0005124180 0.0155231888 0.0000000005
0.0036078752 0.0143437425 0.0000000005
-0.0048432046 0.0161747859 0.0000000005
-0.0009462281 0.0182509828 0.0000000005
-0.0042875482 0.0188928615 0.0000000005
-0.0059059895 0.0053818393 0.0000000005
-0.0055375592 0.0082224480 0.0000000005
-0.0059200282 0.0074074383 0.0000000005
-0.0074906665 0.0032814302 0.0000000005
-0.0078917363 0.0006838510 0.0000000005
-0.0068673567 0.0065533785 0.0000000005
-0.0075898934 0.0117288003 0.0000000005
-0.0072625346 0.0113776102 0.0000000005
-0.0077016650 0.0028462819 0.0000000005
-0.0053859201 0.0152309257 0.0000000005
-0.0047620604 -0.0044838895 0.0000000005
-0.0038934622 0.0037928702 0.0000000005
-0.0055099207 0.0044536183 0.0000000005
-0.0037801109 -0.0007739795 0.0000000005
-0.0048001293 -0.0018101948 0.0000000005
-0.0037564387 0.0065371860 0.0000000005
-0.0043427090 0.0019639381 0.0000000005
-0.0044850485 0.0041086586 0.0000000005
-0.0022367373 0.0033587014 0.0000000005
0.0106250208 -0.0046769255 0.0000000005
0.0050912838 -0.0023918863 0.0000000005
0.0092714467 -0.0049710071 0.0000000005
-0.0030579048 -0.0062625443 0.0000000005
-0.0004501191 -0.0053245302 0.0000000005
0.0088671333 -0.0056604594 0.0000000005
0.0022112993 -0.0054304465 0.0000000005
-0.0016846957 -0.0042568168 0.0000000005
0.0104398257 -0.0068206519 0.0000000005
-0.0057985793 -0.0063084736 0.0000000005
0.0085864293 -0.0051106200 0.0000000005
0.0016443582 -0.0068586069 0.0000000005
0.0045609550 -0.0051659760 0.0000000005
-0.0017941767 -0.0026415922 0.0000000005
0.0136873149 -0.0055429433 0.0000000005
0.0161587764 0.0059877106 0.0000000005
0.0093347460 -0.0024493837 0.0000000005
0.0038997758 0.0021650010 0.0000000005
0.0143068657 0.0058593088 0.0000000005
0.0134756386 0.0029752347 0.0000000005
0.0121160281 0.0036035724 0.0000000005
0.0140008998 0.0004381514 0.0000000005
0.0141159046 0.0017789284 0.0000000005
0.0067771608 0.0001951030 0.0000000005
0.0066850964 0.0007189505 0.0000000005
0.0136256057 0.0003839065 0.0000000005
0.0145828723 0.0055117115 0.0000000005
0.0080208626 -0.0006335913 0.0000000005
0.0062472402 0.0004961271 0.0000000005
0.0109625682 -0.0026362475 0.0000000005
0.0135179242 0.0056918604 0.0000000005
0.0082399521 0.0006436762 0.0000000005
0.0145924560 0.0052670122 0.0000000005
0.0156006965 0.0036190616 0.0000000005
0.0049446212 0.0001427617 0.0000000005
0.0066474999 0.0018113800 0.0000000005
0.0148712273 -0.0054605291 0.0000000005
0.0121127930 0.0065964793 0.0000000005
0.0141120342 0.0032132150 0.0000000005
0.0133831690 0.0083955934 0.0000000005
0.0085305192 0.0065875495 0.0000000005
0.0099458926 0.0076983822 0.0000000005
0.0037287562 0.0036286477 0.0000000005
0.0052143410 0.0063902946 0.0000000005
0.0030832167 0.0042350421 0.0000000005
0.0111186097 0.0117338792 0.0000000005
0.0050937034 0.0059991621 0.0000000005
0.0062454129 0.0073440681 0.0000000005
0.0133361238 0.0108689882 0.0000000005
0.0083380419 0.0093994109 0.0000000005
0.0083606649 0.0075006063 0.0000000005
0.0021925121 0.0046486517 0.0000000005
0.0023200385 0.0043744460 0.0000000005
0.0009360073 0.0115577007 0.0000000005
0.0008671353 0.0080024768 0.0000000005
0.0029353100 0.0082015174 0.0000000005
0.0070033530 0.0125240777 0.0000000005
0.0018106830 0.0075764230 0.0000000005
0.0036372957 0.0091226986 0.0000000005
0.0018788553 0.0120073942 0.0000000005
0.0004785638 0.0141201300 0.0000000005
-0.0013025453 0.0120990765 0.0000000005
0.0001974244 0.0041789338 0.0000000005
-0.0016626641 0.0090413372 0.0000000005
-0.0012113766 0.0041952590 0.0000000005
-0.0038964121 0.0112606069 0.0000000005
0.0360427908 0.0177929599 0.0000000005
0.0368859827 0.0065445164 0.0000000005
0.0374229274 0.0102091268 0.0000000005
0.0376755302 0.0099743788 0.0000000005
0.0372008256 0.0006237061 0.0000000005
0.0362255423 0.0115400374 0.0000000005
0.0369234049 0.0054844371 0.0000000005
0.0372342650 -0.0010403239 0.0000000005
0.0350162354 0.0093378212 0.0000000005
0.0358737744 0.0034187783 0.0000000005
0.0368759621 -0.0016728923 0.0000000005
0.0354071639 0.0037808828 0.0000000005
0.0368453151 -0.0028054325 0.0000000005
0.0333571465 0.0076914869 0.0000000005
0.0241995320 -0.0097810833 0.0000000005
0.0286452080 -0.0107037549 0.0000000005
0.0305659444 -0.0094124501 0.0000000005
0.0327173978 -0.0086186690 0.0000000005
0.0312513107 -0.0099489108 0.0000000005
0.0372587757 -0.0070471203 0.0000000005
0.0241437393 -0.0079621575 0.0000000005
0.0327943807 -0.0097408319 0.0000000005
0.0263988526 -0.0076608641 0.0000000005
0.0347733939 -0.0092162650 0.0000000005
0.0262395732 -0.0022342745 0.0000000005
0.0259023056 0.0053255042 0.0000000005
0.0201688289 0.0037415834 0.0000000005
0.0265232731 0.0059686748 0.0000000005
0.0287213994 -0.0043476858 0.0000000005
0.0245113042 0.0050313271 0.0000000005
0.0272763846 0.0005225864 0.0000000005
0.0198317347 -0.0017912278 0.0000000005
0.0223216771 0.0047070993 0.0000000005
0.0190133355 -0.0001257143 0.0000000005
0.0308649184 -0.0060494716 0.0000000005
0.0205459979 0.0023116312 0.0000000005
0.0202904228 0.0039445526 0.0000000005
0.0271064399 -0.0022480397 0.0000000005
0.0291867258 0.0011213828 0.0000000005
0.0190186342 -0.0026180650 0.0000000005
0.0285283517 0.0019602412 0.0000000005
0.0185993393 -0.0068443510 0.0000000005
0.0269280029 0.0027540434 0.0000000005
0.0298422974 -0.0011041865 0.0000000005
0.0282475499 -0.0002654421 0.0000000005
0.0262638458 -0.0018114661 0.0000000005
0.0203578540 -0.0068849102 0.0000000005
0.0263655310 0.0055570494 0.0000000005
0.0260619512 -0.0059549709 0.0000000005
0.0195032374 -0.0051974726 0.0000000005
0.0223228279 0.0064740829 0.0000000005
0.0316874406 -0.0001228723 0.0000000005
0.0290716145 0.0033162857 0.0000000005
0.0307566856 -0.0043825185 0.0000000005
0.0226714313 -0.0054499791 0.0000000005
0.0230003617 -0.0055362479 0.0000000005
0.0224284320 0.0054773854 0.0000000005
0.0352738084 -0.0064584102 0.0000000005
0.0339233837 -0.0062629421 0.0000000005
0.0257964062 0.0083586573 0.0000000005
0.0232908813 -0.0024412334 0.0000000005
0.0238065525 0.0071883028 0.0000000005
0.0294977511 0.0044290968 0.0000000005
0.0334292423 0.0058605462 0.0000000005
0.0356742225 -0.0016637628 0.0000000005
0.0272454034 0.0079366852 0.0000000005
0.0300492715 0.0034343288 0.0000000005
0.0336945633 0.0006535458 0.0000000005
0.0316904016 0.0030852105 0.0000000005
0.0346981470 0.0019111266 0.0000000005
0.0368091332 -0.0050193356 0.0000000005
0.0317767376 0.0044853160 0.0000000005
0.0302700461 0.0046314843 0.0000000005
0.0298479392 0.0044148237 0.0000000005
0.0318661832 0.0033977582 0.0000000005
0.0311673156 0.0020439589 0.0000000005
0.0236016626 0.0123207555 0.0000000005
0.0297397814 0.0081868788 0.0000000005
0.0297333156 0.0174434031 0.0000000005
0.0281929929 0.0182113224 0.0000000005
0.0289346104 0.0173749254 0.0000000005
0.0275323923 0.0146978627 0.0000000005
0.0277648660 0.0135748100 0.0000000005
0.0235990191 0.0126902410 0.0000000005
0.0323009585 0.0167905677 0.0000000005
0.0321997691 0.0172951157 0.0000000005
0.0328201902 0.0169360004 0.0000000005
-0.0044684224 -0.0119579257 -0.0023879397
-0.0054122984 -0.0132247791 -0.0016100296
-0.0051991840 -0.0152495796 -0.0003204797
-0.0037474833 -0.0164409873 -0.0003632995
-0.0011306150 -0.0158591207 -0.0008952172
-0.0003492242 -0.0134245130 -0.0012660444
-0.0015139395 -0.0118641779 -0.0022619763
0.0336468618 0.0117147552 -0.0023822115
0.0350608652 0.0126339310 -0.0014439359
0.0350750003 0.0156509138 -0.0024401618
0.0343009642 0.0163495481 -0.0018773258
0.0320423895 0.0165689925 -0.0010904393
0.0303617188 0.0147668165 -0.0004019779
0.0307439798 0.0127604926 -0.0016418784
0.0322347780 0.0117087422 -0.0022515576
0.0345775391 -0.0159169639 -0.0023754782
0.0356516006 -0.0135039750 -0.0022445156
0.0346304589 -0.0118016165 -0.0014501785
0.0334993858 -0.0113252982 -0.0008073459
0.0316524762 -0.0116832856 -0.0001342110
0.0304852072 -0.0141745186 -0.0009683538
0.0311766407 -0.0156134436 -0.0003845319
-0.0035009187 0.0164985906 -0.0008469872
-0.0052287519 0.0154501986 -0.0017137418
-0.0053142084 0.0127038076 -0.0016777760
-0.0041228551 0.0116117184 -0.0015108465
-0.0020755340 0.0116025512 -0.0018158260
-0.0008079248 0.0127320369 -0.0002309784
-0.0009205415 0.0154657633 -0.0009824136
-0.0024779646 0.0164618135 -0.0004144140
0.0050719749 0.0148800695 -0.0001076511
0.0061666386 0.0137961118 -0.0014090352
0.0026599151 0.0172685392 -0.0012165271
0.0047682852 0.0151807891 -0.0015873472
0.0144504374 0.0125711603 -0.0000721115
0.0095519749 0.0125470893 -0.0007383456
0.0106970482 0.0125527162 -0.0031705651
0.0109456011 0.0125539375 -0.0039235984
0.0092190481 0.0125454533 -0.0162789264
0.0120882912 0.0125595527 -0.0033471548
0.0123535264 0.0125608561 -0.0070401872
0.0093106612 0.0125459035 -0.0187423409
0.0084655721 0.0125417507 -0.0216222652
0.0080670170 0.0125397922 -0.0024255083
0.0150996504 0.0125743505 -0.0028922088
0.0120067619 0.0125591521 -0.0072794806
0.0089848237 0.0125443023 -0.0024137142
0.0087038597 0.0125429216 -0.0183736389
0.0116034790 0.0125571703 -0.0046370598
0.0129027931 0.0125635552 -0.0033648064
0.0093157146 0.0125459283 -0.0147671986
0.0079613349 0.0125392729 -0.0195624027
0.0103194574 0.0125508607 -0.0118722923
0.0095983351 0.0125473171 -0.0156190105
0.0197286350 0.0125970971 -0.0172512377
0.0176702741 0.0125869825 -0.0289251137
0.0174067646 0.0125856876 -0.0285824097
0.0197909801 0.0125974035 -0.0165026777
0.0206745574 0.0126017453 -0.0231899022
0.0188814037 0.0125929339 -0.0246755280
0.0224379555 0.0126104105 -0.0222067511
0.0189561341 0.0125933011 -0.0242175443
0.0186385157 0.0125917403 -0.0236025381
0.0217040188 0.0126068040 -0.0116821575
0.0205205165 0.0126009883 -0.0238402126
0.0193327269 0.0125951516 -0.0231769434
0.0208181579 0.0126024509 -0.0163917933
0.0079418394 0.0125391771 -0.0258733736
0.0210997399 0.0126038345 -0.0277141203
0.0213313157 0.0126049725 -0.0258085484
0.0219934829 0.0126082264 -0.0251665289
0.0221243914 0.0126088697 -0.0020778418
0.0166583400 0.0125820099 -0.0272239403
0.0165442509 0.0125814493 -0.0072118309
0.0207881756 0.0126023036 -0.0018077462
0.0190562324 0.0125937930 -0.0099100422
0.0207315740 0.0126020255 -0.0100927596
0.0200987784 0.0125989159 -0.0035325517
0.0218411667 0.0126074779 -0.0033747808
0.0201565414 0.0125991998 -0.0093875134
0.0171030829 0.0125841953 -0.0086309626
0.0210356601 0.0126035197 -0.0028029807
0.0180155029 0.0125886789 -0.0117442254
0.0176649535 0.0125869563 -0.0125897656
0.0177474158 0.0125873615 -0.0146347023
0.0201518722 0.0125991769 -0.0065680341
0.0188652399 0.0125928544 -0.0066394020
0.0208274842 0.0126024968 -0.0095812913
0.0192313568 0.0125946535 -0.0020112661
0.0120500893 0.0125593650 -0.0276484400
0.0096215189 0.0125474310 -0.0262131859
0.0152396501 0.0125750385 -0.0048147632
0.0100253797 0.0125494156 -0.0252253515
0.0156574942 0.0125770918 -0.0159057693
0.0125984966 0.0125620599 -0.0108160080
0.0101465655 0.0125500111 -0.0173426449
0.0096512575 0.0125475772 -0.0203019767
0.0144314734 0.0125710671 -0.0241387457
0.0119303297 0.0125587765 -0.0141553273
0.0107825263 0.0125531362 -0.0261080006
0.0157238717 0.0125774179 -0.0093823532
0.0141163062 0.0125695184 -0.0115242933
0.0148906037 0.0125733233 -0.0112576606
0.0147107259 0.0125724394 -0.0224703546
0.0152337694 0.0125750096 -0.0142706140
0.0114563039 0.0125564472 -0.0262658977
0.0157748614 0.0125776685 -0.0107834512
0.0129313334 0.0125636955 -0.0282182244
0.0138702367 0.0125683092 -0.0168314258
0.0144123710 0.0125709733 -0.0184657443
0.0117517187 0.0125578988 -0.0154318568
0.0159800286 0.0125786767 -0.0264985357
0.0091120771 0.0125449276 -0.0252638440
0.0140511798 0.0125691984 -0.0289228580
0.0128169774 0.0125631339 -0.0306596821
0.0099244185 0.0125489196 -0.0271464805
0.0100919013 0.0125497425 -0.0280049039
0.0267969669 0.0170121225 -0.0004408750
0.0286777231 0.0189114538 -0.0019846818
0.0241486155 0.0143376149 -0.0018527641
0.0259864130 0.0161935633 -0.0018881601
0.0230325652 -0.0128560897 -0.0009943701
0.0270747875 -0.0168587786 -0.0004517219
0.0268268296 -0.0166132458 -0.0018546193
0.0254656003 -0.0152653294 -0.0015023037
0.0087190092 -0.0124573062 -0.0255179723
0.0214393037 -0.0123947991 -0.0013667000
0.0199607967 -0.0124020644 -0.0004805408
0.0205877583 -0.0123989835 -0.0052261610
0.0182299392 -0.0124105697 -0.0038139615
0.0217512175 -0.0123932664 -0.0053770990
0.0204574082 -0.0123996241 -0.0040015832
0.0204428344 -0.0123996957 -0.0095446555
0.0197749117 -0.0124029778 -0.0119736390
0.0200497814 -0.0124016271 -0.0016861344
0.0215807032 -0.0123941043 -0.0047591371
0.0210803807 -0.0123965628 -0.0120922424
0.0211944634 -0.0123960022 -0.0118534184
0.0224074879 -0.0123900415 -0.0024427570
0.0223321304 -0.0123904114 -0.0256532037
0.0121908555 -0.0124402455 -0.0212744722
0.0110867525 -0.0124456711 -0.0195534277
0.0141451233 -0.0124306423 -0.0283751621
0.0081098218 -0.0124602997 -0.0188427950
0.0076600299 -0.0124625100 -0.0176975170
0.0110039513 -0.0124460780 -0.0177514789
0.0086635337 -0.0124575788 -0.0075759861
0.0090905935 -0.0124554802 -0.0103793072
0.0108202181 -0.0124469809 -0.0162439853
0.0115263475 -0.0124435109 -0.0193613447
0.0095293194 -0.0124533243 -0.0115542825
0.0081395268 -0.0124601538 -0.0060093128
0.0080811672 -0.0124604406 -0.0237161557
0.0143717652 -0.0124295286 -0.0268209867
0.0085282129 -0.0124582438 -0.0234636635
0.0101988806 -0.0124500341 -0.0191111001
0.0093363628 -0.0124542725 -0.0155033924
0.0112240330 -0.0124449965 -0.0008421918
0.0114763005 -0.0124437569 -0.0009753167
0.0161817115 -0.0124206345 -0.0065730508
0.0159600470 -0.0124217238 -0.0155371715
0.0146280507 -0.0124282692 -0.0200154879
0.0123548192 -0.0124394399 -0.0039651676
0.0116617412 -0.0124428456 -0.0100231317
0.0154910143 -0.0124240286 -0.0180317158
0.0163820755 -0.0124196500 -0.0038661536
0.0120852404 -0.0124407645 -0.0167242781
0.0145414102 -0.0124286950 -0.0053761760
0.0136008501 -0.0124333169 -0.0023589109
0.0102805554 -0.0124496328 -0.0112196730
0.0154096945 -0.0124244282 -0.0130075350
0.0155036539 -0.0124239665 -0.0204875895
0.0082497747 -0.0124596120 -0.0048619190
0.0163220002 -0.0124199451 -0.0114421036
0.0126956914 -0.0124377648 -0.0017568793
0.0088106538 -0.0124568559 -0.0043268824
0.0141261126 -0.0124307357 -0.0243910708
0.0112563083 -0.0124448379 -0.0028083358
0.0131147896 -0.0124357053 -0.0162527799
0.0152575916 -0.0124251757 -0.0081546639
0.0158644811 -0.0124221934 -0.0245797910
0.0134990180 -0.0124338173 -0.0118947618
0.0100031087 -0.0124509961 -0.0092934903
0.0161171360 -0.0124209518 -0.0153270722
0.0151692787 -0.0124256096 -0.0154024287
0.0124770368 -0.0124388393 -0.0051989152
0.0182107881 -0.0124106638 -0.0156489985
0.0186614829 -0.0124084491 -0.0124818707
0.0175441287 -0.0124139397 -0.0076137439
0.0178167747 -0.0124125999 -0.0224626071
0.0173030168 -0.0124151245 -0.0059298698
0.0179609009 -0.0124118917 -0.0064745579
0.0178048267 -0.0124126586 -0.0291884949
0.0171299951 -0.0124159747 -0.0094865495
0.0164921686 -0.0124191089 -0.0141271761
0.0209541770 -0.0123971830 -0.0246088496
0.0186845808 -0.0124083356 -0.0149345023
0.0211154572 -0.0123963904 -0.0257030404
0.0195929693 -0.0124038718 -0.0237239776
0.0186540245 -0.0124084857 -0.0167770383
0.0165915829 -0.0124186204 -0.0125493323
0.0169767618 -0.0124167277 -0.0192894735
0.0177050350 -0.0124131490 -0.0110843411
0.0170214580 -0.0124165081 -0.0128041161
0.0183928029 -0.0124097694 -0.0299214804
0.0195504595 -0.0124040805 -0.0298284233
0.0096292996 -0.0124528331 -0.0280489575
0.0119982270 -0.0124411918 -0.0296479549
0.0032667126 -0.0168000311 -0.0004043596
0.0070447187 -0.0129847121 -0.0001838441
0.0066494533 -0.0133838813 -0.0012564014
0.0065941740 -0.0134397065 -0.0015543058
0.0075532872 -0.0108255475 -0.0027098576
0.0075523716 -0.0106392061 -0.0050558410
0.0075503987 -0.0102377275 -0.0130142846
0.0075565090 -0.0114812018 -0.0028939193
0.0075491866 -0.0099910522 -0.0097063655
0.0075593605 -0.0120614759 -0.0221295864
0.0075609990 -0.0123949209 -0.0178337769
0.0075573527 -0.0116528879 -0.0199302892
0.0075501344 -0.0101839252 -0.0225784609
0.0075574496 -0.0116726073 -0.0122571886
0.0225601351 -0.0121824313 -0.0153840946
0.0225530006 -0.0107304698 -0.0083009359
0.0225601687 -0.0121892648 -0.0200572005
0.0225601101 -0.0121773330 -0.0162138672
0.0225552318 -0.0111845596 -0.0034150347
0.0225513286 -0.0103902108 -0.0218378333
0.0225552140 -0.0111809350 -0.0215917189
0.0225491178 -0.0099402730 -0.0089874026
0.0225511374 -0.0103512900 -0.0208326656
0.0225507982 -0.0102822576 -0.0220739985
0.0223615122 -0.0099910559 -0.0258065437
0.0216439864 -0.0112369673 -0.0279436500
0.0203585836 -0.0105385546 -0.0297121562
0.0189516079 -0.0111690289 -0.0308203978
0.0167843531 -0.0107831670 -0.0317287502
0.0142514170 -0.0119668346 -0.0319236591
0.0123130960 -0.0116836965 -0.0314312191
0.0104579690 -0.0113063947 -0.0303697500
0.0088586050 -0.0112059799 -0.0286850243
0.0083123409 -0.0102462862 -0.0276160679
0.0075567610 -0.0108690618 -0.0245226725
0.0119246736 -0.0099415227 -0.0041485152
0.0122018725 -0.0099401606 -0.0092314451
0.0086523828 -0.0099576027 -0.0040039956
0.0133801336 -0.0099343707 -0.0091082555
0.0079078738 -0.0099612612 -0.0141962526
0.0101487371 -0.0099502496 -0.0166410894
0.0143760368 -0.0099294768 -0.0082840551
0.0141895813 -0.0099303931 -0.0061644302
0.0091671669 -0.0099550730 -0.0163972636
0.0082876689 -0.0099593949 -0.0057725838
0.0155867542 -0.0099235274 -0.0101879202
0.0154494572 -0.0099242021 -0.0098861667
0.0139891915 -0.0099313778 -0.0054093998
0.0206059713 -0.0098988631 -0.0030735908
0.0126732576 -0.0099378442 -0.0057418799
0.0142626541 -0.0099300340 -0.0098024086
0.0180158172 -0.0099115911 -0.0050628446
0.0116867102 -0.0099426921 -0.0093244421
0.0161935292 -0.0099205457 -0.0071798967
0.0148591147 -0.0099271030 -0.0030214986
0.0207741738 -0.0098980366 -0.0030576621
0.0149363062 -0.0099267237 -0.0048768574
0.0077546579 -0.0099620141 -0.0177822593
0.0115818774 -0.0099432072 -0.0108594579
0.0184246874 -0.0099095819 -0.0034641524
0.0103969572 -0.0099490299 -0.0170053786
0.0185124107 -0.0099091508 -0.0052653972
0.0136410356 -0.0099330886 -0.0083865179
0.0162291321 -0.0099203708 -0.0034331600
0.0208180217 -0.0098978211 -0.0025964037
0.0136098603 -0.0099332418 -0.0218050075
0.0147024273 -0.0099278730 -0.0228949439
0.0191835879 -0.0099058527 -0.0202895909
0.0146768649 -0.0099279986 -0.0219008727
0.0212642741 -0.0098956283 -0.0152872636
0.0100319938 -0.0099508233 -0.0220599641
0.0190817773 -0.0099063530 -0.0234528573
0.0145445652 -0.0099286487 -0.0146883175
0.0191289253 -0.0099061213 -0.0167044858
0.0171124593 -0.0099160301 -0.0238486538
0.0119038595 -0.0099416250 -0.0241876830
0.0103548304 -0.0099492369 -0.0226026653
0.0221354455 -0.0098913474 -0.0129849569
0.0125295209 -0.0099385505 -0.0242712726
0.0176289860 -0.0099134919 -0.0217739761
0.0199325606 -0.0099021723 -0.0137075189
0.0224163455 -0.0098899670 -0.0170237449
0.0206038111 -0.0098988738 -0.0057676842
0.0192563308 -0.0099054952 -0.0235588624
0.0149281853 -0.0099267636 -0.0163860754
0.0213797859 -0.0098950606 -0.0233907959
0.0166890326 -0.0099181108 -0.0201533453
0.0219022921 -0.0098924931 -0.0054508304
0.0179945892 -0.0099116954 -0.0211416116
0.0196282985 -0.0099036674 -0.0090248982
0.0214595232 -0.0098946688 -0.0167078220
0.0221741419 -0.0098911572 -0.0159585076
0.0210870405 -0.0098964992 -0.0242494834
0.0208596583 -0.0098976165 -0.0145704861
0.0190557040 -0.0099064811 -0.0172978425
0.0108588057 -0.0099467604 -0.0246810500
0.0172707562 -0.0099152523 -0.0246779942
0.0165426115 -0.0099188302 -0.0310876781
0.0147928170 -0.0099274287 -0.0306328489
0.0116774470 -0.0099427376 -0.0290572657
0.0208821005 -0.0098975063 -0.0266479480
0.0205703271 -0.0098990384 -0.0279206475
0.0175640637 -0.0099138110 -0.0269612573
0.0193265207 -0.0099051504 -0.0283965988
0.0123492888 -0.0099394362 -0.0259856228
0.0114923497 -0.0099436472 -0.0270813948
0.0102350617 -0.0099498254 -0.0262353064
0.0157362277 -0.0099227930 -0.0292836622
0.0081333669 -0.0099601530 -0.0268362477
0.0142091281 -0.0099302968 -0.0312656470
0.0074405466 0.0121172838 -0.0068810836
0.0074412664 0.0119708055 -0.0170860583
0.0074453825 0.0111331895 -0.0228655513
0.0074397191 0.0122856817 -0.0125795812
0.0074419650 0.0118286410 -0.0148192482
0.0074458553 0.0110369843 -0.0133774965
0.0074477609 0.0106492033 -0.0099450632
0.0074504981 0.0100921862 -0.0238106917
0.0074501282 0.0101674566 -0.0040460616
0.0074445118 0.0113103829 -0.0127988177
0.0074867484 0.0123402781 -0.0248289581
0.0080000153 0.0116144202 -0.0271673988
0.0089742680 0.0114694541 -0.0289470965
0.0105586406 0.0114467597 -0.0305063010
0.0120747867 0.0105595688 -0.0313933399
0.0146935141 0.0110498554 -0.0319236591
0.0160211907 0.0120876174 -0.0319198321
0.0181595709 0.0105835103 -0.0312607091
0.0199640701 0.0122833363 -0.0300380203
0.0216480013 0.0121407112 -0.0276833141
0.0221742686 0.0117608694 -0.0263654187
0.0224495051 0.0103309524 -0.0224610383
0.0224419078 0.0118771062 -0.0242648477
0.0224443000 0.0113902521 -0.0181270807
0.0224459788 0.0110485959 -0.0174930593
0.0224455227 0.0111414132 -0.0151978389
0.0224431160 0.0116312216 -0.0132532977
0.0224484652 0.0105425913 -0.0054427997
0.0224409020 0.0120817918 -0.0153698373
0.0224404686 0.0121699907 -0.0036311237
0.0224443664 0.0113767394 -0.0050203060
0.0151553143 0.0100745938 -0.0096209284
0.0133699069 0.0100658204 -0.0076710308
0.0175302882 0.0100862643 -0.0073208896
0.0180792425 0.0100889619 -0.0104089300
0.0211083858 0.0101038470 -0.0141533281
0.0214232248 0.0101053941 -0.0184958207
0.0223114086 0.0101097586 -0.0156104104
0.0195186986 0.0100960353 -0.0167544584
0.0210728277 0.0101036723 -0.0172062138
0.0214171164 0.0101053641 -0.0078685764
0.0205245695 0.0101009781 -0.0174406211
0.0149242436 0.0100734583 -0.0120897593
0.0197131960 0.0100969911 -0.0200676353
0.0086471006 0.0100426127 -0.0027641066
0.0115678060 0.0100569649 -0.0079532692
0.0159797852 0.0100786452 -0.0104746138
0.0175349213 0.0100862871 -0.0124980302
0.0165430031 0.0100814129 -0.0131565090
0.0178685766 0.0100879267 -0.0122420048
0.0202318108 0.0100995395 -0.0095273913
0.0213518019 0.0101050431 -0.0227012875
0.0222880190 0.0101096437 -0.0129256379
0.0219948269 0.0101082029 -0.0218762838
0.0145386726 0.0100715636 -0.0126156667
0.0137383062 0.0100676307 -0.0071376551
0.0186713600 0.0100918715 -0.0070060212
0.0213437992 0.0101050038 -0.0118903523
0.0198724534 0.0100977737 -0.0040381368
0.0167515852 0.0100824378 -0.0034140867
0.0208955038 0.0101028009 -0.0159272210
0.0125494287 0.0100617886 -0.0138308180
0.0083622801 0.0100412131 -0.0228702322
0.0117827898 0.0100580213 -0.0191509253
0.0187307958 0.0100921636 -0.0209068634
0.0130876524 0.0100644334 -0.0177089214
0.0086324392 0.0100425406 -0.0206405070
0.0209673863 0.0101031541 -0.0226626026
0.0132386854 0.0100651755 -0.0179068892
0.0107643039 0.0100530165 -0.0098349002
0.0099341339 0.0100489371 -0.0224949581
0.0153558529 0.0100755792 -0.0197121685
0.0075277306 0.0100371121 -0.0167110001
0.0178700167 0.0100879338 -0.0229773410
0.0117609300 0.0100579139 -0.0105778504
0.0116845958 0.0100575388 -0.0206351565
0.0173167513 0.0100852150 -0.0196527877
0.0181449262 0.0100892846 -0.0191416628
0.0190137907 0.0100935542 -0.0205992206
0.0123411974 0.0100607653 -0.0214073379
0.0100242474 0.0100493799 -0.0169826730
0.0075516554 0.0100372297 -0.0127806384
0.0081012825 0.0100399305 -0.0105389921
0.0126548781 0.0100623067 -0.0158404196
0.0108626150 0.0100534996 -0.0233452423
0.0093073102 0.0100458569 -0.0212989619
0.0091007060 0.0100448417 -0.0235582057
0.0173813500 0.0100855325 -0.0231200494
0.0101519010 0.0100500072 -0.0070522423
0.0129775472 0.0100638923 -0.0150305765
0.0176320940 0.0100867646 -0.0196225816
0.0075716361 0.0100373276 -0.0252056416
0.0099085552 0.0100488107 -0.0261784758
0.0082316924 0.0100405708 -0.0258940569
0.0098127789 0.0100483400 -0.0277268162
0.0097186891 0.0100478776 -0.0276698835
0.0091414430 0.0100450410 -0.0269809649
0.0152709319 0.0100751615 -0.0266527042
0.0092613517 0.0100456302 -0.0289831868
0.0152361393 0.0100749905 -0.0302056874
0.0148301198 0.0100729953 -0.0299656857
0.0157021954 0.0100772807 -0.0299678086
0.0206408453 0.0101015494 -0.0271490856
0.0159884934 0.0100786876 -0.0287748336
0.0217806212 0.0101071503 -0.0262623072
0.0145275372 0.0100715084 -0.0285675137
0.0180652675 0.0100888930 -0.0306405727
-0.0029436875 0.0002375265 0.0004389458
-0.0023387320 0.0017577070 0.0067218396
-0.0020119392 0.0021716481 0.0037679022
-0.0020187471 0.0021630247 0.0030439347
-0.0017790519 0.0023864630 0.0082543051
-0.0008375625 0.0028455735 0.0044302548
-0.0005012006 0.0029223560 0.0043449038
0.0003697917 0.0029266360 0.0002843120
-0.0001029127 0.0029243131 0.0004540996
0.0011355807 0.0026986314 0.0080422342
0.0013867984 0.0025791686 0.0051477223
0.0018970127 0.0023073710 0.0034734172
0.0022589658 0.0018580437 0.0007038685
0.0027500413 0.0010854457 0.0049509192
0.0028371942 0.0007120698 0.0096537697
0.0029300020 0.0003144678 0.0013178430
0.0029413229 -0.0002481286 0.0037796302
0.0029085890 -0.0003948654 0.0014371895
0.0023609676 -0.0017295419 0.0077095949
0.0022099467 -0.0019208369 0.0009147647
0.0022489227 -0.0018714668 0.0013136196
0.0012346909 -0.0026519168 0.0066968801
0.0008143114 -0.0028569117 0.0015934243
-0.0001592023 -0.0029256012 0.0083118628
-0.0004970199 -0.0029272612 0.0021956944
-0.0001540693 -0.0029255759 0.0050253242
-0.0009575755 -0.0027832792 0.0098495210
-0.0018470308 -0.0023603116 0.0088896226
-0.0020200253 -0.0021546630 0.0090938126
-0.0026224079 -0.0014068683 0.0084849713
-0.0028146807 -0.0008085207 0.0093096873
-0.0028839306 -0.0005118431 0.0096167805
-0.0029145577 -0.0003806318 0.0031097406
-0.0029708430 0.0001157953 0.0073243124
0.0009383082 -0.0001860279 0.0099999988
0.0017706283 -0.0020785521 0.0099999988
-0.0025123989 -0.0014358940 0.0099999988
-0.0007649263 0.0008922349 0.0099999988
0.0004516355 0.0010387798 0.0099999988
