0.1922000051 -0.0334726575 0.0626378710
0.1835202297 0.0336627858 0.1314148322
0.1944999993 0.0006796572 0.0989436938
0.2104895668 0.0007120803 0.1042021811
0.2064997040 0.0010860853 0.0792021826
0.2129999995 0.0013481930 0.0924440508
-0.1864995297 0.0352227003 0.1419459049
0.1197871071 0.0058465205 0.1270032983
0.1193914744 0.0010927652 0.1275825207
0.2270269954 -0.0740627477 0.1051910910
0.2264118065 0.0710590758 0.1039440341
0.2182857671 0.0309888274 0.0685108120
0.2153188375 0.0276536410 0.0572738610
0.2133538975 0.0232365742 0.0563234620
0.2134623782 -0.0376837016 0.0630747446
0.2054000050 0.0004027295 0.0720546427
-0.1800000072 0.0117088826 0.1372449120
-0.1899999976 -0.0019057365 0.1369774175
-0.1828927683 0.0381320035 0.1379999965
-0.1847742424 0.0087029027 0.1260000020
0.1899999976 0.0508248624 0.1295217098
0.1800000072 -0.0588584632 0.1343330976
0.1813812472 -0.0204055985 0.1379999965
0.1844925453 -0.0420955293 0.1260000020
0.0363918884 -0.1040000021 0.1495504812
0.0109456143 -0.0960000008 0.1484892240
0.1548493465 -0.0970000029 0.1571219883
0.0279305994 -0.1022835483 0.1519999951
-0.0568861563 -0.1030213803 0.1577922617
0.0714886740 -0.1020042568 0.1475541978
-0.1834828840 -0.0986484630 0.1444124739
-0.1101381132 -0.1014816966 0.1493869550
0.1128799672 -0.1000986569 0.1517986579
0.1805889157 -0.1067041044 0.1536434410
-0.1131416050 -0.1069901867 0.1420704812
-0.0153745348 -0.1041924572 0.1448682038
-0.1495332506 -0.1149640553 0.1379999965
-0.1662697188 -0.1156423433 0.1379999965
-0.0509138831 -0.1034374719 0.1379999965
-0.0735166525 -0.1030975631 0.1380926316
-0.1608453864 -0.1031849897 0.1400000006
-0.1346098985 -0.1045748274 0.1423645078
-0.1517383007 -0.1025560016 0.1439999938
-0.1747866200 -0.0995877097 0.1439999938
0.1279249348 -0.0946373128 0.1415766545
0.1590376785 -0.0969542520 0.1400000006
-0.1415118770 -0.0970000029 0.1396676021
-0.0722635058 -0.0860427998 0.1379999965
0.0459356095 -0.0849433302 0.1379999965
0.0410850251 -0.0897445350 0.1379999965
-0.0118302051 -0.0953156414 0.1443763007
-0.0743352218 -0.0943561196 0.1434167812
0.0822650966 -0.0949458330 0.1519935106
-0.1267842093 -0.0958365402 0.1511028056
-0.1371968567 -0.0879067162 0.1580000073
0.0617401572 -0.0834788117 0.1580000073
0.0561199106 -0.0931467108 0.1580000073
0.1723792912 -0.0946269655 0.1560000032
-0.1567512419 -0.0966898741 0.1523707827
0.1027616261 -0.0965763111 0.1524843452
-0.1130671738 -0.1048862793 0.1539469411
-0.0744905289 -0.1038716395 0.1560000032
-0.1502716846 -0.1086971719 0.1580000073
0.0515834728 -0.1127864906 0.1580000073
-0.0307153876 -0.1109312668 0.1580000073
0.1568180450 -0.1047937927 0.1580000073
-0.1899999976 -0.1231340442 0.1508356101
-0.0886625537 -0.1141788519 0.1432395137
-0.1878372176 -0.1159999967 0.1472160175
-0.0223416315 -0.1159999967 0.1494439855
-0.0610676432 -0.1140896924 0.1528496497
0.0918629676 -0.1162012001 0.1560000032
-0.0362634950 -0.1140000001 0.1557490288
-0.1123373974 -0.1160948828 0.1529657759
0.0703067036 -0.1173829370 0.1519999951
0.1764249359 -0.1231982547 0.1522589097
0.0357224437 -0.1238178655 0.1528785220
-0.1446982608 -0.1256479182 0.1560000032
0.0196169064 -0.1354969692 0.1580000073
-0.1887930932 -0.1343001438 0.1580000073
0.0421705935 -0.1280478848 0.1580000073
-0.1045311534 -0.1252123337 0.1580000073
0.1786934374 -0.1369999945 0.1561686353
-0.1714297252 -0.1366237725 0.1560000032
0.0273952599 -0.1344100545 0.1546506106
0.0758775409 -0.1383024891 0.1519999951
-0.0565355484 -0.1418211543 0.1519999951
-0.1575528400 -0.1439163894 0.1529770452
-0.0345852876 -0.1441419363 0.1560000032
-0.1264941336 -0.1430000067 0.1563868639
0.0651728214 -0.1449693843 0.1580000073
0.1875841355 -0.1498060446 0.1575599838
0.0565924616 -0.1500000060 0.1522456404
-0.0752534534 -0.1483937760 0.1509999931
-0.0236468111 -0.1480000019 0.1510537400
0.1510443600 -0.1450967649 0.1520361111
0.0887705670 -0.1439999938 0.1488313408
-0.0579036273 -0.1439999938 0.1451134784
0.1632614152 -0.1447511228 0.1443095331
-0.1437724000 -0.1480000019 0.1447624547
-0.1815840336 -0.1481043505 0.1449999958
0.1086466185 -0.1500000060 0.1415297531
-0.1612921860 -0.1499078784 0.1386561829
0.0120043970 -0.1445733618 0.1379999965
0.1055303862 -0.1431831310 0.1380313086
-0.0483595424 -0.1439444080 0.1400000006
0.1403560144 -0.1454534197 0.1414859181
0.0296113612 -0.1404496382 0.1439999938
-0.0619919411 -0.1386967840 0.1439999938
0.0774681582 -0.1348376222 0.1417769588
-0.1880545432 -0.1340000033 0.1400069891
-0.0294409047 -0.1369999945 0.1384271452
-0.0470816552 -0.1306908114 0.1379999965
0.0183887827 -0.1347317530 0.1379999965
0.1682117285 -0.1302813912 0.1379999965
0.1809442061 -0.1291948971 0.1379999965
0.0042767213 -0.1254057135 0.1400000006
0.0811826036 -0.1232627825 0.1436765528
0.0498415140 -0.1253998239 0.1415395166
-0.1584264074 -0.1201295419 0.1441704543
-0.0316524524 -0.1148601734 0.1417995112
-0.0250158997 -0.1156105413 0.1425498773
-0.0187742958 -0.1144820109 0.1400000006
0.1186320235 -0.1337689683 0.1428296303
0.1707335765 -0.1360000074 0.1467618435
0.1801665446 -0.1360000074 0.1487648584
0.1595886834 -0.1353396942 0.1515996554
0.0572320925 -0.1243578717 0.1512972173
0.1202216049 -0.1266180664 0.1535574011
0.1401376014 -0.1239021627 0.1477978345
0.1702863583 -0.1247006399 0.1443600200
0.0906418210 -0.1247791866 0.1442814736
0.1845649832 -0.1190566746 0.1498472405
-0.0708333367 -0.1179428604 0.1478400430
-0.0820103231 -0.1207346603 0.1460968495
0.0572934617 -0.1414049578 0.1494636971
0.0932447128 -0.1387864980 0.1496551517
-0.1662425983 -0.1385841310 0.1465472191
-0.1314452199 -0.1414845496 0.1466158986
-0.0294720477 -0.0865763197 0.1535156599
0.0913499896 -0.0839999989 0.1507255433
-0.1813980674 -0.0839999989 0.1473816651
-0.1125190584 -0.0842185106 0.1448421473
-0.0970599060 -0.0829999968 0.1383127721
0.1834846867 -0.0860000029 0.1408956803
-0.0507926789 -0.0849002969 0.1420390433
0.0173845679 -0.0820502413 0.1439999938
-0.0580042785 -0.0796825699 0.1439999938
-0.0856780008 -0.0759504864 0.1428898207
-0.1429718486 -0.0752414642 0.1400000006
-0.0338380299 -0.0663877702 0.1379999965
-0.0223119787 -0.0658563843 0.1379999965
0.1445769498 -0.0758294442 0.1379999965
0.0267367262 -0.0763398008 0.1379999965
0.1660584487 -0.0758313574 0.1448920187
0.0048483548 -0.0759999976 0.1475293680
0.0611315539 -0.0759999976 0.1505131058
0.0421666815 -0.0745039480 0.1524353913
0.0834017389 -0.0652802328 0.1580000073
-0.1674122415 -0.0707532912 0.1580000073
0.1115214219 -0.0700817717 0.1580000073
0.0556832674 -0.0725496629 0.1580000073
-0.0676719409 -0.0769999996 0.1571511355
-0.1527696728 -0.0759945270 0.1560000032
-0.1466869265 -0.0750456427 0.1540150195
0.0811991773 -0.0787952953 0.1519999951
0.1187227804 -0.0819759240 0.1519999951
-0.0785455657 -0.0831827389 0.1522433930
0.1787884969 -0.0841784942 0.1560000032
-0.1859623487 -0.0829999968 0.1575326738
0.0511750145 -0.0800846994 0.1500772982
0.0858965266 -0.0780935391 0.1472777125
0.0487687224 -0.0803453685 0.1459925383
0.0156278801 -0.0654711127 0.1524104550
0.1473999796 -0.0640000030 0.1497035117
-0.0152975150 -0.0640000030 0.1454543310
0.1446844037 -0.0651425745 0.1439180870
0.1394825729 -0.0631083567 0.1380818346
-0.0018383936 -0.0637970453 0.1400000006
0.1667067558 -0.0639252566 0.1430140779
-0.1324383013 -0.0608414788 0.1439999938
0.0849025917 -0.0571323737 0.1439999938
0.1023919313 -0.0541759911 0.1411153295
0.1326287381 -0.0540000014 0.1408797415
0.0725892220 -0.0570000000 0.1388847083
0.0994485475 -0.0533123910 0.1379999965
-0.1274799079 -0.0565784700 0.1379999965
0.1395403424 -0.0500000007 0.1429162137
0.0209893881 -0.0500000007 0.1406824619
-0.1775223587 -0.0520000011 0.1443372118
-0.0938097092 -0.0532687434 0.1423294064
-0.0685762861 -0.0560000017 0.1474149430
0.0402710292 -0.0560000017 0.1509314123
0.1795351202 -0.0537473865 0.1531919551
-0.0971416623 -0.0520379118 0.1539999992
0.0132462612 -0.0520000011 0.1539035689
-0.0506034564 -0.0500000007 0.1557466637
-0.0046731177 -0.0500000007 0.1538418410
-0.0360142647 -0.0559822035 0.1580000073
0.0871263634 -0.0513326929 0.1580000073
0.0006965174 -0.0547024229 0.1560000032
0.1607924709 -0.0549070690 0.1541535929
-0.0811745870 -0.0561321764 0.1529284811
-0.1047294440 -0.0599117501 0.1517882513
0.0081237579 -0.0646605695 0.1537212304
-0.0946873685 -0.0638076711 0.1528683299
0.0813221983 -0.0652138920 0.1560000032
-0.0994372256 -0.0618677068 0.1488669241
0.0713671373 -0.0587184952 0.1495871523
-0.0943852523 -0.0583676634 0.1467636867
-0.0424914389 -0.0613698491 0.1465011972
-0.1543498187 -0.0670606568 0.1409260443
-0.0284856276 -0.0710382753 0.1400000006
-0.0315542511 -0.0693726566 0.1400000006
0.1660287809 -0.0719538985 0.1560000032
0.0045613656 -0.0719210592 0.1560000032
-0.1678768893 -0.0870606601 0.1414759618
0.0152385138 -0.0902105144 0.1400000006
-0.1458963697 -0.0890941512 0.1400000006
-0.1364964275 -0.0870606601 0.1549500304
0.0541613796 -0.0907457613 0.1560000032
-0.1273907207 -0.0929393396 0.1550685187
-0.0646520105 -0.1329393387 0.1419159484
0.1164237668 -0.1310960209 0.1400000006
-0.1573422960 -0.1280309411 0.1400000006
0.1580638156 -0.1286120130 0.1560000032
-0.0973192024 -0.1298693164 0.1560000032
0.0403096379 -0.1129393429 0.1553237483
-0.0262160157 -0.1073645056 0.1560000032
-0.1427104619 -0.1090439371 0.1560000032
0.1033413768 -0.1129393429 0.1402727790
0.0427992670 -0.1118682759 0.1400000006
-0.0218669940 -0.1076959867 0.1400000006
0.1731904693 0.1040000021 0.1497365501
-0.1527064854 0.0961220438 0.1481779610
0.0670918546 0.0970000029 0.1572668860
-0.0628370126 0.1027281143 0.1519999951
0.0756883380 0.1030000001 0.1567207378
0.0030642253 0.1007389115 0.1460524865
-0.0359259323 0.0980971645 0.1488473513
0.0958106490 0.1020280432 0.1476488027
0.1601018071 0.0997609917 0.1440609891
0.0697473826 0.1055048080 0.1524441479
0.1775511613 0.1040000021 0.1452372424
0.1889216265 0.1066354561 0.1424252109
0.1521195514 0.1128723819 0.1379999965
0.0876945742 0.1140866519 0.1379999965
0.0828866833 0.1034634585 0.1379999965
0.1747281552 0.1035020176 0.1379999965
0.0637507488 0.1051762124 0.1400000006
0.1857887198 0.1043828397 0.1425564951
-0.1729892732 0.1055015472 0.1414377903
0.0801939622 0.0985757916 0.1439999938
-0.0432017932 0.0941237980 0.1410631409
0.0040948227 0.0968091293 0.1400000006
-0.0510957787 0.0970000029 0.1388955450
0.0789399793 0.0877178612 0.1379999965
0.1504291999 0.0949288796 0.1379999965
-0.1226904514 0.0927197515 0.1379999965
-0.0913954093 0.0894829140 0.1379999965
0.1689740290 0.0948214728 0.1438821333
-0.0588714617 0.0960000008 0.1459176200
-0.1823536930 0.0950156767 0.1519236671
0.0039607115 0.0892416847 0.1580000073
0.0435918476 0.0907711829 0.1580000073
0.1847393612 0.0951009689 0.1580000073
0.0118343767 0.0966056330 0.1580000073
-0.0448168102 0.0939999968 0.1557638207
0.1377036035 0.0949779684 0.1540826901
0.1311809529 0.1051385124 0.1541991750
0.1676395837 0.1050839321 0.1560000032
0.1864765735 0.1144273014 0.1580000073
-0.0601463477 0.1161577648 0.1580000073
-0.0416476363 0.1125146447 0.1580000073
-0.1502352678 0.1138993986 0.1580000073
0.1899999976 0.0915313850 0.1568775011
-0.0450671313 0.1141202695 0.1431809313
-0.0326601512 0.1159999967 0.1464223050
0.0307498975 0.1159999967 0.1485393983
0.1470854489 0.1158223176 0.1511170244
0.0603245585 0.1169999987 0.1569740645
-0.0156519071 0.1140000001 0.1553229194
0.0828357751 0.1151755422 0.1538851188
0.0578608463 0.1173886851 0.1519999951
-0.0136173387 0.1216332998 0.1519999951
0.0743020994 0.1249571366 0.1540177958
-0.1372963860 0.1242716394 0.1560000032
-0.1633042385 0.1230301523 0.1578125268
0.0736324149 0.1305974149 0.1580000073
0.0045991251 0.1260400854 0.1580000073
0.0448667837 0.1267001465 0.1580000073
-0.0814120197 0.1369999945 0.1568587499
0.1459299045 0.1368633751 0.1560000032
-0.0603982952 0.1360878353 0.1529728217
-0.0235382598 0.1393697469 0.1519999951
-0.1430073138 0.1415254535 0.1519999951
-0.0219236044 0.1447653506 0.1538260105
-0.1893331300 0.1446932916 0.1560000032
0.0006242004 0.1430000067 0.1572389436
-0.1634403442 0.1489877763 0.1580000073
0.1196163094 0.1491194265 0.1579680073
-0.0325418785 0.1500000060 0.1514895648
0.0213193931 0.1499948837 0.1512742568
0.0792868608 0.1480000019 0.1537389917
0.0419959276 0.1441444959 0.1510838467
-0.0637470552 0.1439999938 0.1494539869
-0.0862819997 0.1439999938 0.1463723572
0.0109213825 0.1461980832 0.1428625798
-0.0157259702 0.1471485030 0.1420000046
-0.1174814080 0.1496949372 0.1449999958
0.1741353220 0.1500000060 0.1414793564
-0.1215168178 0.1500000060 0.1436479922
0.0831048677 0.1434843645 0.1379999965
0.0968357875 0.1452201965 0.1379999965
-0.1066974267 0.1457982786 0.1400000006
-0.1823190074 0.1433282239 0.1436111139
0.1649904221 0.1445018630 0.1424374748
0.0987828464 0.1398270681 0.1441270664
-0.0635922828 0.1347270287 0.1416663654
0.1559544565 0.1340000033 0.1400538307
0.1548397960 0.1363125568 0.1400000006
-0.0902401146 0.1339278364 0.1379999965
0.0562998569 0.1352516560 0.1379999965
-0.1732721372 0.1308735039 0.1379999965
-0.1573284084 0.1354336321 0.1379999965
0.0053402997 0.1230000034 0.1386623025
-0.0736957634 0.1260000020 0.1409349421
-0.0722638266 0.1258374189 0.1411019227
-0.0713974806 0.1219695370 0.1439999938
-0.0809456980 0.1196393037 0.1439999938
0.0746220482 0.1149676653 0.1419070029
0.0468253137 0.1149135294 0.1400000006
-0.1791493315 0.1346028592 0.1436635170
0.1708441871 0.1349229111 0.1439835674
0.0413910857 0.1361103460 0.1478103409
-0.1688904305 0.1332230124 0.1537163268
0.0742022893 0.1354288635 0.1515104864
0.0707658313 0.1269260856 0.1538654188
0.0420796516 0.1239999980 0.1498025364
0.1122289806 0.1239999980 0.1474700084
0.1323589995 0.1254377820 0.1436228814
0.0947661475 0.1204723784 0.1499734247
0.0868685639 0.1180875182 0.1486998244
0.1108505546 0.1200253851 0.1459067988
-0.0760880509 0.1419190281 0.1486754136
0.1687558931 0.1399401030 0.1500839439
0.1778782368 0.1381699877 0.1469923871
-0.1873122425 0.1417304876 0.1468618366
0.0021345668 0.0842766534 0.1512159992
0.0503641323 0.0839999989 0.1489475515
-0.0970396313 0.0839999989 0.1465155702
-0.1135205738 0.0854332100 0.1436274509
-0.1891163680 0.0829999968 0.1398454802
0.1198146014 0.0848604503 0.1400000006
0.0769436718 0.0843835650 0.1425557740
0.1007952278 0.0828458019 0.1439999938
-0.1674731491 0.0794487538 0.1439999938
0.1271261529 0.0757640438 0.1427033785
-0.1150911324 0.0756311588 0.1400000006
0.1317027599 0.0769999996 0.1387510970
-0.0088172322 0.0646393251 0.1379999965
-0.0133748164 0.0640582543 0.1379999965
-0.1646649177 0.0725427217 0.1379999965
-0.0368451038 0.0758899443 0.1449506054
0.0325806690 0.0736697087 0.1427303753
-0.1126345757 0.0761793632 0.1481206414
-0.1527911628 0.0749117154 0.1520276249
0.1073113848 0.0743098702 0.1526294686
0.0889267583 0.0639198439 0.1580000073
-0.0067127754 0.0717275656 0.1580000073
-0.1163923142 0.0735528146 0.1580000073
-0.0182980799 0.0769999996 0.1565585040
0.1408454274 0.0752372945 0.1560000032
0.0385672442 0.0758766757 0.1531839845
0.1470349166 0.0785040592 0.1519999951
-0.0132025997 0.0819125600 0.1519999951
0.0394498453 0.0858749398 0.1549356004
-0.1793751898 0.0854655641 0.1560000032
-0.0347189123 0.0829999968 0.1565905058
-0.0303215434 0.0804525398 0.1499787404
0.0037577193 0.0780990804 0.1487429716
0.1205125269 0.0796326437 0.1459984297
0.1110492352 0.0642691148 0.1512084571
0.1647129295 0.0659461229 0.1528854652
0.1595092889 0.0637765331 0.1480765370
-0.0915675631 0.0663822178 0.1426784437
0.1053325041 0.0643696563 0.1446910052
-0.0341415326 0.0646823506 0.1400000006
-0.1555917981 0.0640103627 0.1429289721
0.0336743319 0.0651789986 0.1417603391
-0.0723434302 0.0599962234 0.1442962235
-0.1123795934 0.0542349118 0.1411742501
0.1035193458 0.0540000014 0.1402021617
0.0080315693 0.0555088914 0.1400000006
0.1603663430 0.0526517669 0.1379999965
-0.0597596893 0.0554060057 0.1379999965
-0.1775018250 0.0500000007 0.1433354274
-0.1070293773 0.0500000007 0.1420792751
0.0703781715 0.0520000011 0.1426178338
-0.0144202707 0.0529511930 0.1420118571
-0.1571606167 0.0559871404 0.1450477971
0.0967169250 0.0560502339 0.1477502303
-0.0323858408 0.0540328485 0.1529064938
0.0874547835 0.0550051815 0.1519341631
-0.0026813413 0.0520000011 0.1534262580
-0.0480764590 0.0500000007 0.1544693572
0.1050114095 0.0500000007 0.1553375290
0.1165081897 0.0564473899 0.1580000073
0.0021139998 0.0531020596 0.1580000073
0.0857453139 0.0570000000 0.1574487247
-0.1657102081 0.0540000014 0.1553579294
0.1190377361 0.0562837374 0.1527769195
-0.0144901161 0.0581422150 0.1519999951
-0.1048930183 0.0608763008 0.1519999951
0.0908767526 0.0647864094 0.1538470707
0.0808948018 0.0655583683 0.1560000032
-0.0335497059 0.0619557647 0.1485382913
-0.1325102129 0.0599903394 0.1500974047
-0.0824787360 0.0581429063 0.1470934635
0.1402080118 0.0601670289 0.1459447520
0.0667989256 0.0729393363 0.1417632054
-0.0203726899 0.0707566087 0.1400000006
0.1598146560 0.0684283865 0.1400000006
-0.0684448754 0.0696382047 0.1560000032
-0.0147939851 0.0719894719 0.1560000032
-0.1848178947 0.0729393363 0.1542519118
-0.0871061165 0.0922043790 0.1400000006
0.1819482734 0.0918542372 0.1400000006
-0.0188972711 0.0870606601 0.1550622237
-0.1056117408 0.0878558169 0.1560000032
0.1213774866 0.0899366325 0.1560000032
0.1265073145 0.1329393387 0.1405111761
-0.0363210752 0.1312568953 0.1400000006
0.0370950926 0.1299787651 0.1400000006
0.0408783026 0.1281839882 0.1560000032
0.1237106733 0.1305835104 0.1560000032
-0.1012335735 0.1329393387 0.1542918566
-0.0532885594 0.1076013632 0.1560000032
0.0523644416 0.1100949272 0.1560000032
0.1685365545 0.1129393429 0.1400910180
0.0244692697 0.1070606634 0.1415825830
0.0134017955 0.1093346324 0.1400000006
-0.1825513915 0.0965807242 0.1576547606
-0.2062849323 0.2030138425 0.1459999979
-0.2010077016 -0.0763250551 0.1459999979
-0.2057238988 0.1996407955 0.1459999979
-0.2057506116 -0.2120246753 0.1439999938
-0.2048750321 0.1906088957 0.1439999938
-0.2063606212 0.1327332330 0.1407000409
-0.2053524770 0.2451877487 0.1417081802
-0.2074598481 0.0290507942 0.1400000006
-0.2124109890 -0.1142055934 0.1400000006
-0.2156503548 -0.0967478733 0.1427110053
-0.2130374303 0.0953054004 0.1400980935
-0.2151342326 -0.2015684930 0.1439999938
-0.2155950030 0.0365198182 0.1439999938
-0.2129999995 0.1784330200 0.1454087854
-0.2168385518 -0.0034516384 0.1459999979
-0.2156788877 0.2765125256 0.1459999979
-0.2199619414 0.1442833803 0.1451420284
-0.2199999988 -0.0434153703 0.1409542460
-0.2199999988 0.1665074358 0.1403572509
-0.2184207193 0.0411595140 0.1389999986
-0.2179999948 -0.0133277066 0.1419466169
-0.2178693813 -0.0873799354 0.1420000046
-0.2164569656 -0.0168088460 0.1413963120
-0.2140000015 -0.0007764317 0.1373769468
-0.2139609584 -0.0846275059 0.1364519889
-0.2140000015 0.2762157380 0.1353970401
-0.2164559362 -0.1634931754 0.1306047173
-0.2142165911 -0.0594391544 0.1328440733
-0.2179999948 -0.0783385196 0.1326025830
-0.2190187127 -0.0010903481 0.1330000013
-0.2199999988 -0.1425068325 0.1292855187
-0.2199999988 0.1332784375 0.1323481071
-0.2199999988 0.2719637276 0.1303883684
-0.2146943646 0.0906310131 0.1260000020
-0.2169834609 -0.0147193472 0.1260000020
-0.2178927193 0.1676128993 0.1260000020
-0.2148239466 -0.0642849855 0.1280000061
-0.2149692882 0.2385821207 0.1280000061
-0.2132523983 0.0553562988 0.1316869395
-0.2140631428 0.2728217196 0.1308761989
-0.2122154940 -0.0840840413 0.1319999993
-0.2071854263 -0.0124893710 0.1319999993
-0.2040529248 0.0339638409 0.1289922738
-0.2060397003 0.0437831552 0.1309790397
-0.2039999962 0.0148032823 0.1288347875
-0.2061753194 0.2536516868 0.1280000061
-0.2070000023 0.0385224880 0.1277781646
-0.2015099196 -0.2724858908 0.1260000020
-0.2060627747 0.0866698038 0.1260000020
-0.2000935199 0.1885445092 0.1266509927
-0.2000000030 -0.0868211838 0.1303097796
-0.2000000030 0.0692752951 0.1291403610
-0.2016637659 -0.2738844668 0.1330000013
-0.2020000070 0.0789521603 0.1308417943
-0.2024884521 0.0429464362 0.1299999952
-0.2056786978 -0.2257978970 0.1327393600
-0.2060000002 0.1055845066 0.1352910543
-0.2061176122 -0.0832489878 0.1356840966
-0.2060000002 0.0345899747 0.1366047847
-0.2048441087 -0.2042039040 0.1400952331
-0.2039811449 0.1359665971 0.1409582011
-0.2020000070 -0.2359164360 0.1398214772
-0.2001935947 0.0772375790 0.1389999986
-0.2000000030 -0.2638442846 0.1398233699
-0.2000000030 -0.1661458478 0.1399852133
-0.2000000030 0.1592234507 0.1390059250
-0.2112312150 -0.1426499348 0.1343625617
-0.2118575285 0.2030632937 0.1369049092
-0.2104350238 -0.0121013684 0.1379834324
-0.2079992531 -0.1020937786 0.1363704107
-0.2083485582 0.1223974224 0.1347827902
-0.2143983970 0.2800000012 0.1331755580
-0.2144779127 0.2844614376 0.0882731720
-0.2039999962 0.2825646637 0.1248161245
-0.2004291919 0.2802047701 0.0731913550
-0.2024436735 0.2840000093 0.0994684316
-0.2056838932 0.2932554437 0.1424583590
-0.2000000030 0.2946080984 0.0810652327
-0.2051989151 0.2980000079 0.1281428827
-0.2119388887 0.2939999998 0.1356633916
-0.2162421985 0.3000000119 0.1203531009
-0.2199999988 0.2964498748 0.0960602101
-0.2140000015 0.2908045457 0.0381442658
-0.2179999948 0.2850702844 0.0598511868
-0.2098582964 0.2920620422 0.0878578428
-0.2108881293 0.2918620249 0.0409497778
-0.2139185651 -0.2820000052 0.0776812964
-0.2044610311 -0.2834003796 0.0731015328
-0.2029587327 -0.2800000012 0.0808996976
-0.2001754608 -0.2870000005 0.0527492393
-0.2060000002 -0.2921365705 0.1051409470
-0.2016011400 -0.2930000126 0.0615978496
-0.2012761413 -0.3000000119 0.0449988622
-0.2093719271 -0.2939999998 0.0794393470
-0.2140679666 -0.2980000079 0.1234259908
-0.2199999988 -0.2952861614 0.0909860297
-0.2161114192 -0.2950507630 0.0551303898
-0.2150959816 -0.2859646735 0.1115809623
-0.2010128404 -0.2974745792 0.0370000005
-0.2120223488 -0.2897101999 0.0474730775
0.2129999995 0.2819057736 0.1007730403
0.2096998839 0.2861267369 0.0457118198
0.2070000023 0.2817741074 0.1443670802
0.2000000030 0.2855055780 0.1223421524
0.2060000002 0.2888336391 0.0696198331
0.2020000070 0.2931119194 0.1252097000
0.2056743382 0.3000000119 0.0504535163
0.2067565040 0.2943041606 0.0828314845
0.2147621976 0.2958228605 0.1415210058
0.2137223506 0.3000000119 0.1357586524
0.2179999948 0.2930466230 0.1008078392
0.2159935093 0.2850671502 0.0731235120
0.2199999988 0.2854930086 0.0587228287
0.2093624315 0.2880708280 0.0611849256
0.2004436984 -0.1671520067 0.1458097234
0.2030327734 0.0964255960 0.1459999979
0.2042763502 -0.1038780716 0.1459999979
0.2070000023 -0.0915416536 0.1446577747
0.2051869832 0.2242274198 0.1439999938
0.2039999962 -0.1824093026 0.1433177232
0.2050478768 0.1400121489 0.1420127789
0.2091299746 0.0211576992 0.1400000006
0.2097453004 0.0873229216 0.1398470484
0.2119584694 -0.2558860567 0.1400000006
0.2142749700 0.1709600021 0.1413356272
0.2145106513 -0.1296839798 0.1415713073
0.2147736147 0.2555084731 0.1439999938
0.2129999995 -0.1479825848 0.1455861958
0.2161541628 0.1510007331 0.1459999979
0.2164439957 -0.0811098631 0.1459999979
0.2160576089 -0.0659391483 0.1459999979
0.2199999988 -0.0830861708 0.1401644126
0.2199999988 0.2261853511 0.1420407786
0.2199999988 0.0199951947 0.1438177174
0.2199310597 -0.1657295969 0.1389999986
0.2179999948 -0.2173105876 0.1390184176
0.2142096735 0.2775367251 0.1391490089
0.2169006752 0.1876080475 0.1418400237
0.2140000015 -0.0011699737 0.1383870111
0.2140000015 0.2714710948 0.1334684850
0.2166385389 -0.1328328165 0.1304221138
0.2152160586 -0.0257848141 0.1318446010
0.2173400524 0.0535203267 0.1299999952
0.2179999948 -0.1654211544 0.1306436297
0.2183219423 -0.2480872874 0.1330000013
0.2199999988 0.0214503427 0.1288840401
0.2199999988 -0.1481710872 0.1321508724
0.2196726310 0.2200103682 0.1263066041
0.2142587197 -0.1350908088 0.1260000020
0.2185297155 -0.2019241137 0.1260000020
0.2129999995 0.0495316683 0.1278278827
0.2142787910 0.1264533256 0.1280000061
0.2160000056 -0.0296533979 0.1286871908
0.2156807438 0.2799696183 0.1292586057
0.2111563832 -0.0231475904 0.1319999993
0.2100878949 -0.0507985163 0.1322492539
0.2079773817 -0.1317678535 0.1319999993
0.2057484610 0.1130429771 0.1306878018
0.2063779790 -0.1152712015 0.1313173167
0.2061162333 0.1389547636 0.1280000061
0.2070000023 -0.0785248341 0.1263746088
0.2039650359 0.1062171413 0.1260000020
0.2020661590 -0.2701495208 0.1260000020
0.2015809579 -0.2313295228 0.1260000020
0.2000000030 0.2498208659 0.1280131848
0.2000000030 -0.1933528182 0.1324246337
0.2000000030 -0.2735017393 0.1315803781
0.2005654834 0.1213880434 0.1330000013
0.2020000070 -0.0290630131 0.1321703181
0.2037535439 0.1351427312 0.1308141967
0.2039547443 0.0587781044 0.1310153980
0.2060000002 0.2246450166 0.1332148124
0.2060000002 0.1431195923 0.1374057769
0.2032801940 0.1334807972 0.1416591554
0.2053580328 0.1467944541 0.1395813065
0.2025852457 -0.1249772996 0.1420000046
0.2020000070 -0.1568708041 0.1407910798
0.2013602744 -0.1452955435 0.1389999986
0.2000000030 0.1921428380 0.1412569543
0.2000000030 -0.0532123811 0.1415125526
0.2102535740 -0.1392459805 0.1339679482
0.2118264100 0.0267000194 0.1349789566
0.2114422520 -0.2653730463 0.1374264012
0.2092113651 -0.2769205309 0.1378886834
0.2079414230 0.2588120322 0.1358454240
0.2096864257 0.1389290573 0.1339840229
0.2129999995 -0.2811186323 0.1387501224
0.2094820182 -0.2860009534 0.0988874642
0.2070000023 -0.2814142479 0.0372690641
0.2000000030 -0.2821307251 0.0432106494
0.2060000002 -0.2880180274 0.1252433352
0.2020000070 -0.2931633768 0.0912505257
0.2049134044 -0.3000000119 0.0796260193
0.2063528894 -0.2947077752 0.1380201799
0.2147089631 -0.2957696260 0.0546294699
0.2166424513 -0.3000000119 0.0611675146
0.2179999948 -0.2937702204 0.1001284912
0.2159913224 -0.2850693371 0.1330048209
0.2199999988 -0.2834741242 0.0881746359
0.2090263508 -0.2881608769 0.1159820455
-0.2220000029 0.2487858278 0.1411335530
-0.2199999988 0.2852972373 0.1120705844
-0.2208308839 0.2656241875 0.1280000061
-0.2000000030 0.2889285760 0.1342554522
-0.1979999989 0.2921715340 0.0937542763
-0.1983453925 0.2884116741 0.1211755777
-0.2199999988 -0.2480512343 0.1321111351
-0.2220000029 -0.2927016958 0.1017756498
-0.1979999989 -0.2824244338 0.1159264755
-0.2000000030 -0.2564625679 0.1303975842
-0.2000000030 -0.2617209053 0.1391800651
0.2199999988 0.2932482146 0.1201837882
0.2220000029 0.2967583731 0.1227520061
0.2209028705 0.2526841777 0.1439999938
0.2220000029 -0.2673705648 0.1357965680
0.2199999988 -0.2723914486 0.1337838534
0.1979999989 0.2909560130 0.0880675811
0.1979999989 0.2572972174 0.1282408571
0.2000000030 0.2395105736 0.1428388559
0.2000000030 -0.2870636077 0.0870567652
0.1979999989 -0.2829760778 0.1072939518
0.1996751731 -0.2820000052 0.1130935040
-0.1930000037 0.2807495643 0.1336829515
-0.2026465788 0.2953923649 0.1249262184
-0.2220000029 0.2811339221 0.1340676767
-0.2167167292 0.2948965750 0.1240809704
-0.2020603615 -0.2919595310 0.1255454844
-0.2010120045 -0.2533784169 0.1327550408
-0.2234216605 -0.2933696800 0.1265818588
0.2047324511 0.2914270947 0.0972312272
0.1943704584 0.2910068734 0.1221865551
0.2150803317 0.2924071525 0.0951475060
0.2210300588 0.2514168756 0.1340771061
0.2046330637 -0.2906239027 0.0965958926
0.1948821333 -0.2542656239 0.1319465625
0.2257655630 -0.2924298656 0.1024811993
0.2245000005 -0.2530977165 0.1352024518
0.2109999955 -0.0529540624 0.0619173222
0.2109999955 0.0290580687 0.0772381420
0.2109999955 -0.0286946975 0.0959139843
0.2112388295 0.0219999999 0.0860948820
0.2129999995 -0.0119417419 0.1123506010
0.2129999995 -0.0067213213 0.0728388159
0.2129999995 0.0054799605 0.0559724572
0.2138887153 0.0161008132 0.1170746307
0.2129096632 0.0628682742 0.0535080772
0.2151032775 -0.0161798679 0.1190792557
0.2189586662 -0.0675675955 0.0573428594
0.2230000049 0.0571115714 0.0914580115
0.2230000049 0.0920148241 0.0695371754
0.2210000008 0.0612080818 0.0869063027
0.2210000008 0.0846086391 0.0704030403
0.2230000049 -0.0801495053 0.1177756399
0.2230000049 -0.0518714340 0.0865753624
0.2230000049 -0.0800338324 0.0647756038
0.2210000008 -0.0848549783 0.0862364671
0.2210000008 -0.0601312270 0.0979961030
-0.0846972792 0.1002563140 0.1260000020
-0.1321515294 0.1579885089 0.1260000020
-0.0923165829 -0.0281748143 0.1260000020
-0.1287142591 0.0848904387 0.1260000020
-0.1398718103 0.0538401150 0.1260000020
-0.1127545046 -0.0882257220 0.1260000020
-0.1018971866 0.1054945184 0.1260000020
-0.0763149576 0.0966561846 0.1260000020
-0.1363102748 -0.1555279855 0.1260000020
-0.1063855072 0.1430837002 0.1260000020
-0.1427644181 0.0201301364 0.1260000020
-0.1376129850 -0.1331292787 0.1260000020
-0.0642897218 0.0373371293 0.1260000020
-0.1405174381 -0.0368166993 0.1260000020
-0.0929674615 0.0120909308 0.1260000020
0.1185789414 -0.1077333703 0.1260000020
0.0620320156 -0.1036867787 0.1260000020
0.1074644561 -0.0340741124 0.1260000020
0.1195773653 0.0956615360 0.1260000020
0.0933342706 -0.1287656559 0.1260000020
0.0939577287 -0.0922915603 0.1260000020
0.1312356776 -0.0060199798 0.1260000020
0.1145045672 -0.0589367465 0.1260000020
0.1077873427 -0.1064688658 0.1260000020
0.1286061911 -0.1229025062 0.1260000020
0.1190523882 0.0253149734 0.1260000020
0.1333060799 -0.1331348506 0.1260000020
0.1218084974 -0.1479661344 0.1260000020
0.1170553226 0.0966882537 0.1260000020
-0.0133502781 -0.0830495711 0.1260000020
-0.0041572308 -0.1007976713 0.1260000020
0.0326457126 0.0497635948 0.1260000020
0.0037008596 -0.0294891041 0.1260000020
0.0356601741 0.0556454240 0.1260000020
0.0936768896 0.0727739256 0.1260000020
0.0752468757 0.0774322555 0.1260000020
0.0383770831 0.0252009799 0.1260000020
0.0472115708 0.0012620579 0.1260000020
0.0570547847 0.0746178074 0.1260000020
0.0458567237 0.0396343627 0.1260000020
0.0742762428 0.0444142446 0.1260000020
0.0792306283 0.0391187731 0.1260000020
0.0586058194 0.1399340825 0.1260000020
0.0384416657 0.1469339599 0.1260000020
0.0542637597 0.1357984335 0.1260000020
-0.1225226370 0.1779277859 0.1260000020
-0.0520165901 0.1447047275 0.1260000020
-0.0529417085 0.1376121780 0.1260000020
-0.0377884720 0.1442828813 0.1260000020
0.0083325413 0.0466393076 0.1260000020
-0.0064546780 0.0792718666 0.1260000020
-0.0092024715 -0.0217989060 0.1260000020
0.0118520762 0.0993218699 0.1260000020
-0.0288353238 -0.0470701427 0.1260000020
-0.1092534668 -0.1472365273 0.1260000020
-0.0874400510 -0.0715271946 0.1260000020
-0.0368662055 0.0835671429 0.1260000020
-0.0505407912 -0.0470860486 0.1260000020
-0.0457123783 0.0110806162 0.1260000020
-0.1085795987 -0.0987144851 0.1260000020
-0.0454165003 0.0544519583 0.1260000020
-0.0459331262 0.0185888914 0.1260000020
-0.0889183587 -0.1299652991 0.1260000020
-0.0584437537 -0.1610186197 0.1260000020
-0.0926806369 -0.1638972083 0.1260000020
0.0109294972 -0.1699616574 0.1260000020
0.0445043467 -0.1687066306 0.1260000020
0.0537695815 -0.1207761710 0.1260000020
0.0411211243 -0.1294890380 0.1260000020
-0.1981811632 -0.1005253041 0.0535504202
-0.1832842828 0.1099855216 0.1220000014
-0.1673566761 0.1114519373 0.1220000014
-0.1628001679 0.0895832479 0.0979310060
-0.1901576622 0.0895832479 0.1084722449
-0.1870985146 0.0895832479 0.0999265714
-0.1964150058 0.1092379373 0.0878502061
-0.1964150160 0.1325405706 0.0856919631
-0.1905123899 0.1337453127 0.0950899802
-0.1455516958 0.1337453127 0.0754570699
-0.1775639945 0.1337453127 0.0702949644
-0.1804664926 -0.1065341167 0.1220000014
-0.1926331136 -0.0895832479 0.1170094730
-0.1764277553 -0.0895832479 0.1000726088
-0.1678503865 -0.0895832479 0.0507463011
-0.1539109729 -0.1337453127 0.0750772937
-0.1819185354 -0.1337453127 0.0822250766
-0.1763257574 -0.1337453127 0.0813176488
-0.1964149373 -0.0946998511 0.0984653099
-0.1964150220 -0.0970840191 0.1189283924
0.1688641001 -0.1050157212 0.1220000014
0.1520728990 -0.1104851416 0.1220000014
0.1670749363 -0.0895832479 0.1123460858
0.1910958446 -0.0895832479 0.1125444592
0.1964148314 -0.1222052188 0.0669654803
0.1964150087 -0.1183498361 0.0745423310
0.1964150220 -0.1134270209 0.0797533763
0.1822323193 -0.1337453127 0.0993552622
0.1558471158 -0.1337453127 0.0910703134
0.1462187604 0.1122232123 0.1220000014
0.1510831307 0.0936888228 0.1220000014
0.1710936471 0.0895832479 0.1141131583
0.1599949005 0.0895832479 0.0500006416
0.1630552136 0.0895832479 0.0686266690
0.1822785294 0.1337453127 0.1188007711
0.1886615461 0.1337453127 0.0628599875
0.1890420803 0.1337453127 0.1023556739
0.1964150039 0.1284718678 0.0760747399
0.1964150220 0.1044285511 0.0869649067
0.1437871675 -0.1780000031 0.1171148864
0.0670704721 -0.1780000031 0.0584324713
0.0331979950 -0.1780000031 0.0546176933
-0.0167113670 -0.1780000031 0.0637364300
0.0461759199 -0.1780000031 0.0580969430
0.0078290264 -0.1780000031 0.0812445775
0.1298820974 -0.1780000031 0.0575401232
-0.0546292763 -0.1780000031 0.0526649964
-0.0086087519 -0.1780000031 0.0849107519
-0.0392264243 -0.1780000031 0.1084440864
-0.1316221266 -0.1780000031 0.0980927681
-0.1315000019 -0.1780000031 0.0713549648
-0.1092411866 -0.1780000031 0.0634031855
0.0071536190 -0.1780000031 0.1238777438
-0.1331533573 -0.1780000031 0.0745667322
-0.1047293974 -0.1780000031 0.1007443044
0.1449999958 -0.1631742343 0.0624305367
0.1449999958 -0.0312345135 0.0496449462
0.1449999958 -0.0878937903 0.0584660544
0.1449999958 -0.0234962572 0.0650238715
0.1449999958 0.1500670954 0.0579887539
0.1449999958 0.1745508053 0.1218060306
0.1449999958 -0.0031290568 0.1244373603
0.1449999958 -0.1377735112 0.1192173893
0.1449999958 0.0135242231 0.0823081639
0.1449999958 -0.0455716062 0.1145628114
0.1449999958 -0.0252236039 0.0801574019
0.1449999958 -0.0325426961 0.0791659107
0.1449999958 0.0077103594 0.0569455668
0.1449999958 0.0491506066 0.0572209160
0.1449999958 0.0602563094 0.0660002670
0.1449999958 0.0773368496 0.1057656375
-0.1449999958 0.1742720673 0.0759632602
-0.1449999958 -0.0182068672 0.0490704351
-0.1449999958 -0.0535109081 0.0595756587
-0.1449999958 0.1642170936 0.1061568788
-0.1449999958 0.1654567186 0.1252095867
-0.1449999958 -0.0608704470 0.1036251932
-0.1449999958 -0.0183469947 0.0850287420
-0.1449999958 -0.1628730555 0.0648127493
-0.1449999958 -0.1476325266 0.0517460243
-0.1449999958 -0.1648738466 0.1010944146
-0.1449999958 -0.0057794128 0.1031928362
-0.1449999958 0.0622176919 0.1065496590
-0.1449999958 -0.0715194421 0.1158833863
-0.1449999958 0.0749846818 0.0966757872
-0.1449999958 0.0839627662 0.0635372292
-0.0414976514 0.1780000031 0.0923786698
-0.1186384187 0.1780000031 0.0979493285
0.0168628835 0.1780000031 0.0984530366
-0.0137311600 0.1780000031 0.1046912245
-0.1091255695 0.1780000031 0.0951919162
-0.0209475828 0.1780000031 0.1071357169
-0.1420529366 0.1780000031 0.1242920512
0.1101474487 0.1780000031 0.1219736953
-0.1317662193 0.1780000031 0.0867711371
0.1232274697 0.1780000031 0.1079552182
0.0425885401 0.1780000031 0.0755248250
0.0260093340 0.1780000031 0.0741735383
0.0226349072 0.1780000031 0.0693954153
-0.0764108516 0.1780000031 0.0553004194
-0.0235558766 0.1780000031 0.0497104596
0.0906124389 0.1780000031 0.1103793544
-0.0374863235 -0.1109823882 0.1254036624
-0.0512967739 -0.1531705033 0.1136631636
-0.0638023876 -0.1253166703 0.0931510605
-0.0683530954 -0.1445458907 0.0760691762
-0.0673506239 -0.1133575296 0.0505459059
0.0678366230 -0.1482285809 0.0541409161
0.0655001478 -0.1348754527 0.0888487891
0.0575657815 -0.1259922831 0.1050826439
0.0424055050 -0.1558892232 0.1213872859
-0.0532461245 -0.1015999988 0.0600583144
-0.0395319743 -0.1015999988 0.0598185108
0.0589780257 -0.1015999988 0.0800136130
-0.0453149573 -0.1666000038 0.0625375645
-0.0157038114 -0.1666000038 0.0616679038
-0.0397250240 -0.1666000038 0.0827435798
-0.0380070160 -0.1666000038 0.0956677502
0.0002647293 -0.1666000038 0.1184837918
0.0227528281 -0.1666000038 0.1008738385
0.0236345172 -0.1666000038 0.0864866257
-0.0688643357 0.1060519632 0.0617430659
-0.0682414929 0.1022031198 0.0769889765
-0.0631744012 0.1143050106 0.0947424324
-0.0514137281 0.1510205500 0.1135030859
-0.0376998173 0.1219401358 0.1252293506
0.0486963525 0.1540889319 0.1162509818
0.0637186074 0.1342145588 0.0933633667
0.0690817832 0.1134621785 0.0700635150
0.0693219976 0.1621961563 0.0651284613
0.0343325160 0.1015999988 0.0668623721
-0.0471666587 0.1015999988 0.0947928836
0.0610540068 0.1015999988 0.0684622423
-0.0023851077 0.1666000038 0.0511341655
0.0073531129 0.1666000038 0.0621147425
-0.0052199172 0.1666000038 0.0721344601
0.0602551221 0.1666000038 0.0990399971
0.0044243966 0.1666000038 0.1205781743
0.0562613668 0.1666000038 0.1018035534
-0.0623236276 0.1666000038 0.0929701046
-0.1991325942 0.1139734048 0.0494924339
0.1858842417 0.0953302792 0.0489999987
0.0813166834 0.0074967447 0.0489999987
0.0416601339 0.0174627812 0.0489999987
0.0385084537 0.0386017178 0.0489999987
0.1017043415 0.0105332358 0.0489999987
0.0774819908 0.0670646694 0.0489999987
0.1392322230 0.0850296546 0.0489999987
0.1260695342 0.0666329271 0.0489999987
0.1322838283 0.0241783061 0.0489999987
-0.0870940395 0.0907462313 0.0489999987
-0.1266863245 0.1458751197 0.0489999987
-0.0735330010 0.1528610394 0.0489999987
-0.1068372489 0.1202568750 0.0489999987
-0.1174997674 0.0568276927 0.0489999987
-0.1210771072 0.1598900160 0.0489999987
0.0437328114 0.1719920681 0.0489999987
0.0947070346 0.1289825699 0.0489999987
0.0725303505 0.1520383943 0.0489999987
0.1226275955 0.1525139132 0.0489999987
0.1230238172 0.1324464554 0.0489999987
0.0937894370 0.1072172772 0.0489999987
0.1472358746 0.1016939013 0.0489999987
-0.0536041814 -0.0783211385 0.0489999987
-0.0501137612 -0.0331248925 0.0489999987
-0.0692247733 -0.0174312272 0.0489999987
-0.0873742010 -0.0006833349 0.0489999987
-0.1068417521 0.0327193376 0.0489999987
-0.0820415993 0.0263589003 0.0489999987
-0.0636228477 0.0731572812 0.0489999987
-0.0411771093 0.0890248847 0.0489999987
0.1907595220 -0.0985460411 0.0489999987
-0.0849314868 -0.1267045706 0.0489999987
-0.0751767511 -0.1686528877 0.0489999987
0.0095068504 -0.1730931203 0.0489999987
0.1277387338 -0.1710676768 0.0489999987
0.0339350143 -0.0676702998 0.0489999987
0.0522342652 -0.0058800935 0.0489999987
0.0482181250 -0.0306370342 0.0489999987
0.1128758392 -0.0100526494 0.0489999987
0.1089480081 -0.0096109194 0.0489999987
0.0669438778 -0.0079071061 0.0489999987
0.1060814146 -0.0522167504 0.0489999987
0.1438817058 -0.0294136566 0.0489999987
0.1042714950 -0.0900660291 0.0489999987
0.1181862937 -0.1048663587 0.0489999987
0.1111569301 -0.1425431518 0.0489999987
0.1478713428 -0.1267310478 0.0489999987
0.1811713875 -0.1159767549 0.0489999987
-0.1829271586 0.1192933607 0.0489999987
-0.1431529405 -0.0566887472 0.0489999987
-0.1349380487 0.1487095148 0.0489999987
-0.1343379321 0.1760574637 0.0489999987
-0.0861308427 -0.0560943829 0.0489999987
-0.1074238550 -0.1212497179 0.0489999987
-0.1121033424 -0.1253160532 0.0489999987
-0.0839686910 -0.0904160753 0.0489999987
-0.1031426263 -0.1210678323 0.0489999987
-0.1335680767 -0.0653707844 0.0489999987
-0.1840398562 -0.0908388263 0.0489999987
-0.1940802700 -0.1082568355 0.0489999987
-0.0367559381 -0.0203027297 0.0877309961
-0.0367559381 -0.0825673825 0.0805398020
-0.0367559381 -0.0923586418 0.0943789298
-0.0367559381 -0.0188476572 0.1094248572
-0.0367559381 -0.0657366625 0.0932910546
-0.0367559381 -0.0474561291 0.0512504888
-0.0367559381 0.0100322931 0.0639842746
-0.0367559381 0.0836944801 0.0894324026
-0.0367559381 0.0869981556 0.0935682938
-0.0367559381 0.0660454102 0.0638876270
0.0338919871 -0.0495723183 0.0549459673
0.0338919871 -0.0584113025 0.0575385248
0.0338919871 0.0415619004 0.0925297245
0.0338919871 0.0580135090 0.1068294546
0.0338919871 0.0435689930 0.1030271137
0.0338919871 0.0450996947 0.1063971776
0.0338919871 -0.0384964467 0.0897005867
0.0338919871 0.1000711441 0.0966124329
0.0338919871 0.1005981127 0.1067825530
0.0203028227 -0.0441006677 0.1140000001
0.0294364806 -0.0708146354 0.1140000001
0.0063757993 -0.0084298591 0.1140000001
-0.0097448345 0.0316967300 0.1140000001
0.0050951821 0.0384100689 0.1140000001
0.0268148602 -0.0268745668 0.1140000001
0.0107926127 -0.0649209201 0.1140000001
0.0238548040 -0.0844335102 0.1140000001
0.0219815662 -0.0969130748 0.1140000001
-0.0108518262 0.0214780511 0.1140000001
-0.0251067996 0.0229493926 0.1140000001
