-0.0000240242 -0.0103567451 0.0409999974
0.0016554657 0.0095639550 0.0409999974
0.0053984002 -0.0052696063 0.0409999974
-0.0002760105 0.0116202040 0.0409999974
-0.0026274307 0.0006927969 0.0409999974
-0.0072471837 0.0011268607 0.0409999974
-0.0096412047 0.0013355899 0.0409999974
-0.0101380667 -0.0009734322 0.0409999974
-0.0081562775 -0.0048292696 0.0409999974
-0.0079725536 -0.0092937077 0.0409999974
-0.0110239086 -0.0102523408 0.0409999974
0.0134634194 0.0052255912 0.0409999974
-0.0157449835 -0.0115593435 0.0409999974
0.0096032055 -0.0052049963 0.0409999974
-0.0203347406 -0.0100229406 0.0409999974
-0.0206126039 -0.0059140853 0.0409999974
0.0177774556 -0.0003811531 0.0409999974
0.0035097421 -0.0152732904 0.0409999974
-0.0128795520 0.0156366162 0.0409999974
0.0017821083 -0.0180655959 0.0409999974
-0.0078001961 -0.0184645105 0.0409999974
0.0066363037 0.0113700528 0.0409999974
0.0061450114 -0.0071361872 0.0409040833
0.0087671599 0.0030157138 0.0405000001
-0.0171004067 0.0084881976 0.0405000001
-0.0161411304 -0.0102449802 0.0405358455
0.0001899865 -0.0209081039 0.0391876500
-0.0048564335 0.0216216622 0.0393049299
-0.0252740973 0.0019778927 0.0409157946
0.0017854264 0.0192097440 0.0407819459
-0.0118826872 -0.0192941817 0.0408111249
-0.0125101870 0.0197303185 0.0403925225
0.0010653473 -0.0202050137 0.0402584639
0.0208333017 0.0042185287 0.0409834276
0.0234093067 0.0062944149 0.0388675227
0.0186136801 0.0074999998 0.0126171223
0.0209849878 0.0074999998 0.0313381582
0.0212341338 0.0074999998 0.0375113883
0.0180532881 0.0075161086 0.0135181987
0.0114073044 0.0176411903 0.0091735912
0.0114083066 0.0141336358 0.0368149853
0.0128315937 0.0162403309 0.0086594963
0.0136929809 0.0138260809 0.0183873281
0.0132749938 0.0114686287 0.0375465343
0.0152338811 0.0130732793 0.0088799614
0.0168528624 0.0115753348 0.0014963393
0.0151893170 0.0089291553 0.0316930977
-0.0013739002 0.0236381816 0.0127675034
-0.0008188750 0.0220500340 0.0293609970
0.0010800219 0.0223728787 0.0207730149
0.0036466912 0.0225394126 0.0094680528
0.0037539579 0.0213616162 0.0214630789
0.0052656805 0.0207190687 0.0210046700
0.0076862070 0.0200228217 0.0139904144
0.0065622401 0.0183587391 0.0370401475
0.0102413015 0.0195372296 0.0014623631
0.0100329735 0.0183188369 0.0139555649
-0.0144432692 0.0224786214 0.0088819868
-0.0133200547 0.0218653339 0.0200357813
-0.0112388440 0.0228793084 0.0163840997
-0.0099879883 0.0232334426 0.0154189046
-0.0092296638 0.0230347409 0.0192836494
-0.0076882907 0.0234789936 0.0167183583
-0.0054237856 0.0243275599 0.0083614659
-0.0051026328 0.0231900766 0.0214457814
-0.0025244234 0.0244800465 0.0049381483
-0.0027727126 0.0237731724 0.0131841819
-0.0250940378 0.0136610693 0.0111163151
-0.0243340388 0.0151833520 0.0079289057
-0.0232395717 0.0151441785 0.0177940416
-0.0225241788 0.0164699181 0.0138947928
-0.0205457090 0.0153385914 0.0388677994
-0.0201120848 0.0183739998 0.0163922754
-0.0192282581 0.0198917383 0.0087325400
-0.0172268206 0.0192900378 0.0271226240
-0.0166193493 0.0186109503 0.0373044622
-0.0147163381 0.0205441262 0.0281918324
-0.0233530617 -0.0125429534 0.0346838942
-0.0229119270 -0.0144795936 0.0254538315
-0.0251963282 -0.0150379257 0.0010343649
-0.0254201054 -0.0109032869 0.0242896534
-0.0267192058 -0.0112538214 0.0095185376
-0.0280357124 -0.0091992178 0.0058466385
-0.0289674807 -0.0073422041 0.0027826491
-0.0275628623 -0.0058534110 0.0228019527
-0.0272737170 -0.0052355102 0.0276835401
-0.0286792183 -0.0043189269 0.0143511208
-0.0299162877 -0.0010213639 0.0041798846
-0.0269187756 -0.0011865130 0.0380899138
-0.0296298569 0.0014320007 0.0073071268
-0.0278492316 0.0008038833 0.0279684982
-0.0298446754 0.0043158692 0.0011560907
-0.0281369148 0.0042245608 0.0206930419
-0.0263585257 0.0057446114 0.0364832818
-0.0274152001 0.0078622711 0.0176626244
-0.0272787799 0.0080202660 0.0185459627
-0.0275958107 0.0095769340 0.0086153834
-0.0266822624 0.0127018509 0.0016785531
-0.0250575108 0.0100385513 0.0324766915
-0.0115331607 -0.0237720998 0.0055674100
-0.0139013421 -0.0200714226 0.0368257620
-0.0146566704 -0.0218481556 0.0146699745
-0.0168731958 -0.0212169402 0.0099736554
-0.0165594737 -0.0196419283 0.0273823782
-0.0187217590 -0.0201549644 0.0094179252
-0.0196997721 -0.0188307744 0.0151743478
-0.0182572876 -0.0175045737 0.0373400531
-0.0222868268 -0.0180072210 0.0030820077
-0.0205249376 -0.0155468019 0.0372999812
0.0016480203 -0.0230608058 0.0113839801
0.0004338924 -0.0243266287 0.0011975019
-0.0010740845 -0.0243773246 0.0037744332
-0.0029834519 -0.0233710538 0.0180710886
-0.0043086560 -0.0226430863 0.0275151211
-0.0052877192 -0.0247888139 0.0031066621
-0.0078813788 -0.0247601635 0.0018246535
-0.0079901908 -0.0225292250 0.0271924167
-0.0095385582 -0.0242523737 0.0049562039
-0.0090686848 -0.0219497439 0.0316714563
0.0100836558 -0.0193688448 0.0040919268
0.0077102915 -0.0178877324 0.0339836682
0.0068243954 -0.0198418917 0.0210462926
0.0054719642 -0.0208814107 0.0181532296
0.0039739650 -0.0205639735 0.0288030974
0.0031841931 -0.0220476212 0.0164527868
0.0017978203 -0.0210121020 0.0334256512
0.0152892194 -0.0088745380 0.0309197248
0.0155496375 -0.0108009578 0.0187547722
0.0143689668 -0.0105384568 0.0321484587
0.0146807654 -0.0131804132 0.0133906756
0.0133789045 -0.0121002391 0.0324005037
0.0122862387 -0.0141517168 0.0291701271
0.0110776883 -0.0188600138 0.0014600832
0.0110806919 -0.0149373477 0.0330044944
0.0184073790 -0.0076010198 0.0063611661
0.0172724659 -0.0075000002 0.0290180779
0.0195576709 -0.0074999998 0.0051380663
0.0214853167 -0.0074999998 0.0192914163
0.0224033690 -0.0073687311 0.0219175057
0.0233460031 -0.0066421451 0.0068551377
0.0237739275 -0.0026443418 0.0009107001
0.0237499997 0.0039469187 0.0375019923
0.0237499997 0.0026756979 0.0335142605
0.0237499997 0.0023062993 0.0161652664
0.0237499997 0.0050180627 0.0366002549
0.0237499997 -0.0053168324 0.0164632348
0.0237499997 0.0027650759 0.0055756384
0.0237499997 -0.0050923058 0.0058629999
0.0236947750 0.0057776324 0.0144207935
0.0233411211 0.0066516826 0.0334209422
0.0220209758 0.0074468416 0.0227947547
-0.0300637636 0.0067690800 0.0000669333
-0.0064915363 0.0254484052 0.0001593274
0.0171193619 -0.0119701734 0.0002618773
-0.0156875811 0.0228844503 0.0004759666
0.0109709315 0.0246838589 0.0000000004
-0.0218296729 0.0293468293 0.0000000004
0.0239720238 0.0146132800 0.0000000004
0.0111468864 0.0217837673 0.0000000004
0.0166007776 0.0293369384 0.0000000004
-0.0224976423 0.0227632294 0.0000000004
-0.0270405344 -0.0192873907 0.0000000004
0.0243289441 -0.0184813961 0.0000000004
0.0196868219 0.0197197983 0.0000000004
-0.0003664279 0.0271519289 0.0000000004
-0.0253484643 0.0202203239 0.0000000004
-0.0345244622 0.0076257073 0.0000000004
0.0011637566 -0.0298959839 0.0000000004
-0.0082903929 -0.0284030671 0.0000000004
-0.0241198555 -0.0273171057 0.0000000004
-0.0336519512 0.0107531092 0.0000000004
-0.0115369505 -0.0254417581 0.0000000004
-0.0306133928 -0.0130119131 0.0000000004
0.0194291050 -0.0168024950 0.0000000004
0.0173465782 -0.0146020841 0.0000000004
0.0125864870 -0.0229671533 0.0000000004
0.0066157578 -0.0254039621 0.0000000004
0.0046727469 -0.0258694740 0.0000000004
-0.0319091377 -0.0006234917 0.0000000004
0.0257081019 -0.0058288048 -0.0007653763
0.0251037322 0.0174260928 -0.0000647893
-0.0288914264 0.0303886775 -0.0000817679
-0.0158475914 0.0309964455 -0.0009800979
-0.0356193504 0.0218276356 -0.0000727042
-0.0362287410 0.0076460519 -0.0008809546
0.0089430649 -0.0306129906 -0.0002206757
0.0209368748 -0.0308340703 -0.0008031597
0.0257500000 0.0247861730 -0.0012655770
0.0257500000 0.0074161251 -0.0018895294
0.0185443564 0.0252957106 -0.0012000004
-0.0208883699 0.0303259279 -0.0030000000
-0.0293624439 0.0285724007 -0.0030000000
-0.0133274839 0.0306029701 -0.0030000000
0.0228222516 -0.0250292104 -0.0030000000
0.0197304595 -0.0266731830 -0.0030000000
-0.0356829980 0.0006589389 -0.0030000000
-0.0182299233 -0.0302198836 -0.0030000000
0.0125393812 0.0280122976 -0.0030000000
-0.0333447749 0.0098067768 -0.0030000000
0.0206218817 -0.0220014620 -0.0030000000
-0.0270203381 -0.0268563982 -0.0030000000
-0.0347781337 -0.0288153714 -0.0024665456
0.0014851214 -0.0309999995 -0.0023932790
-0.0126041012 -0.0309999995 -0.0025512076
-0.0362499990 0.0010248494 -0.0011675010
-0.0362499990 0.0179073114 -0.0024983546
-0.0225011890 0.0309999995 -0.0015240719
0.0137919235 0.0309999995 -0.0026512876
-0.0303105260 0.0262741138 -0.0017619454
-0.0326381472 -0.0276608903 -0.0029833992
-0.0277069269 0.0291411491 -0.0022658167
0.0239147445 0.0166535337 -0.0018000003
-0.0347649274 -0.0030734494 -0.0018000003
-0.0343399294 -0.0034045378 -0.0018000003
0.0126636320 0.0287514436 -0.0018000003
-0.0261340025 -0.0286569292 -0.0018000003
0.0128630332 -0.0288057032 -0.0018000003
-0.0352500007 0.0000879759 -0.0018910937
-0.0147204194 -0.0299999993 -0.0028607254
0.0183065901 -0.0262888015 -0.0023700177
0.0247499999 0.0201787394 -0.0022477698
-0.0114200912 0.0299999993 -0.0022433971
0.0017256119 -0.0285000000 -0.0018504340
-0.0337500013 0.0076440303 -0.0027676541
0.0117264060 0.0285000000 -0.0021011898
0.0179860377 0.0234407130 -0.0021166731
0.0232500006 0.0009114540 -0.0027073239
-0.0234809366 -0.0274999999 -0.0026060780
0.0222500004 -0.0081499164 -0.0026206749
0.0222500004 -0.0041310923 0.0304831550
0.0222500004 -0.0029914609 0.0335444408
0.0222500004 -0.0034958533 0.0235051843
0.0222500004 -0.0006329919 0.0210211078
0.0222500004 0.0004870969 0.0014827453
0.0222500004 0.0010250546 0.0052073355
0.0222500004 0.0026974821 0.0228019774
0.0222500004 0.0026468282 0.0132304987
0.0157943042 0.0263737051 -0.0025905782
-0.0312762430 0.0210618814 -0.0023857839
-0.0323991481 0.0104746559 -0.0015399643
0.0179631883 0.0102185165 -0.0014999999
0.0167507548 0.0208975903 -0.0014999999
0.0183133020 -0.0190388135 -0.0014999999
0.0032875742 -0.0227737579 -0.0014999999
0.0137925355 0.0185887843 -0.0014999999
-0.0004339601 -0.0252269089 -0.0014999999
-0.0059009995 -0.0254545694 -0.0014999999
0.0080413420 -0.0202921672 -0.0014999999
-0.0001575005 0.0237217687 -0.0014999999
-0.0173112056 0.0262070521 -0.0014999999
-0.0320931942 0.0000284768 -0.0014999999
-0.0319126914 -0.0194752064 -0.0014999999
-0.0203312523 0.0232183772 -0.0014999999
-0.0262987418 0.0191959888 -0.0014999999
-0.0294040082 0.0127152638 -0.0014999999
-0.0258302107 -0.0161463514 -0.0014999999
-0.0207824834 -0.0224852603 -0.0014999999
0.0142058232 0.0141170183 -0.0049999999
0.0169022459 -0.0158217805 -0.0043800435
0.0179350665 0.0149097306 -0.0033850597
-0.0081262932 -0.0234932215 -0.0012146210
0.0165196618 0.0060049989 0.0151965977
0.0204606261 0.0060000001 -0.0006594190
0.0203371282 0.0060000001 0.0149695118
0.0201247896 0.0060000001 0.0093129229
0.0154469211 0.0059999998 0.0322090814
0.0221103586 0.0058445254 0.0388850953
-0.0161701029 -0.0072151166 0.0394999981
-0.0078888698 -0.0095601703 0.0394999981
-0.0141501163 -0.0109973908 0.0394999981
-0.0030117839 -0.0022901477 0.0394999981
0.0110199730 0.0013512833 0.0394999981
-0.0026276489 -0.0184226949 0.0394999981
-0.0069037058 -0.0005701747 0.0394999981
-0.0170181933 -0.0024993903 0.0394999981
-0.0232922490 0.0000734494 0.0394999981
0.0006757131 -0.0098835686 0.0394999981
-0.0064276692 -0.0167462607 0.0394999981
-0.0095259824 -0.0162415773 0.0394999981
-0.0137682451 -0.0154567726 0.0394999981
-0.0158999280 0.0034293306 0.0394999981
-0.0141946999 0.0060861084 0.0394999981
-0.0090252780 0.0077393522 0.0394999981
0.0200036306 0.0042786411 0.0394999981
0.0181555264 -0.0003941861 0.0394999981
0.0112031314 -0.0015494466 0.0394999981
-0.0167033932 0.0103242057 0.0394999981
-0.0108189847 0.0122824448 0.0394999981
-0.0099775551 0.0133770537 0.0394999981
0.0008994168 0.0123314122 0.0394999981
0.0069854842 0.0100334035 0.0394999981
-0.0060369318 0.0180187091 0.0394999981
0.0038479690 -0.0175651855 0.0394753119
0.0168886512 0.0059079091 0.0392778663
0.0163666778 0.0067467560 0.0104585494
0.0149893189 0.0080401144 0.0204310641
0.0144080761 0.0103608286 0.0151273113
0.0138992277 0.0101038078 0.0216531622
0.0137943660 0.0123263499 0.0098285040
0.0126100326 0.0098507721 0.0362417310
0.0107949024 0.0131969725 0.0316186235
0.0112717605 0.0146266022 0.0169002630
0.0112074413 0.0152897248 0.0122602512
0.0089404619 0.0185090821 0.0024440965
0.0072400104 0.0173242235 0.0253228724
0.0071980598 0.0182964152 0.0164834551
0.0059261481 0.0188506334 0.0188789413
0.0046429613 0.0183120281 0.0314497683
0.0037847872 0.0197786023 0.0206589707
0.0031009026 0.0221380245 -0.0009241726
0.0006757789 0.0227160799 0.0006300262
0.0001430170 0.0200415045 0.0318191129
-0.0010316490 0.0231752706 0.0002530470
-0.0015781537 0.0225044131 0.0087845482
-0.0039752600 0.0233763906 0.0016518795
-0.0024262559 0.0200052439 0.0382332886
-0.0073175369 0.0217663140 0.0194216368
-0.0077275800 0.0226613478 0.0085791481
-0.0082018738 0.0226053399 0.0084786935
-0.0128590559 0.0221890035 0.0012536701
-0.0125400268 0.0216598153 0.0081422566
-0.0138427145 0.0212510178 0.0072495780
-0.0137910427 0.0203240757 0.0173936322
-0.0170220330 0.0203059722 0.0007210857
-0.0159550928 0.0207718515 0.0024030297
-0.0157471373 0.0180148924 0.0305002691
-0.0189068500 0.0179323059 0.0114133319
-0.0196045516 0.0156559567 0.0266232912
-0.0207918514 0.0161470661 0.0133024565
-0.0230977482 0.0153943936 -0.0001077595
-0.0223729351 0.0146655264 0.0116304629
-0.0231075264 0.0134026178 0.0140602787
-0.0237146985 0.0120902307 0.0172555913
-0.0257784620 0.0113347360 0.0009772163
-0.0245935838 0.0092040750 0.0242992202
-0.0266845972 0.0092524071 0.0026718425
-0.0266745712 0.0071141037 0.0111722128
-0.0248273953 0.0052526397 0.0372808984
-0.0269216570 0.0052278823 0.0145609105
-0.0255989419 0.0019219835 0.0355504343
-0.0268869557 0.0025647367 0.0202121778
-0.0272723563 0.0013568809 0.0169910524
-0.0265710635 -0.0001928175 0.0256745319
-0.0260184833 -0.0006347390 0.0316631601
-0.0275477775 -0.0036736385 0.0109732791
-0.0252341176 -0.0039198083 0.0367567797
-0.0249233210 -0.0049045399 0.0377648205
-0.0272480190 -0.0086323376 -0.0007600402
-0.0253146812 -0.0079031716 0.0228486749
-0.0252646589 -0.0108334071 0.0087915440
-0.0238345985 -0.0093905282 0.0308607301
-0.0237776476 -0.0114975796 0.0202720263
-0.0247712976 -0.0128173103 0.0026001193
-0.0227640035 -0.0138394545 0.0141835311
-0.0224854094 -0.0146423484 0.0108830175
-0.0219603602 -0.0166580997 -0.0002079049
-0.0190260692 -0.0188079375 0.0028301792
-0.0199088649 -0.0177809210 0.0055891415
-0.0178506614 -0.0181210234 0.0172474073
-0.0179854313 -0.0192910885 0.0051063437
-0.0158062711 -0.0186812159 0.0239368500
-0.0145539062 -0.0196958159 0.0204109416
-0.0115030706 -0.0193650250 0.0363709143
-0.0120822202 -0.0210294542 0.0165545440
-0.0110466956 -0.0214217553 0.0155629820
-0.0092291112 -0.0204591667 0.0310850126
-0.0080434912 -0.0212035011 0.0247897488
-0.0067430490 -0.0228512366 0.0076794512
-0.0052071151 -0.0234913756 0.0008107371
-0.0047398159 -0.0214410132 0.0241681448
-0.0023906244 -0.0227777840 0.0067214811
-0.0025078089 -0.0207185441 0.0302395236
0.0003176565 -0.0224945181 0.0041418608
0.0005337318 -0.0193025901 0.0385758723
0.0017542613 -0.0204751060 0.0219281079
0.0034503110 -0.0199487822 0.0203927740
0.0047692184 -0.0189132258 0.0247996824
0.0047127103 -0.0182447013 0.0319022129
0.0062638863 -0.0182707114 0.0226625839
0.0092408456 -0.0167830649 0.0158013029
0.0084255475 -0.0170454305 0.0193964099
0.0093267342 -0.0148354006 0.0317131677
0.0125013394 -0.0151503882 0.0024811335
0.0117105515 -0.0130915456 0.0244458797
0.0130869582 -0.0145096057 0.0021729632
0.0136150403 -0.0129498608 0.0078423303
0.0127353099 -0.0099343946 0.0342020126
0.0145536181 -0.0098413992 0.0165633635
0.0150025599 -0.0092418605 0.0148375917
0.0164861619 -0.0072026409 0.0073768212
0.0222292593 -0.0055774056 -0.0004966288
0.0214644673 -0.0060000001 0.0071705685
0.0209493498 -0.0060000001 0.0298967712
0.0198670276 -0.0060000001 0.0194904979
0.0171832981 -0.0059999998 0.0374768440
0.0220484372 -0.0157153897 -0.0016040875
-0.0259347841 -0.0266133788 -0.0015296777
-0.0167237807 0.0274798250 -0.0018595512
0.0157064316 -0.0184883260 -0.0026017799
-0.0224504459 0.0007717396 0.0407999977
-0.0360499993 -0.0068209382 -0.0112922285
-0.0363500006 -0.0161735051 -0.0237469679
-0.0360499993 0.0073878422 -0.0073053983
-0.0360499993 0.0005784861 -0.0135555779
-0.0360499993 0.0172892091 -0.0083849758
-0.0360499993 0.0057869229 -0.0161662695
-0.0360499993 0.0081942652 -0.0115749308
-0.0360499993 0.0072140287 -0.0195634792
-0.0360499993 -0.0012761552 -0.0220409229
-0.0360499993 0.0103034875 -0.0255732172
-0.0360499993 0.0166267164 -0.0194988986
-0.0360499993 -0.0072749523 -0.0256257207
-0.0360499993 -0.0129477305 -0.0187459718
-0.0360499993 -0.0052454767 -0.0162564456
-0.0360499993 -0.0119926483 -0.0139120185
-0.0360499993 -0.0130728750 -0.0076275751
-0.0360499993 -0.0171269989 -0.0117324671
-0.0362400923 0.0051133347 -0.0143657113
-0.0362493159 -0.0046886788 -0.0089919421
-0.0362402807 -0.0008135005 -0.0131708609
-0.0362488151 0.0033055517 -0.0061683153
-0.0362444636 0.0135008878 -0.0105378650
-0.0362492047 -0.0036253385 -0.0244619176
-0.0362456150 0.0093810727 -0.0238763192
-0.0362416158 0.0132849949 -0.0217297204
-0.0362487396 -0.0061624215 -0.0258905878
-0.0362469783 -0.0173750615 -0.0209356400
-0.0362418459 -0.0159707181 -0.0180635323
-0.0362491907 -0.0172253468 -0.0067883737
-0.0362435732 -0.0121230832 -0.0144687623
-0.0362418059 -0.0104115239 -0.0161750147
-0.0362404427 -0.0014858231 -0.0136199212
-0.0362400003 0.0141925471 -0.0183311357
-0.0360499993 0.0104077910 -0.0139069432
-0.0362322725 -0.0086000478 -0.0210534139
0.0233862146 0.0190220274 -0.0103751833
0.0234148154 -0.0205010796 -0.0218767294
0.0252841767 0.0025341877 -0.0148457746
0.0252841739 -0.0012698559 -0.0158391204
0.0252841767 0.0103258115 -0.0203022651
0.0269662819 0.0173950342 -0.0144317253
0.0256758873 0.0087121884 -0.0280385826
0.0277841762 -0.0140361698 -0.0199560847
0.0277841762 -0.0097507599 -0.0124917261
0.0277841762 -0.0024695517 -0.0171212502
0.0277841762 0.0130430586 -0.0127704536
0.0277841762 0.0125508907 -0.0244749137
0.0277841762 0.0039972682 -0.0252606845
0.0277841762 -0.0144982648 -0.0251664632
0.0274718557 0.0057967302 -0.0115276021
0.0228554194 -0.0028725893 -0.0261785515
0.0227027251 0.0071539000 -0.0261758862
0.0244263375 -0.0085441034 -0.0138024816
0.0237346269 0.0122929693 -0.0137904076
0.0220607826 0.0072561871 -0.0242388094
0.0228861423 0.0017725805 -0.0118209120
0.0232067430 -0.0080932118 -0.0118153159
0.0215841774 -0.0001565565 -0.0130650870
0.0215841774 0.0148025237 -0.0147929544
0.0215841774 -0.0116405865 -0.0256936573
0.0246749844 -0.0117693664 -0.0284014310
0.0237949724 0.0175930887 -0.0197405039
0.0238920693 0.0027222578 -0.0095712280
0.0237522970 0.0209336527 -0.0187418487
0.0240841769 -0.0165165922 -0.0203106988
0.0248862417 0.0088475451 -0.0164198665
0.0261568223 -0.0190721901 -0.0241280026
0.0271166308 -0.0085438230 -0.0267821358
0.0253449589 -0.0007551158 -0.0096728308
0.0266141066 -0.0172538274 -0.0171054018
0.0226208935 -0.0137244526 -0.0232256473
0.0243260145 -0.0195481758 -0.0194748952
0.0242841765 -0.0086564944 -0.0175426628
0.0278882115 -0.0038777599 -0.0159722961
0.0240628208 0.0139396699 -0.0110039799
0.0235564147 0.0208808075 -0.0199625930
0.0245351172 -0.0083947606 -0.0198118105
0.0257965791 0.0072773493 -0.0211450914
0.0251146349 0.0082158952 -0.0177830182
0.0252443291 -0.0065310547 -0.0238416571
0.0240598991 0.0137315169 -0.0261160500
0.0233502070 0.0037968622 -0.0275112219
0.0253173514 0.0068833122 -0.0096540893
0.0217870095 -0.0122224179 -0.0295247257
0.0216907014 -0.0005647230 -0.0350422006
0.0216851882 0.0018785883 -0.0353580553
0.0217896279 0.0027589345 -0.0293747183
0.0218253885 0.0009296011 -0.0273259964
-0.0068051474 -0.0215125463 -0.0364999995
-0.0042859680 -0.0083278409 -0.0364999995
-0.0047733091 0.0018282108 -0.0364999995
-0.0003243845 -0.0216552521 -0.0364999995
-0.0115669759 -0.0081627118 -0.0364999995
-0.0109761897 -0.0139086209 -0.0364999995
-0.0082506527 -0.0237244843 -0.0364999995
-0.0085651155 -0.0002613422 -0.0364999995
-0.0181918680 0.0070901787 -0.0364999995
-0.0251211317 0.0146149249 -0.0364999995
0.0198389143 0.0048669100 -0.0364999995
0.0142041905 0.0121207970 -0.0364999995
0.0184140926 -0.0034944678 -0.0364999995
0.0158655736 0.0030688421 -0.0364999995
0.0179383023 -0.0007406063 -0.0364999995
-0.0306454868 -0.0114344997 -0.0364999995
-0.0209042752 -0.0244843687 -0.0364999995
-0.0223130058 -0.0105410000 -0.0364999995
-0.0276099396 0.0062029227 -0.0364999995
-0.0253574811 0.0052151783 -0.0364999995
-0.0150264565 -0.0153637420 -0.0364999995
-0.0151284977 -0.0034285564 -0.0364999995
-0.0253863776 -0.0149684553 -0.0364999995
0.0035587738 -0.0205406709 -0.0364999995
0.0062427697 -0.0119231627 -0.0364999995
0.0100426169 -0.0030851066 -0.0364999995
0.0108549147 -0.0181310952 -0.0364999995
0.0016728233 -0.0066391673 -0.0364999995
0.0039237271 -0.0096384365 -0.0364999995
0.0035467694 -0.0068929177 -0.0364999995
0.0068758146 0.0250391877 -0.0364999995
0.0114798850 0.0245552988 -0.0364999995
0.0080622788 0.0199782601 -0.0364999995
0.0052387571 0.0125947663 -0.0364999995
0.0058814102 0.0129017179 -0.0364999995
-0.0011042874 0.0193093917 -0.0364999995
-0.0028760971 0.0156444435 -0.0364999995
-0.0055092085 0.0063322448 -0.0364999995
-0.0073556629 0.0083314457 -0.0364999995
-0.0091985472 0.0186590837 -0.0364999995
-0.0129688333 0.0225075938 -0.0364999995
-0.0137745187 0.0187192913 -0.0364999995
-0.0164449463 0.0122350260 -0.0364999995
-0.0324036298 -0.0141695459 -0.0390000008
-0.0257159509 0.0148242119 -0.0390000008
-0.0255402045 -0.0043155313 -0.0390000008
-0.0267739576 -0.0126873925 -0.0390000008
0.0155375846 -0.0142668241 -0.0390000008
0.0238817905 -0.0040680614 -0.0390000008
0.0222792050 -0.0125077901 -0.0390000008
0.0207027925 0.0009925281 -0.0390000008
0.0162240918 -0.0051871311 -0.0390000008
0.0182359386 0.0065935666 -0.0390000008
0.0166338125 0.0177337735 -0.0390000008
-0.0295748978 0.0068103917 -0.0390000008
-0.0322791542 0.0177687552 -0.0390000008
-0.0193411705 -0.0258179843 -0.0390000008
0.0082690548 -0.0297630366 -0.0390000008
-0.0220438486 -0.0277807931 -0.0390000008
-0.0118423930 -0.0273539235 -0.0390000008
0.0091936986 -0.0216918329 -0.0390000008
0.0054203059 -0.0266018363 -0.0390000008
0.0084625873 -0.0248913309 -0.0390000008
-0.0097858820 0.0205931089 -0.0390000008
0.0027147417 0.0211117207 -0.0390000008
-0.0047837170 0.0242572938 -0.0390000008
-0.0007809284 0.0268029094 -0.0390000008
-0.0146447980 0.0294685223 -0.0390000008
0.0037593754 0.0261653184 -0.0390000008
-0.0168323166 0.0284772519 -0.0390000008
0.0137816445 -0.0216679458 -0.0390000008
-0.0245612833 -0.0243116021 -0.0163115857
-0.0245542477 -0.0221244659 -0.0167146545
-0.0244728871 -0.0224752362 -0.0213757963
-0.0296753425 -0.0219883393 -0.0048158255
0.0193890086 -0.0208450777 -0.0055000000
0.0140279673 -0.0254764653 -0.0182202586
0.0137796228 -0.0203116402 -0.0324478955
0.0139182438 -0.0220672218 -0.0245062948
0.0138993818 -0.0235853289 -0.0255869100
0.0140838197 -0.0226429720 -0.0150204860
-0.0341726186 -0.0230156137 -0.0394939653
-0.0335917660 -0.0295497655 -0.0395000018
0.0144519045 -0.0272711100 -0.0395000018
0.0165600754 -0.0206488924 -0.0395000018
0.0226068844 0.0107016376 -0.0030000000
0.0157622752 0.0300867957 -0.0030000000
0.0236950792 0.0257648598 -0.0030000000
-0.0093879761 0.0283819176 -0.0030000000
0.0107410011 0.0276137491 -0.0030000000
-0.0282256040 0.0279399034 -0.0030000000
-0.0331466761 0.0266193731 -0.0030000000
-0.0354859455 0.0036955990 -0.0030000000
-0.0293230063 -0.0232275925 -0.0030000000
-0.0087893450 -0.0275502595 -0.0030000000
-0.0313654271 -0.0301994868 -0.0030000000
-0.0345894122 -0.0215996239 -0.0030000000
0.0219360424 -0.0226253157 -0.0030000000
0.0247980765 -0.0196056365 -0.0030000000
0.0231968317 -0.0293268103 -0.0030000000
0.0146100483 -0.0280929626 -0.0030000000
0.0255500004 -0.0221239303 -0.0207467482
0.0255500004 0.0264634673 -0.0295529853
0.0255500004 0.0274474466 -0.0366746947
0.0255500004 0.0205583024 -0.0043503692
0.0255500004 0.0022962535 -0.0066483865
0.0255500004 0.0085807611 -0.0325084881
0.0255500004 -0.0020121948 -0.0351645879
0.0255500004 0.0189979377 -0.0297075065
0.0255500004 -0.0015707293 -0.0352105215
0.0255500004 -0.0125717121 -0.0308890692
0.0255500004 -0.0089413897 -0.0342039914
0.0255500004 0.0027082174 -0.0299361639
0.0255500004 -0.0243106918 -0.0349408213
0.0255500004 -0.0245812176 -0.0275471855
0.0255500004 -0.0293725344 -0.0176676495
0.0255500004 0.0283445235 -0.0233598400
0.0255500004 0.0233358467 -0.0231514344
0.0255500004 -0.0240500473 -0.0035388518
0.0255500004 -0.0144550879 -0.0081530463
0.0255500004 0.0191407699 -0.0035945469
0.0255500004 0.0239718865 -0.0145529944
0.0255500004 0.0254299613 -0.0157409841
-0.0360499993 0.0231554480 -0.0209732360
-0.0360499993 0.0247563118 -0.0111985086
-0.0360499993 -0.0244122840 -0.0153576360
-0.0360499993 -0.0245846802 -0.0061602688
-0.0360499993 -0.0122589105 -0.0266470873
-0.0360499993 -0.0209526400 -0.0057292593
-0.0360499993 0.0151988196 -0.0366651356
-0.0360499993 -0.0214884642 -0.0203918985
-0.0360499993 -0.0143795770 -0.0310690534
-0.0360499993 0.0153388583 -0.0326449267
-0.0360499993 0.0147973741 -0.0351775840
-0.0360499993 0.0172698529 -0.0040124447
-0.0360499993 -0.0187163833 -0.0048716338
-0.0360499993 0.0227364236 -0.0122119094
0.0207510410 -0.0261489721 -0.0201049699
0.0254961096 -0.0240246649 -0.0177213927
-0.0343500003 -0.0140103422 -0.0229144647
-0.0343500003 -0.0152461728 -0.0199844498
-0.0343500003 -0.0123527698 -0.0175936650
-0.0343500003 -0.0101981369 -0.0067303099
-0.0343500003 -0.0183847320 -0.0072514785
-0.0343500003 -0.0048088339 -0.0172967456
-0.0343500003 0.0075007305 -0.0138176784
-0.0343500003 0.0052019532 -0.0068999995
-0.0343500003 0.0187110491 -0.0121203973
-0.0343500003 0.0185287576 -0.0105680951
-0.0343500003 0.0008327099 -0.0244702543
-0.0343500003 0.0113420028 -0.0233761069
-0.0358499996 0.0033607297 -0.0260738950
-0.0358499996 -0.0126742181 -0.0061506192
-0.0322876552 -0.0055580220 -0.0294877665
-0.0327218396 0.0182206916 -0.0046132533
-0.0325627276 0.0071546140 -0.0137288865
-0.0323089785 0.0103170731 -0.0282661694
-0.0322647690 0.0130767504 -0.0307988994
-0.0322815763 -0.0138937813 -0.0298360171
-0.0323280781 -0.0122741963 -0.0271719649
-0.0326102943 -0.0124480083 -0.0110038335
-0.0324951411 -0.0166435368 -0.0176008599
-0.0323548115 0.0092063738 -0.0256404199
-0.0326459590 0.0081716502 -0.0089605709
-0.0326516358 0.0028786346 -0.0086352548
-0.0325621805 -0.0086291397 -0.0137602362
-0.0321869201 -0.0085407902 -0.0352588649
-0.0324252100 -0.0047067616 -0.0216071520
-0.0323771166 0.0038150848 -0.0243625184
-0.0324988985 -0.0047168996 -0.0173856030
-0.0324385488 -0.0030132293 -0.0208429459
-0.0326788695 -0.0137060364 -0.0070750714
-0.0326648002 -0.0084604658 -0.0078811397
-0.0326093551 0.0004484143 -0.0110576394
-0.0251505171 -0.0232640663 -0.0074999998
0.0137986899 -0.0235323591 -0.0394519476
-0.0265850343 -0.0217102275 -0.0141121592
-0.0289500002 -0.0206641930 -0.0057884430
0.0248349084 -0.0210999995 -0.0135856924
-0.0255012510 -0.0192884656 -0.0176188411
-0.0285391637 -0.0191104334 -0.0278182887
-0.0282730511 -0.0189939890 -0.0344893804
-0.0304455908 -0.0192546611 -0.0195554951
0.0189484366 -0.0194720890 -0.0090990340
-0.0141516403 -0.0213764468 -0.0362999998
0.0188804309 -0.0177587541 -0.0192192730
0.0235466082 -0.0165316563 -0.0146222731
0.0235466082 0.0006717960 -0.0108335264
0.0235466082 -0.0190191233 -0.0172452394
0.0235466082 0.0181723563 -0.0138665800
0.0235466082 0.0117275895 -0.0272373526
0.0252345449 -0.0206043915 -0.0102357386
0.0221419862 -0.0194247138 -0.0091881017
0.0221395736 0.0168311001 -0.0093263456
0.0221120638 0.0072890979 -0.0109023535
0.0222240764 -0.0019345736 -0.0044851770
0.0222157882 -0.0059231042 -0.0049600008
0.0222106018 0.0095304200 -0.0052571300
0.0222454474 0.0160232274 -0.0032608375
0.0214677830 -0.0191032778 -0.0170000009
-0.0345500000 0.0030873296 -0.0332758387
0.0141125201 -0.0157784164 -0.0317244460
0.0172437179 0.0158016046 -0.0283660677
0.0199452078 0.0159004916 -0.0227008508
-0.0356418481 0.0042291820 -0.0346499166
0.0246315408 0.0061675183 -0.0386753438
-0.0336659537 -0.0044500328 -0.0309374384
-0.0348933836 -0.0059626507 -0.0383566158
0.0176000247 -0.0156937899 -0.0345427321
0.0185456360 -0.0157379412 -0.0320133152
0.0180813435 -0.0158574673 -0.0251657011
-0.0352860595 0.0050208439 -0.0379639399
-0.0351027410 0.0262151565 -0.0391557429
0.0183610612 0.0178161809 -0.0185909992
0.0236162171 -0.0009617196 -0.0285999998
0.0249365634 -0.0132827527 -0.0093999999
0.0246539406 0.0061333334 -0.0093999999
0.0140932797 0.0267501616 -0.0144785035
0.0137444436 0.0202789553 -0.0344633162
0.0138594775 0.0244240784 -0.0278730235
0.0141758180 0.0243789022 -0.0097499064
0.0139825327 0.0191001817 -0.0208231870
-0.0307062455 0.0194703165 -0.0072006030
-0.0310793866 0.0190448464 -0.0315757629
-0.0263708841 0.0189854654 -0.0349776996
-0.0290398672 0.0191540853 -0.0253174777
-0.0355189854 0.0189999994 -0.0387245213
-0.0265523650 0.0202810181 -0.0160500472
0.0157322998 0.0202047421 -0.0093925896
0.0181986143 0.0218381850 -0.0061467295
-0.0243638036 0.0206083726 -0.0276251832
-0.0244641246 0.0250961524 -0.0218778007
-0.0244162314 0.0245934522 -0.0246215965
-0.0249055847 0.0191848801 -0.0238337486
-0.0268572265 0.0259609357 -0.0041107126
0.0158809189 0.0226470812 -0.0074999998
0.0153361417 0.0194797259 -0.0086615229
0.0173955318 0.0193740772 -0.0147141028
0.0255268709 0.0213196133 -0.0377916484
-0.0247591945 0.0286041686 -0.0395000018
0.0176728699 0.0289571790 -0.0395000018
0.0157500003 0.0238386637 -0.0198868409
0.0200570975 0.0233508732 -0.0190032569
0.0149273786 0.0237000007 -0.0060102008
-0.0230246964 -0.0032141470 -0.0338000022
-0.0278173330 0.0031675591 -0.0338000022
-0.0316676884 0.0002064402 -0.0354362403
-0.0348784234 -0.0195000004 -0.0180216839
-0.0350655632 -0.0040252448 -0.0254999995
-0.0335147035 0.0166947112 -0.0138357817
-0.0336614937 0.0054431992 -0.0124821124
-0.0337065062 -0.0125099547 -0.0213072808
0.0025013748 -0.0200999994 -0.0389176505
-0.0084780770 -0.0018081310 -0.0388000011
-0.0096751552 -0.0119853258 -0.0388000011
0.0001242233 -0.0194739489 -0.0388000011
-0.0101694487 -0.0135978927 -0.0388000011
0.0073538207 -0.0171437795 -0.0388000011
-0.0094026973 -0.0144324533 -0.0388000011
-0.0060842449 -0.0140888800 -0.0388000011
-0.0098996009 -0.0197165339 -0.0388000011
-0.0121357246 -0.0154297822 -0.0388000011
-0.0169535238 -0.0008875348 -0.0388000011
-0.0020316574 -0.0193802029 -0.0388000011
-0.0000768614 -0.0064813126 -0.0388000011
0.0049317138 0.0157686083 -0.0388000011
0.0089331010 0.0079189924 -0.0388000011
0.0000286000 0.0117498923 -0.0388000011
-0.0175991593 0.0165888244 -0.0388000011
0.0002652355 -0.0022709557 -0.0388000011
-0.0078192199 0.0067690240 -0.0388000011
0.0018396337 0.0171739751 -0.0388000011
-0.0141916376 0.0151981792 -0.0388000011
-0.0089507281 0.0083672269 -0.0388000011
0.0085022267 0.0009442514 -0.0388000011
0.0037391901 0.0152354958 -0.0388000011
-0.0227150662 0.0071003838 -0.0388000011
-0.0252460468 0.0068689897 -0.0388000011
-0.0211001549 -0.0118212133 -0.0388000011
-0.0222420957 -0.0192532224 -0.0388000011
0.0146443309 0.0021346511 -0.0388000011
0.0113551485 -0.0031036227 -0.0388000011
0.0111913948 0.0083920400 -0.0388000011
0.0081916187 -0.0319860475 -0.0279554809
-0.0030020686 -0.0318005425 -0.0323915716
-0.0278148194 -0.0316269783 -0.0309651076
-0.0101357437 -0.0312814250 -0.0263319695
0.0014785725 -0.0315306573 -0.0346123246
0.0101036020 -0.0314001497 -0.0259395919
0.0199049628 -0.0314099393 -0.0354557075
0.0126536939 -0.0319301100 -0.0167250975
0.0101534096 -0.0314380556 -0.0381567347
0.0041819174 -0.0318652020 -0.0375687282
-0.0067901591 -0.0320000015 -0.0360669773
-0.0197243873 -0.0320000015 -0.0336891136
-0.0148980715 -0.0308946215 -0.0334065926
-0.0022963627 -0.0309189465 -0.0251056836
0.0093016728 -0.0310092453 -0.0328077411
0.0185983693 -0.0309013985 -0.0284827881
-0.0277655056 -0.0320000015 -0.0368270159
0.0231067219 -0.0320000015 -0.0362716039
0.0207852458 -0.0320000015 -0.0162969370
0.0154541129 -0.0320000015 -0.0261656444
0.0120363826 -0.0320000015 -0.0284017359
0.0016394210 -0.0312182003 -0.0385814509
0.0142914887 -0.0307999998 -0.0088837530
0.0106260980 -0.0307999998 -0.0055386838
0.0160780461 -0.0307999998 -0.0051382485
-0.0222152867 -0.0307999998 -0.0319957420
-0.0174489144 -0.0307999998 -0.0064190782
-0.0171028393 -0.0307999998 -0.0033810003
-0.0268663449 -0.0307999998 -0.0034074209
-0.0164005032 -0.0307999998 -0.0047365041
0.0098065875 -0.0307999998 -0.0114397929
-0.0250100836 -0.0307999998 -0.0219715323
-0.0267304099 -0.0307999998 -0.0096099209
-0.0289429225 -0.0307999998 -0.0122930465
0.0036645517 -0.0307999998 -0.0163714018
-0.0189623750 -0.0307999998 -0.0181139518
0.0100082861 -0.0307999998 -0.0301814932
-0.0271014696 -0.0307999998 -0.0311144798
0.0119216829 -0.0307999998 -0.0197476352
-0.0200945909 -0.0307999998 -0.0129319289
-0.0029269364 -0.0307999998 -0.0293919161
-0.0112042909 -0.0307999998 -0.0144777630
0.0015162704 -0.0307999998 -0.0103499299
-0.0115075983 -0.0307999998 -0.0270071426
-0.0093730873 -0.0307999998 -0.0175167040
-0.0147209902 -0.0307999998 -0.0107088796
0.0209889632 -0.0253199449 -0.0094565847
-0.0305656544 -0.0267450233 -0.0127039341
-0.0327061955 -0.0272513367 -0.0128580383
0.0237864108 -0.0290251591 -0.0101069172
0.0238935809 -0.0319308263 -0.0255046383
0.0254595488 -0.0305485573 -0.0122283678
-0.0312880381 -0.0306481720 -0.0124645103
-0.0323784114 -0.0302523621 -0.0081091222
-0.0344572458 -0.0287528001 -0.0032654493
-0.0349868037 -0.0281981507 -0.0069334149
-0.0358636760 -0.0261988026 -0.0323353653
-0.0353446149 -0.0314675986 -0.0376996023
0.0134399292 -0.0269392296 -0.0331803267
-0.0202803856 -0.0272492370 -0.0173661817
-0.0077507618 -0.0274464546 -0.0060676029
-0.0210647507 -0.0271781357 -0.0214395687
-0.0108317813 -0.0274336771 -0.0067996232
-0.0172201159 -0.0271714933 -0.0218201179
-0.0165658615 -0.0271658632 -0.0221426677
0.0114314718 -0.0269936873 -0.0320066118
0.0113819093 -0.0272328085 -0.0183073672
0.0090949221 -0.0272361150 -0.0181179395
-0.0010694957 -0.0274454003 -0.0061279997
0.0070526404 -0.0274275055 -0.0071531860
-0.0013889368 -0.0274906253 -0.0035370624
0.0004330244 -0.0271609577 -0.0224237041
-0.0169244638 -0.0270770046 -0.0272333692
-0.0047773196 -0.0273878410 -0.0094255722
0.0073042409 -0.0270362207 -0.0295698788
-0.0014660191 -0.0270559792 -0.0284379154
0.0029085244 -0.0270034697 -0.0314461818
-0.0001471674 -0.0273005364 -0.0144272470
-0.0068632028 -0.0271007566 -0.0258726190
-0.0061280218 -0.0272345116 -0.0182098045
0.0025832252 -0.0270190986 -0.0305507989
-0.0064834130 -0.0274427742 -0.0062784533
-0.0307848596 -0.0310818532 -0.0391633231
0.0050005583 0.0318201282 -0.0198485098
-0.0053208650 0.0319809324 -0.0293600033
-0.0217244606 0.0314368473 -0.0297143399
-0.0072577460 0.0316397541 -0.0311363651
0.0024242811 0.0312699366 -0.0284581628
0.0104854593 0.0314599368 -0.0281052129
0.0190693650 0.0319481291 -0.0299406402
-0.0225413652 0.0318125817 -0.0367284830
0.0055558570 0.0320000015 -0.0204673440
0.0001148696 0.0320000015 -0.0287866570
-0.0070308019 0.0320000015 -0.0360404373
-0.0201694110 0.0320000015 -0.0340285504
-0.0130517494 0.0308979750 -0.0332845848
0.0004819309 0.0310560468 -0.0288922671
0.0118590057 0.0309786715 -0.0360672235
0.0195449509 0.0308139068 -0.0134474479
-0.0309991681 0.0320000015 -0.0365217613
0.0231803337 0.0320000015 -0.0162892216
0.0224362912 0.0320000015 -0.0346755375
0.0163360177 0.0320000015 -0.0335809692
-0.0025221056 0.0301995844 -0.0389699866
-0.0226388758 0.0311662078 -0.0386105125
0.0192849193 0.0307999998 -0.0103290632
0.0123659817 0.0307999998 -0.0083093326
0.0109556103 0.0307999998 -0.0105590293
-0.0250430263 0.0307999998 -0.0175832935
-0.0123243528 0.0307999998 -0.0111880635
-0.0003127713 0.0307999998 -0.0160963164
-0.0176476087 0.0307999998 -0.0063479594
-0.0047669585 0.0307999998 -0.0057893613
-0.0139645768 0.0307999998 -0.0325404260
-0.0090651967 0.0307999998 -0.0146190370
-0.0249570992 0.0307999998 -0.0123628921
-0.0215745653 0.0307999998 -0.0222271871
-0.0255899390 0.0307999998 -0.0196722056
-0.0220507055 0.0307999998 -0.0134564571
-0.0259270579 0.0307999998 -0.0279905679
0.0074477916 0.0307999998 -0.0177493466
-0.0071099659 0.0307999998 -0.0186671901
-0.0017969043 0.0307999998 -0.0346706906
-0.0155490221 0.0307999998 -0.0193867016
0.0054832814 0.0307999998 -0.0255343854
-0.0080589279 0.0307999998 -0.0216776959
0.0019096910 0.0307999998 -0.0192632952
-0.0048444379 0.0307999998 -0.0221361490
-0.0116078370 0.0307999998 -0.0257747793
0.0221351563 0.0256776243 -0.0050612545
-0.0328874145 0.0260798220 -0.0051782897
-0.0315038481 0.0276840439 -0.0042176942
0.0220479784 0.0301919312 -0.0099583183
0.0254792756 0.0304631210 -0.0157315680
0.0236093867 0.0319885136 -0.0372867744
-0.0358938110 0.0261319721 -0.0188064242
-0.0349933611 0.0281818813 -0.0056959064
-0.0342796258 0.0289309119 -0.0033824650
-0.0330797120 0.0299122959 -0.0091872800
-0.0319132240 0.0304821340 -0.0248222467
-0.0264308819 0.0274212185 -0.0053155328
-0.0205871173 0.0270665948 -0.0278297481
-0.0167281061 0.0271698262 -0.0219156261
-0.0221304199 0.0273110353 -0.0138257535
-0.0148576449 0.0272994241 -0.0144909658
-0.0228107052 0.0274277547 -0.0071389009
-0.0194790815 0.0273156508 -0.0135613350
0.0124680745 0.0274671836 -0.0048800270
0.0077197128 0.0273045146 -0.0141993316
0.0100261034 0.0270732560 -0.0274481281
0.0121551774 0.0274519567 -0.0057523724
0.0078912466 0.0273046828 -0.0141896958
0.0010257667 0.0274265058 -0.0072104639
-0.0159244413 0.0269841349 -0.0325538704
-0.0002309166 0.0270559302 -0.0284407232
-0.0169951411 0.0271333596 -0.0240047976
0.0032205882 0.0269716895 -0.0332668642
-0.0014158377 0.0272915933 -0.0149395964
-0.0100502513 0.0270321173 -0.0298049606
0.0046496505 0.0270574622 -0.0283529545
0.0071191245 0.0270706491 -0.0275974780
0.0080354915 0.0270330444 -0.0297518449
-0.0090812011 0.0270121952 -0.0309462958
-0.0110730983 0.0271263505 -0.0244063482
-0.0136353913 0.0272347619 -0.0181954628
-0.0339067079 0.0319013165 -0.0380043896
0.0224516873 0.0062546122 -0.0263000000
0.0222683863 0.0116352873 -0.0116999997
0.0234447569 -0.0155711673 -0.0123334369
0.0212444752 -0.0157076066 -0.0334806954
-0.0318232794 -0.0066758638 -0.0343865553
0.0223264207 0.0230115258 -0.0397000015
0.0181951501 0.0246448966 -0.0357575189
0.0212009455 0.0257428823 -0.0313721985
0.0203164660 -0.0271808748 -0.0397000015
0.0212244008 -0.0243446532 -0.0390807395
0.0183125029 -0.0257930722 -0.0360593753
-0.0328106482 -0.0272045348 -0.0397000015
-0.0287430723 -0.0255339520 -0.0317626277
-0.0317567563 -0.0255345904 -0.0388672647
-0.0326205611 0.0239533166 -0.0397000015
-0.0318333225 0.0252488427 -0.0363189025
-0.0286982252 0.0253665809 -0.0341027212
-0.0085999680 -0.0262432056 -0.0364420017
0.0199788651 -0.0148728737 -0.0364537114
0.0211716336 -0.0132430148 -0.0363633480
-0.0319981505 -0.0102179449 -0.0360384115
-0.0017018695 0.0260490745 -0.0364724747
-0.0211514734 -0.0011880256 -0.0364708315
-0.0291077594 0.0125663340 -0.0364529279
-0.0346158418 0.0104178888 -0.0066999998
-0.0353781647 -0.0093740014 -0.0252999999
-0.0354848142 -0.0185091226 -0.0247046718
-0.0360499993 0.0018688772 -0.0082998947
-0.0360499993 0.0092511527 -0.0102006878
-0.0360499993 -0.0021992156 -0.0149819670
-0.0360499993 -0.0077537487 -0.0108951057
-0.0360499993 -0.0182025582 -0.0196303173
-0.0360499993 -0.0175471779 -0.0144358241
-0.0360499993 0.0117430277 -0.0173420607
-0.0360499993 0.0041856575 -0.0157931881
-0.0360499993 -0.0058926093 -0.0187739233
-0.0360499993 -0.0008633820 -0.0220145847
-0.0360499993 -0.0001894506 -0.0185396117
-0.0360499993 0.0023892820 -0.0078539346
-0.0360499993 0.0043783024 -0.0249968961
-0.0360499993 0.0110666283 -0.0244306850
-0.0345500000 0.0137524498 -0.0113886098
-0.0345500000 0.0057920560 -0.0148941794
-0.0345500000 0.0157690101 -0.0161691685
-0.0345500000 0.0142294298 -0.0149511982
-0.0345500000 0.0142701456 -0.0165513332
-0.0345500000 -0.0150417998 -0.0207692063
-0.0345500000 -0.0127837943 -0.0201834961
-0.0345500000 -0.0147850938 -0.0199260279
-0.0345500000 -0.0048698873 -0.0159645454
-0.0345500000 -0.0187191563 -0.0127450141
-0.0345500000 -0.0186866568 -0.0232327061
-0.0345500000 0.0102261000 -0.0073508288
-0.0345500000 0.0116455025 -0.0069034036
-0.0312602359 -0.0005016085 -0.0313775390
-0.0331703746 -0.0027921594 -0.0388018804
-0.0361632174 0.0059915824 -0.0296108556
-0.0361179885 -0.0076740635 -0.0320345831
-0.0347050517 -0.0041436603 -0.0346742082
-0.0357993732 0.0082359554 -0.0303449367
-0.0352642062 0.0004956560 -0.0306005796
-0.0351175552 -0.0012814950 -0.0307322759
-0.0342524992 -0.0004910287 -0.0380625636
