-0.0242033471 -0.0335570698 0.0195000004
-0.0225013871 -0.0300399630 0.0195000004
-0.0473129162 0.0058194269 0.0195000004
-0.0476694527 0.0079634620 0.0195000004
-0.0417732414 0.0069732463 0.0195000004
-0.0578208362 0.0029062014 0.0195000004
-0.0511959921 0.0008854204 0.0195000004
-0.0406234477 -0.0019298940 0.0195000004
-0.0361174244 -0.0031729199 0.0195000004
-0.0335146845 0.0152703268 0.0195000004
-0.0364841611 0.0138461990 0.0195000004
-0.0515136859 0.0144678557 0.0195000004
-0.0543514476 0.0158553019 0.0195000004
-0.0530009129 0.0087881306 0.0195000004
-0.0425664461 0.0101020794 0.0195000004
-0.0523458275 -0.0035024219 0.0195000004
-0.0586095844 -0.0041755717 0.0195000004
-0.0491312704 -0.0081534759 0.0195000004
-0.0465804399 -0.0086988308 0.0195000004
-0.0462829468 -0.0146638718 0.0195000004
-0.0352647405 -0.0128883453 0.0195000004
-0.0347046604 -0.0091018526 0.0195000004
-0.0381615802 -0.0356723682 0.0195000004
-0.0282615120 -0.0273220497 0.0195000004
-0.0380204095 -0.0396086593 0.0195000004
-0.0262689879 -0.0310018394 0.0195000004
-0.0345169771 -0.0488466164 0.0195000004
-0.0306905719 -0.0461097391 0.0195000004
-0.0492429924 -0.0183756555 0.0195000004
-0.0467751511 -0.0169397005 0.0195000004
-0.0450428679 -0.0218576876 0.0195000004
-0.0444723337 -0.0220205969 0.0195000004
-0.0366348770 -0.0240220459 0.0195000004
-0.0333442344 -0.0157058908 0.0195000004
-0.0452892231 -0.0329517169 0.0195000004
-0.0493986167 -0.0318295274 0.0195000004
-0.0328210005 -0.0255892261 0.0195000004
-0.0311081058 -0.0240226795 0.0195000004
-0.0429475167 0.0282158391 0.0195000004
-0.0337343245 0.0232569783 0.0195000004
-0.0323509876 0.0192952974 0.0195000004
-0.0408806455 0.0236689350 0.0195000004
-0.0503076822 0.0300514119 0.0195000004
-0.0553295623 0.0214207368 0.0195000004
-0.0379261769 0.0200152139 0.0195000004
-0.0208253098 0.0295442734 0.0195000004
-0.0268281635 0.0280721212 0.0195000004
-0.0344091127 0.0340682438 0.0195000004
-0.0370936969 0.0393109146 0.0195000004
-0.0382172549 0.0333944687 0.0195000004
-0.0430119861 0.0331148202 0.0195000004
-0.0189143756 0.0388077684 0.0195000004
-0.0230664535 0.0428312720 0.0195000004
-0.0311281874 0.0501331621 0.0195000004
-0.0313485647 0.0499341993 0.0195000004
-0.0332808871 0.0402663314 0.0195000004
-0.0263342735 0.0354267557 0.0195000004
0.0408081905 0.0177256732 0.0195000004
0.0432349294 0.0209342713 0.0195000004
0.0332252873 0.0139788414 0.0195000004
-0.0115169325 0.0435215396 0.0195000004
-0.0087342692 0.0419468457 0.0195000004
-0.0161560018 0.0526518428 0.0195000004
-0.0168791004 0.0498480620 0.0195000004
-0.0184380912 0.0453669932 0.0195000004
-0.0249299859 0.0513209461 0.0195000004
0.0027450007 0.0428552707 0.0195000004
0.0003261762 0.0422248971 0.0195000004
-0.0048284137 0.0400609842 0.0195000004
-0.0023086755 0.0496021325 0.0195000004
-0.0054990678 0.0447338470 0.0195000004
-0.0082783527 0.0595679930 0.0195000004
-0.0083067511 0.0531254760 0.0195000004
0.0511724642 0.0264714765 0.0195000004
0.0405044944 0.0222403083 0.0195000004
0.0497962489 0.0320279146 0.0195000004
0.0446508324 0.0291302944 0.0195000004
0.0288844993 0.0257183474 0.0195000004
0.0390642665 0.0300246982 0.0195000004
0.0286892765 0.0283291767 0.0195000004
0.0371821529 0.0346042675 0.0195000004
0.0275255954 0.0280259106 0.0195000004
0.0271821543 0.0269182663 0.0195000004
0.0356495145 0.0096706409 0.0195000004
0.0487445483 0.0102710752 0.0195000004
0.0512757826 0.0132359430 0.0195000004
0.0446898996 0.0116978409 0.0195000004
0.0501177521 0.0157869897 0.0195000004
0.0550263597 0.0229428120 0.0195000004
0.0503866462 0.0213538706 0.0195000004
0.0521611791 -0.0035723848 0.0195000004
0.0358564191 0.0010556211 0.0195000004
0.0484421326 0.0023002727 0.0195000004
0.0585549804 0.0026752810 0.0195000004
0.0592623377 0.0085197056 0.0195000004
0.0469469583 0.0041724633 0.0195000004
0.0386613195 -0.0124678113 0.0195000004
0.0350611207 -0.0087157668 0.0195000004
0.0540160702 -0.0149760880 0.0195000004
0.0409004877 -0.0077940602 0.0195000004
0.0588037516 -0.0032393180 0.0195000004
0.0547134908 -0.0061878212 0.0195000004
0.0371915622 -0.0184912687 0.0195000004
0.0359891444 -0.0199468482 0.0195000004
0.0363253083 -0.0192945487 0.0195000004
0.0469763081 -0.0236120018 0.0195000004
0.0513546920 -0.0294137784 0.0195000004
0.0447715391 -0.0160113187 0.0195000004
0.0557405533 -0.0196969199 0.0195000004
-0.0258945308 -0.0463016428 0.0195000004
-0.0326109775 -0.0507982171 0.0195000004
-0.0185840096 -0.0483357456 0.0195000004
-0.0217686314 -0.0516047328 0.0195000004
-0.0119740077 -0.0373977695 0.0195000004
-0.0126518248 -0.0348031545 0.0195000004
0.0076518679 0.0353808173 0.0195000004
0.0087039454 0.0395679091 0.0195000004
0.0063905645 0.0449709962 0.0195000004
0.0121374579 0.0541473523 0.0195000004
0.0032191161 0.0462943775 0.0195000004
0.0034924183 0.0568915847 0.0195000004
0.0369524439 0.0447495691 0.0195000004
0.0303089863 0.0407335672 0.0195000004
0.0332130456 0.0479248788 0.0195000004
0.0257178811 0.0378955089 0.0195000004
0.0275201067 0.0488552286 0.0195000004
0.0267150289 0.0481585820 0.0195000004
0.0179597635 0.0340718892 0.0195000004
0.0266892012 0.0501272893 0.0195000004
0.0190738943 0.0428906775 0.0195000004
0.0204974581 0.0521646389 0.0195000004
0.0199714571 0.0503400798 0.0195000004
0.0286765905 -0.0219549187 0.0195000004
0.0374530940 -0.0369838167 0.0195000004
0.0408174673 -0.0343233453 0.0195000004
0.0437709722 -0.0373624449 0.0195000004
0.0385707154 -0.0273415821 0.0195000004
0.0483716149 -0.0333962672 0.0195000004
0.0186486238 -0.0425124126 0.0195000004
0.0185197636 -0.0422380333 0.0195000004
0.0248544478 -0.0528098098 0.0195000004
0.0290268136 -0.0495706398 0.0195000004
0.0243814198 -0.0325891576 0.0195000004
0.0251319107 -0.0332967238 0.0195000004
0.0172103181 -0.0327210054 0.0195000004
0.0298809544 -0.0418900362 0.0195000004
0.0288184750 -0.0397786110 0.0195000004
0.0300013688 -0.0326671958 0.0195000004
0.0341101390 -0.0384998224 0.0195000004
0.0053892374 -0.0382981162 0.0195000004
0.0062644448 -0.0453570487 0.0195000004
0.0109305883 -0.0501367105 0.0195000004
0.0158193909 -0.0552360755 0.0195000004
0.0173852188 -0.0465699465 0.0195000004
0.0100934823 -0.0373614227 0.0195000004
-0.0132852236 -0.0465226798 0.0195000004
-0.0142768177 -0.0500123338 0.0195000004
-0.0088314136 -0.0571848297 0.0195000004
-0.0062584024 -0.0567294929 0.0195000004
-0.0056600414 -0.0490750753 0.0195000004
-0.0047767408 -0.0404493622 0.0195000004
-0.0040045698 -0.0441956634 0.0195000004
-0.0004555350 -0.0524083149 0.0195000004
0.0011817434 -0.0521353683 0.0195000004
0.0059226990 -0.0515600304 0.0195000004
0.0024798584 -0.0532966995 0.0195000004
0.0066577196 0.0019059670 0.0423150079
0.0058378755 0.0037911848 0.0604844592
0.0056932744 0.0040463566 0.0559682538
0.0055578383 0.0041771240 0.0703781094
0.0030627960 0.0061725240 0.0579634876
0.0013417188 0.0068502593 0.0611615214
0.0003464766 0.0068726356 0.0462295437
-0.0013210905 0.0068433048 0.0539271764
0.0222485477 0.0255144994 0.0261470489
0.0266264638 0.0200213176 0.0281176561
0.0277735223 0.0188578374 0.0273336312
0.0273493949 0.0221288078 0.0211617580
0.0294751709 0.0153415517 0.0286789819
0.0311244054 0.0150053875 0.0235265745
0.0333739618 0.0087318980 0.0239967416
0.0346096425 0.0081426489 0.0198396438
0.0347195807 0.0006484068 0.0231006028
0.0325867151 -0.0048695354 0.0301127888
0.0325636990 -0.0077447970 0.0276615141
0.0317098040 -0.0094007205 0.0290213351
0.0348510684 -0.0071207246 0.0200524038
0.0303247894 -0.0127823471 0.0304470580
0.0296390586 -0.0170460419 0.0248242523
0.0235875616 -0.0234616872 0.0283690787
0.0232856847 -0.0239620958 0.0279258943
0.0173454647 -0.0280840480 0.0293558252
0.0205776346 -0.0290592764 0.0195375717
0.0209058360 -0.0277921635 0.0228001292
0.0098587195 -0.0315042390 0.0294499376
0.0084449047 -0.0329633410 0.0261857333
0.0031983746 -0.0326264128 0.0301631413
0.0040337439 -0.0337452818 0.0255962800
-0.0016131003 -0.0334075562 0.0278280287
-0.0055844645 -0.0348363187 0.0209097197
-0.0109129416 -0.0313244713 0.0286538472
-0.0078788611 -0.0322236277 0.0292562299
-0.0098684220 -0.0332654050 0.0230797840
-0.0157687971 -0.0310300854 0.0231770514
-0.0212431677 -0.0269421561 0.0249703473
-0.0236734578 -0.0233140140 0.0284536568
-0.0251176262 -0.0218254268 0.0284250735
-0.0287588321 -0.0163425465 0.0290209627
-0.0301763477 -0.0168830622 0.0234023975
-0.0304394638 -0.0135863992 0.0288547793
-0.0309591659 -0.0135044733 0.0271477458
-0.0338358148 -0.0100526466 0.0206727038
-0.0325780183 -0.0017062164 0.0307293076
-0.0341893699 -0.0016162339 0.0247120321
-0.0327346464 0.0020425706 0.0306931644
-0.0330351118 0.0080309315 0.0259000459
-0.0297316770 0.0143254807 0.0294524739
-0.0301313703 0.0122716218 0.0310511115
-0.0320035743 0.0147584390 0.0209507778
-0.0270149119 0.0185345807 0.0302400155
-0.0248622317 0.0228015880 0.0273357345
-0.0221075445 0.0251853565 0.0273812833
-0.0220128168 0.0278444643 0.0200253512
-0.0177594381 0.0290071926 0.0258397748
-0.0137268140 0.0326609850 0.0205742670
-0.0171209026 0.0302465700 0.0227986759
-0.0103310406 0.0324862086 0.0254721186
-0.0047219549 0.0334368509 0.0270759760
0.0000283905 0.0335442159 0.0272584383
-0.0017636803 0.0351766997 0.0210555774
0.0046703269 0.0342070343 0.0240554749
0.0082170183 0.0340264402 0.0217774400
0.0139679758 0.0295030443 0.0306490957
0.0145768669 0.0304926441 0.0263035202
0.0160681010 0.0312039418 0.0214397930
0.0189161713 0.0273337052 0.0288153218
-0.0126713109 -0.0190139901 0.0320000015
-0.0167620792 -0.0271758123 0.0320000015
-0.0084863251 -0.0135384571 0.0320000015
-0.0119607549 -0.0068494893 0.0320000015
-0.0224841497 -0.0149190371 0.0320000015
-0.0200095358 -0.0136607821 0.0320000015
-0.0178260195 -0.0145520137 0.0320000015
-0.0250940416 -0.0197757503 0.0320000015
-0.0078788000 0.0011388125 0.0320000015
-0.0171908775 -0.0014828716 0.0320000015
-0.0190576288 -0.0024653766 0.0320000015
-0.0310471546 -0.0078691720 0.0320000015
-0.0315248227 -0.0060957836 0.0320000015
0.0071841499 0.0057828437 0.0320000015
0.0087833077 0.0025192790 0.0320000015
0.0105681295 0.0055771068 0.0320000015
0.0190822935 0.0110450179 0.0320000015
0.0138976158 0.0113399052 0.0320000015
0.0166984329 0.0142473532 0.0320000015
0.0162010727 -0.0027563647 0.0320000015
0.0230833248 -0.0007215447 0.0320000015
0.0317013076 0.0013831195 0.0320000015
0.0273677627 0.0057759320 0.0320000015
0.0258051257 0.0032117441 0.0320000015
0.0169447419 0.0034623473 0.0320000015
0.0173458017 -0.0128200318 0.0320000015
0.0201970618 -0.0139948891 0.0320000015
0.0224438951 -0.0134053255 0.0320000015
0.0235743220 -0.0091331418 0.0320000015
0.0232906063 -0.0051219406 0.0320000015
-0.0063707990 0.0048297484 0.0320000015
-0.0250944769 0.0129709924 0.0320000015
-0.0196999914 0.0073382335 0.0320000015
-0.0281493596 0.0054431819 0.0320000015
-0.0192456194 0.0035443949 0.0320000015
-0.0080775229 0.0087206185 0.0320000015
-0.0212727150 0.0228827995 0.0320000015
-0.0167162099 0.0173862446 0.0320000015
-0.0205246829 0.0186161929 0.0320000015
-0.0254516359 0.0181899295 0.0320000015
-0.0036922534 0.0226518032 0.0320000015
-0.0070328133 0.0289563506 0.0320000015
-0.0076021204 0.0290952339 0.0320000015
-0.0165054222 0.0262217116 0.0320000015
-0.0094180099 0.0197845045 0.0320000015
0.0130264268 0.0166256710 0.0320000015
0.0153933932 0.0186146302 0.0320000015
0.0073309739 0.0146795787 0.0320000015
0.0112719086 0.0178469178 0.0320000015
0.0061669319 0.0140577661 0.0320000015
0.0053638426 0.0209610333 0.0320000015
0.0032745305 0.0261178631 0.0320000015
-0.0006475887 0.0264784978 0.0320000015
-0.0000988516 0.0198264517 0.0320000015
0.0051423349 -0.0130419653 0.0320000015
0.0145555409 -0.0229920198 0.0320000015
0.0196728261 -0.0243378047 0.0320000015
0.0173021707 -0.0165659493 0.0320000015
0.0166985028 -0.0183005777 0.0320000015
-0.0090277824 -0.0278609283 0.0320000015
-0.0062427064 -0.0206392458 0.0320000015
-0.0051702430 -0.0212325136 0.0320000015
-0.0023655110 -0.0266189457 0.0320000015
-0.0023964996 -0.0093629409 0.0320000015
0.0000045450 -0.0220070005 0.0320000015
0.0039268509 -0.0185190971 0.0320000015
0.0024071434 -0.0213681446 0.0320000015
0.0114775517 -0.0248341253 0.0320000015
0.0098745059 -0.0218341143 0.0320000015
0.0063891707 -0.0044638204 0.0348855058
-0.0034701562 -0.0070034627 0.0348872101
-0.0069440569 0.0034823517 0.0350396300
0.0020271471 0.0075161211 0.0353993277
0.0025250759 -0.0052414935 0.0357500017
-0.0061568124 -0.0030577948 0.0473197857
-0.0059475622 -0.0035389620 0.0497098187
-0.0060224397 -0.0033667825 0.0696179178
-0.0055710446 -0.0041643730 0.0589593145
-0.0051883638 -0.0045338624 0.0683966005
-0.0037348879 -0.0059078639 0.0655955165
-0.0024887840 -0.0063985616 0.0684464848
-0.0007435668 -0.0068796200 0.0559251106
0.0003124302 -0.0068610461 0.0624361258
0.0034158918 0.0051877977 0.0707499981
0.0000898863 -0.0041363897 0.0707499981
-0.0039128067 -0.0047841731 0.0707499981
-0.0062618280 -0.0005856320 0.0584355126
-0.0066048515 -0.0011190337 0.0570722560
-0.0063801999 -0.0007697004 0.0704515356
-0.0042386451 0.0025604181 0.0602172702
-0.0051767242 0.0011017047 0.0359138685
-0.0017706679 0.0063981235 0.0599058780
-0.0031573883 0.0042417727 0.0482754897
0.0067155576 0.0012911817 0.0466115369
0.0052148442 -0.0010424281 0.0703112390
0.0048231805 -0.0016514653 0.0595949883
0.0043963934 -0.0023151195 0.0697505947
0.0049562892 -0.0014444812 0.0375143525
0.0034555996 -0.0037780541 0.0494376634
0.0060468558 0.0002513502 0.0389939265
0.0024853997 -0.0052867153 0.0464155791
-0.0268100524 -0.0549894485 0.0178465880
-0.0225733423 -0.0569580321 0.0174487986
-0.0128439035 -0.0595215265 0.0184215548
-0.0082404168 -0.0601208701 0.0187006964
0.0050756497 -0.0619597939 0.0155511668
0.0108528905 -0.0612338289 0.0156606821
0.0180815423 -0.0597429304 0.0152007169
0.0296728196 -0.0551591721 0.0145308159
0.0321215115 -0.0538994602 0.0145251558
0.0439213645 -0.0448484666 0.0143986568
0.0487503641 -0.0392251104 0.0147977287
0.0509620412 -0.0349103725 0.0163593763
0.0559128675 -0.0278677671 0.0148740650
0.0576829905 -0.0235188279 0.0153061959
0.0599106153 -0.0165339059 0.0156375402
0.0597703551 -0.0103095012 0.0190087851
0.0612675550 -0.0014272449 0.0174984049
0.0612260974 0.0059701052 0.0170135308
0.0593782038 0.0136298178 0.0182630037
0.0570748609 0.0258970809 0.0145429435
0.0542783649 0.0293964315 0.0164629085
0.0513888177 0.0346080377 0.0160569036
0.0464624882 0.0395713663 0.0181017537
0.0419223213 0.0455614658 0.0162163363
0.0362423613 0.0501241362 0.0163816376
0.0262651910 0.0568317745 0.0145818851
0.0202382959 0.0579591552 0.0171867365
0.0135930466 0.0606851389 0.0154880222
0.0071539894 0.0619058504 0.0152767141
0.0003071335 0.0622068633 0.0155882507
-0.0082727226 0.0608821982 0.0171403993
-0.0159988386 0.0582838283 0.0192562516
-0.0256877499 0.0558809420 0.0169583684
-0.0328307847 0.0511960031 0.0184792874
-0.0391819326 0.0469525781 0.0177688325
-0.0423496656 0.0433891726 0.0188183772
-0.0505223282 0.0348401615 0.0174615716
-0.0522333155 0.0307061242 0.0189042064
-0.0576125366 0.0220933782 0.0166822032
-0.0581272382 0.0164873407 0.0192846835
-0.0618808842 0.0079251561 0.0151692935
-0.0617490193 0.0017335918 0.0163838379
-0.0608888714 -0.0083072240 0.0172857497
-0.0598937659 -0.0144201753 0.0168131747
-0.0572680006 -0.0216287695 0.0176564203
-0.0534112004 -0.0286132717 0.0190366789
-0.0504255646 -0.0333969737 0.0191493463
-0.0477696856 -0.0371813151 0.0190771877
-0.0418402736 -0.0441885946 0.0183319524
-0.0337041209 -0.0507518817 0.0183259218
-0.0285911011 -0.0567603284 0.0117840680
-0.0242836182 -0.0585085747 0.0122813936
-0.0147527931 -0.0617370900 0.0119391029
-0.0051308694 -0.0638228706 0.0103850669
-0.0027627725 -0.0628535019 0.0138030480
0.0104607607 -0.0623650011 0.0130317805
0.0144726098 -0.0618914796 0.0115632246
0.0227231552 -0.0586551044 0.0137961873
0.0302273519 -0.0559120673 0.0116095741
0.0385944277 -0.0500916159 0.0130037741
0.0440387365 -0.0465790560 0.0098882871
0.0497609190 -0.0392735566 0.0124771173
0.0522653510 -0.0361221607 0.0116568718
0.0542306816 -0.0317786683 0.0141956191
0.0601195899 -0.0195744413 0.0128631976
0.0621451305 -0.0125256618 0.0122404752
0.0629855459 -0.0055340014 0.0127274307
0.0635685942 0.0033136199 0.0114061920
0.0625672060 0.0111463331 0.0117575751
0.0614214688 0.0147005061 0.0129847803
0.0591223930 0.0220693537 0.0131533031
0.0545202646 0.0327999280 0.0114764833
0.0494728534 0.0394571451 0.0127023729
0.0485878297 0.0408655167 0.0121117796
0.0430334001 0.0463892767 0.0128166334
0.0374388821 0.0517138208 0.0109429715
0.0273537968 0.0579234987 0.0099079466
0.0229430953 0.0591966449 0.0120219359
0.0123447308 0.0629876145 0.0094804093
0.0049474379 0.0641123358 0.0090816956
0.0010068591 0.0631382651 0.0133366237
-0.0078558971 0.0628046773 0.0126544905
-0.0148359568 0.0625848618 0.0093902902
-0.0261546541 0.0582921326 0.0104663397
-0.0324703565 0.0552981511 0.0096759562
-0.0404882090 0.0496417953 0.0099563711
-0.0442000455 0.0463434547 0.0100065125
-0.0495601860 0.0407768064 0.0095604374
-0.0566935835 0.0306951545 0.0087363870
-0.0572615499 0.0273250654 0.0120259334
-0.0596076580 0.0207751374 0.0132024140
-0.0633146615 0.0111826578 0.0091107210
-0.0631834491 0.0051741950 0.0122401570
-0.0635086375 -0.0033185499 0.0115055373
-0.0635324483 -0.0094609138 0.0095911186
-0.0608650062 -0.0195175460 0.0103837566
-0.0587529101 -0.0245574852 0.0114253728
-0.0535550006 -0.0352223073 0.0097819252
-0.0494778730 -0.0402216770 0.0108926126
-0.0432324256 -0.0472548576 0.0099615877
-0.0384321146 -0.0505802804 0.0117142920
-0.0334109028 -0.0542117238 0.0113555538
-0.0280007271 -0.0590621385 0.0029704223
-0.0189714086 -0.0619937347 0.0061543174
-0.0159913062 -0.0628230684 0.0059867576
-0.0064516094 -0.0643895327 0.0070859891
0.0027305706 -0.0645851891 0.0079747764
0.0108538625 -0.0641756034 0.0049997338
0.0124552622 -0.0633773358 0.0078348590
0.0239700400 -0.0603553236 0.0053032548
0.0281027481 -0.0581493026 0.0077420701
0.0394962208 -0.0512809973 0.0073445540
0.0429683988 -0.0480805900 0.0083027839
0.0502678084 -0.0409897173 0.0060823088
0.0533142628 -0.0365017835 0.0074042260
0.0570483663 -0.0301522379 0.0080031877
0.0619531703 -0.0190438091 0.0067629731
0.0639273544 -0.0122417460 0.0045675876
0.0647260168 -0.0041749538 0.0061590415
0.0647134769 -0.0021831426 0.0069597658
0.0645436191 0.0088490871 0.0037468000
0.0626078815 0.0170796173 0.0054759575
0.0596898970 0.0259576831 0.0043015664
0.0571866318 0.0310265123 0.0043560388
0.0544610109 0.0349862476 0.0073590154
0.0470833654 0.0449445134 0.0041507645
0.0416375008 0.0497106173 0.0058183961
0.0372332162 0.0535185501 0.0037072501
0.0298581245 0.0578823130 0.0040420479
0.0208113732 0.0617328424 0.0037534307
0.0152787408 0.0633843147 0.0036560092
0.0014449219 0.0653298075 0.0031054569
-0.0005637354 0.0648091482 0.0063268014
-0.0063281936 0.0647213484 0.0051732105
-0.0107212884 0.0636435306 0.0078982935
-0.0223425934 0.0609961136 0.0058376940
-0.0269908769 0.0588643560 0.0064689446
-0.0357722679 0.0539409509 0.0071530877
-0.0399419145 0.0505720528 0.0085778660
-0.0481593376 0.0433011307 0.0070357725
-0.0519121067 0.0389258967 0.0056326378
-0.0566785617 0.0310923391 0.0075058215
-0.0600978366 0.0242254800 0.0064050870
-0.0613587252 0.0198930544 0.0082349213
-0.0638458752 0.0094043118 0.0080719649
-0.0643151316 0.0041393048 0.0085866805
-0.0646690706 -0.0065134342 0.0049200221
-0.0631597923 -0.0129443286 0.0083637935
-0.0614235855 -0.0210087557 0.0053354403
-0.0595405778 -0.0261287688 0.0048263940
-0.0553035585 -0.0344957153 0.0035476696
-0.0511884115 -0.0395639974 0.0070789243
-0.0449691454 -0.0471795358 0.0035454280
-0.0412887661 -0.0497188609 0.0080942953
-0.0317965940 -0.0568509711 0.0038059539
-0.0260921826 -0.0598492733 -0.0019576890
-0.0182055889 -0.0626921888 -0.0017056042
-0.0109851674 -0.0643664649 -0.0008330753
-0.0050533663 -0.0651932940 0.0018662406
0.0080408456 -0.0647829366 -0.0024513377
0.0113597623 -0.0643730574 0.0001162206
0.0194872715 -0.0623777300 0.0017340928
0.0245500591 -0.0605153243 0.0024523173
0.0331785603 -0.0563298738 -0.0006277813
0.0398858880 -0.0518007358 0.0003591535
0.0446979119 -0.0476087890 -0.0007113453
0.0479803582 -0.0442688621 0.0014117638
0.0531122926 -0.0379564106 0.0013151073
0.0587925892 -0.0284112338 0.0023444610
0.0622785499 -0.0197868561 -0.0021093608
0.0641344344 -0.0124209221 -0.0017251200
0.0653183263 -0.0031391607 0.0016532436
0.0652661431 0.0007413041 0.0014811580
0.0642610745 0.0117997484 0.0021038000
0.0639774291 0.0133941462 0.0001256505
0.0600905999 0.0255092348 -0.0027033294
0.0581787200 0.0296749845 -0.0025357406
0.0545265871 0.0360018108 0.0008213486
0.0501796401 0.0419061072 -0.0000156568
0.0436283174 0.0486059202 -0.0017606211
0.0373802436 0.0535630983 -0.0009942204
0.0287829670 0.0585835780 -0.0026734686
0.0243473945 0.0606715826 -0.0025468224
0.0144187117 0.0636721250 -0.0013488933
0.0077688194 0.0648601543 -0.0004132252
0.0002893017 0.0653477296 -0.0000960300
-0.0045272789 0.0651332589 0.0002347154
-0.0114896919 0.0642537714 -0.0002146217
-0.0157719528 0.0634106708 0.0028468010
-0.0273181980 0.0592894764 0.0016993785
-0.0346002421 0.0553619932 -0.0002189534
-0.0429946433 0.0492505724 -0.0020108852
-0.0471796925 0.0451298921 -0.0007568832
-0.0513014399 0.0403532751 0.0020314253
-0.0568940252 0.0320400207 0.0010090915
-0.0610097513 0.0234312672 -0.0020747857
-0.0635177301 0.0154561458 0.0009782401
-0.0647291430 0.0087287059 -0.0016070503
-0.0653703257 -0.0005256675 -0.0024844687
-0.0651543869 -0.0039933392 0.0004033180
-0.0645574334 -0.0100427537 0.0008373666
-0.0619452730 -0.0205665795 -0.0021619049
-0.0600778413 -0.0256540677 -0.0020623134
-0.0557980205 -0.0338951181 -0.0008251642
-0.0503236475 -0.0415659729 0.0000373160
-0.0434787534 -0.0487139265 -0.0018561074
-0.0380991833 -0.0530005713 -0.0007376985
-0.0348148010 -0.0553136946 -0.0000094436
-0.0216667588 -0.0608454482 -0.0080106168
-0.0206289809 -0.0618213632 -0.0043402206
-0.0106846332 -0.0639298001 -0.0061510467
0.0012866897 -0.0645955132 -0.0077353717
-0.0023863175 -0.0650529781 -0.0041784089
0.0070264193 -0.0648068825 -0.0034790179
0.0140741070 -0.0636964850 -0.0031938450
0.0253678926 -0.0601228551 -0.0034952234
0.0331774258 -0.0559330019 -0.0053231953
0.0377920559 -0.0528746345 -0.0049132112
0.0453919855 -0.0461578458 -0.0072154402
0.0492889297 -0.0425145187 -0.0041721889
0.0547869236 -0.0343347868 -0.0075010866
0.0592269106 -0.0263682898 -0.0067112921
0.0607969589 -0.0230130655 -0.0047166689
0.0641519186 -0.0111471587 -0.0047994355
0.0645419210 -0.0071548719 -0.0051835827
0.0651425207 -0.0009390742 -0.0039098811
0.0641748301 0.0068300400 -0.0081288851
0.0626636841 0.0163446474 -0.0063996413
0.0603496372 0.0229899466 -0.0077067531
0.0573230567 0.0305142922 -0.0052393977
0.0536722927 0.0360907743 -0.0072700549
0.0488792501 0.0426950950 -0.0057068263
0.0442414137 0.0473996476 -0.0065601778
0.0330970734 0.0553460348 -0.0084944782
0.0299784373 0.0573506905 -0.0069613039
0.0239934549 0.0604126316 -0.0053581263
0.0160829694 0.0629102935 -0.0057286160
0.0039084216 0.0644535767 -0.0077539459
0.0003465767 0.0648425052 -0.0063758229
-0.0089477372 0.0639988782 -0.0075267904
-0.0204764142 0.0611541764 -0.0084621187
-0.0224969728 0.0612989384 -0.0035513241
-0.0230878359 0.0610858069 -0.0033014090
-0.0361064483 0.0536468407 -0.0077112410
-0.0414942142 0.0498857441 -0.0057718368
-0.0441646725 0.0479344660 -0.0038769222
-0.0531717333 0.0377744146 -0.0037007430
-0.0560452435 0.0327117183 -0.0055189571
-0.0598545116 0.0247997807 -0.0063336956
-0.0629627486 0.0166936615 -0.0040844083
-0.0647341150 0.0084183212 -0.0032351407
-0.0650369164 0.0009116876 -0.0047138079
-0.0646715077 -0.0077611227 -0.0042616262
-0.0638562108 -0.0130717938 -0.0035235880
-0.0606096302 -0.0240159308 -0.0041142193
-0.0573527125 -0.0310972199 -0.0037093964
-0.0550572562 -0.0342774770 -0.0057701185
-0.0508849689 -0.0397685913 -0.0077855322
-0.0440170004 -0.0472559855 -0.0076328626
-0.0413786744 -0.0496589881 -0.0080606220
-0.0312494611 -0.0565319746 -0.0075356504
-0.0231935411 -0.0587550468 -0.0128930473
-0.0195627646 -0.0608012361 -0.0107706826
-0.0103681537 -0.0621419175 -0.0135031408
-0.0012357578 -0.0631232452 -0.0129881390
0.0047699998 -0.0633701212 -0.0117042596
0.0153710926 -0.0611579141 -0.0132698606
0.0203840955 -0.0597240440 -0.0131415951
0.0269557570 -0.0582562853 -0.0096501978
0.0330190802 -0.0552735846 -0.0091997580
0.0390101188 -0.0495336072 -0.0135901540
0.0488008146 -0.0397138504 -0.0139028602
0.0515162843 -0.0380973100 -0.0099783433
0.0543188289 -0.0326075483 -0.0126556663
0.0586462132 -0.0236865193 -0.0126900847
0.0606529632 -0.0162953251 -0.0141896410
0.0625637031 -0.0103141467 -0.0123826244
0.0629133272 -0.0027440380 -0.0138757197
0.0626491861 0.0066205492 -0.0135521411
0.0621526866 0.0145641887 -0.0107381202
0.0599076575 0.0201947609 -0.0130622371
0.0560289771 0.0296772197 -0.0121308020
0.0518527954 0.0365545698 -0.0119859433
0.0509194675 0.0388433574 -0.0100002880
0.0447746918 0.0449246522 -0.0121353047
0.0403486451 0.0493658392 -0.0109162094
0.0309630317 0.0552075279 -0.0128305305
0.0277850236 0.0572941875 -0.0111799193
0.0167881173 0.0614349576 -0.0115029254
0.0090116560 0.0634969987 -0.0100469573
0.0075596141 0.0639694527 -0.0088711762
-0.0064204593 0.0637868748 -0.0100636134
-0.0107098458 0.0627882328 -0.0111151063
-0.0180243243 0.0618525869 -0.0086778807
-0.0274289666 0.0583172668 -0.0086740511
-0.0350497591 0.0540053634 -0.0089749189
-0.0407575690 0.0486488470 -0.0120267188
-0.0457573957 0.0452314561 -0.0089637477
-0.0525197656 0.0364908855 -0.0105975338
-0.0541301095 0.0342609924 -0.0099485134
-0.0583921422 0.0265992097 -0.0095531408
-0.0610552050 0.0194187837 -0.0098842119
-0.0628655474 0.0089603408 -0.0118571033
-0.0637631985 0.0032786992 -0.0106065246
-0.0632974362 -0.0082965171 -0.0109573018
-0.0629367961 -0.0114520830 -0.0102311019
-0.0590090217 -0.0235204079 -0.0120402497
-0.0573848344 -0.0281335809 -0.0104079419
-0.0532020106 -0.0351127651 -0.0109744944
-0.0490048571 -0.0416287451 -0.0091107314
-0.0414109931 -0.0476339321 -0.0132206615
-0.0348950721 -0.0539516560 -0.0096223696
0.0298984732 0.0531568948 -0.0182827588
0.0248854454 0.0576243940 -0.0143321676
0.0210420496 0.0589069148 -0.0147064155
0.0125602636 0.0608898512 -0.0155020937
0.0049080203 0.0621375653 -0.0151598305
-0.0051316390 0.0606477961 -0.0184138248
-0.0121688977 0.0609387257 -0.0156239478
-0.0194291987 0.0582944911 -0.0171211932
-0.0245929309 0.0566835022 -0.0163264727
-0.0343454795 0.0520802477 -0.0151826935
-0.0424388390 0.0437464381 -0.0181396826
-0.0461508862 0.0404763105 -0.0173970814
-0.0531128081 0.0287405250 -0.0194577554
-0.0553951649 0.0271644346 -0.0166193061
-0.0580445382 0.0180403636 -0.0184871285
-0.0601950929 0.0130264516 -0.0168715991
-0.0603885771 0.0055617914 -0.0189086979
-0.0620930683 -0.0019391690 -0.0157356427
-0.0609887393 -0.0092210536 -0.0167096077
-0.0581948556 -0.0182652438 -0.0180519654
-0.0545711453 -0.0258883222 -0.0193066435
-0.0539874410 -0.0300524782 -0.0165656692
-0.0496682566 -0.0373100317 -0.0157594106
-0.0420807940 -0.0441614420 -0.0180198767
-0.0364647809 -0.0490020676 -0.0178477428
-0.0339748956 -0.0528364082 -0.0143716602
-0.0225124762 -0.0562272567 -0.0189517370
-0.0170396955 -0.0582015867 -0.0188114534
-0.0095487236 -0.0601172610 -0.0183154268
-0.0041605827 -0.0606119858 -0.0187183060
0.0048219357 -0.0617594373 -0.0160367720
0.0126311548 -0.0606847124 -0.0159410835
0.0205290322 -0.0571170432 -0.0186789157
0.0297456445 -0.0526809399 -0.0191908870
0.0353908605 -0.0492184188 -0.0188707416
0.0400578744 -0.0454654205 -0.0188888488
0.0448338499 -0.0408868527 -0.0187230516
0.0529709309 -0.0327431744 -0.0154410077
0.0570829086 -0.0259061377 -0.0145861926
0.0576540163 -0.0246068497 -0.0145502975
0.0599637387 -0.0106930251 -0.0184194347
0.0618552771 -0.0091694884 -0.0148252605
0.0619866384 0.0020159216 -0.0158528325
0.0614806907 0.0098918954 -0.0153223265
0.0593970125 0.0176458378 -0.0160057152
0.0564263965 0.0253347461 -0.0162863123
0.0557279808 0.0286880228 -0.0144784695
0.0504657992 0.0370994415 -0.0145079378
0.0438846723 0.0442794934 -0.0152277235
0.0391413233 0.0475756586 -0.0167164934
0.0330137726 0.0519032916 -0.0170500563
0.0080876396 0.0118869348 -0.0320000015
-0.0000636888 0.0286162105 -0.0320000015
0.0033904768 0.0163017942 -0.0320000015
0.0014365123 0.0274256235 -0.0320000015
0.0031044660 0.0121162520 -0.0320000015
0.0091592451 0.0303749976 -0.0320000015
0.0086888311 0.0143357165 -0.0320000015
0.0124735110 0.0200402776 -0.0320000015
-0.0136892735 0.0265719376 -0.0320000015
-0.0134672866 0.0159666916 -0.0320000015
-0.0066957592 0.0133355829 -0.0320000015
-0.0133233643 0.0269797349 -0.0320000015
-0.0093297351 0.0303136732 -0.0320000015
-0.0046628210 0.0201004281 -0.0320000015
-0.0029980889 0.0270688307 -0.0320000015
-0.0012153260 0.0125063501 -0.0320000015
-0.0073944528 0.0015618160 -0.0320000015
-0.0202549333 0.0058633432 -0.0320000015
-0.0230310776 0.0092745832 -0.0320000015
-0.0136124539 0.0095857210 -0.0320000015
-0.0165690769 0.0107783948 -0.0320000015
-0.0146613854 0.0118618118 -0.0320000015
-0.0131540657 0.0121969395 -0.0320000015
-0.0106093453 0.0109182830 -0.0320000015
-0.0241142349 -0.0131902397 -0.0320000015
-0.0228609019 -0.0089893448 -0.0320000015
-0.0252695574 -0.0140423120 -0.0320000015
-0.0081382402 -0.0008463391 -0.0320000015
-0.0305992980 -0.0074784042 -0.0320000015
-0.0102905485 -0.0000196962 -0.0320000015
-0.0143768854 -0.0009560348 -0.0320000015
-0.0303418341 0.0035158641 -0.0320000015
-0.0082929705 -0.0191263310 -0.0320000015
-0.0038745519 -0.0062314770 -0.0320000015
-0.0074229017 -0.0134072812 -0.0320000015
-0.0127652315 -0.0149225755 -0.0320000015
-0.0070589470 -0.0107691364 -0.0320000015
-0.0151117923 -0.0135485378 -0.0320000015
-0.0100055044 -0.0076846040 -0.0320000015
-0.0102308506 -0.0089781125 -0.0320000015
0.0044515176 -0.0206259100 -0.0320000015
0.0036114900 -0.0193119402 -0.0320000015
0.0059217990 -0.0200662991 -0.0320000015
-0.0022730676 -0.0224500885 -0.0320000015
-0.0004923867 -0.0160737991 -0.0320000015
-0.0028644083 -0.0321068868 -0.0320000015
-0.0043906116 -0.0156394933 -0.0320000015
-0.0056147999 -0.0193063392 -0.0320000015
0.0185011552 -0.0105117010 -0.0320000015
0.0201375487 -0.0123516655 -0.0320000015
0.0230766468 -0.0171209598 -0.0320000015
0.0114416438 -0.0167722846 -0.0320000015
0.0080214564 -0.0075279578 -0.0320000015
0.0171032969 -0.0232741193 -0.0320000015
0.0081484982 -0.0211112364 -0.0320000015
0.0112287418 -0.0229848069 -0.0320000015
0.0323845680 -0.0008970577 -0.0320000015
0.0280413655 0.0028314611 -0.0320000015
0.0296054913 0.0010691023 -0.0320000015
0.0292811201 -0.0063825837 -0.0320000015
0.0284056260 -0.0019620642 -0.0320000015
0.0228835353 -0.0017331607 -0.0320000015
0.0149420097 -0.0080653795 -0.0320000015
0.0254699903 -0.0126342786 -0.0320000015
0.0260760489 -0.0102545725 -0.0320000015
0.0150764333 0.0181064097 -0.0320000015
0.0082197971 0.0078214216 -0.0320000015
0.0258286002 0.0127463649 -0.0320000015
0.0182148288 0.0084107798 -0.0320000015
0.0182948398 0.0125209317 -0.0320000015
0.0223459638 0.0061247045 -0.0320000015
0.0169253486 0.0070131606 -0.0320000015
0.0208183081 0.0065315983 -0.0320000015
0.0176837782 0.0279877130 -0.0296836047
0.0136911339 0.0300404367 -0.0297349759
0.0125352562 0.0304248165 -0.0298162115
0.0081729216 0.0331102660 -0.0257468769
0.0047852592 0.0336813780 -0.0255429266
-0.0002671128 0.0346241829 -0.0240303211
-0.0009166976 0.0345480985 -0.0240830549
-0.0052061569 0.0341913105 -0.0233774007
-0.0089940211 0.0341534493 -0.0212739991
-0.0133988432 0.0316216312 -0.0243592969
-0.0129178091 0.0330987988 -0.0197990248
-0.0191906148 0.0267323707 -0.0297011443
-0.0203852650 0.0273760186 -0.0251892264
-0.0228499071 0.0247512112 -0.0271159073
-0.0272107452 0.0224903167 -0.0208484485
-0.0289893380 0.0197427674 -0.0219749470
-0.0309376140 0.0139979385 -0.0261981698
-0.0310992846 0.0103090089 -0.0302804401
-0.0329375387 0.0091333346 -0.0248668513
-0.0322520679 0.0062127529 -0.0303809017
-0.0338043689 0.0044835444 -0.0256122034
-0.0341819282 -0.0005163655 -0.0250947396
-0.0328829152 -0.0031296618 -0.0296785751
-0.0339866752 -0.0069730996 -0.0229480936
-0.0310611403 -0.0113174922 -0.0293628540
-0.0311057980 -0.0136918704 -0.0255917962
-0.0286322628 -0.0160326850 -0.0305210721
-0.0286355960 -0.0178681458 -0.0270066101
-0.0272581994 -0.0229039395 -0.0196713434
-0.0220410773 -0.0251809013 -0.0276104240
-0.0195635229 -0.0268886188 -0.0285631430
-0.0133833958 -0.0299474075 -0.0301149795
-0.0121728867 -0.0309780016 -0.0286362466
-0.0091950975 -0.0321288008 -0.0279213303
-0.0066667013 -0.0330247775 -0.0267334912
-0.0043832622 -0.0324977887 -0.0305576125
-0.0015278901 -0.0342802859 -0.0245507381
0.0001427622 -0.0353646571 -0.0204119639
0.0084788029 -0.0319244090 -0.0291955677
0.0082275764 -0.0342402128 -0.0209767771
0.0148543676 -0.0289800116 -0.0309294941
0.0136242923 -0.0326203589 -0.0208863843
0.0182069862 -0.0304964951 -0.0200949676
0.0192514058 -0.0283514015 -0.0253296684
0.0240145502 -0.0247612887 -0.0239292702
0.0274606971 -0.0191748049 -0.0274696062
0.0277089825 -0.0223555947 -0.0196774529
0.0309773716 -0.0165954527 -0.0218381802
0.0326739403 -0.0096543152 -0.0260426392
0.0337754290 -0.0072258249 -0.0236504443
0.0349472719 -0.0043900932 -0.0210488775
0.0339296368 -0.0030701937 -0.0256320925
0.0321560880 0.0033458833 -0.0318895653
0.0325094081 0.0049867682 -0.0301433630
0.0310179441 0.0114235558 -0.0292561875
0.0328950527 0.0099972829 -0.0241101852
0.0265997026 0.0189465717 -0.0310257550
0.0296621034 0.0185022866 -0.0219696906
0.0264083440 0.0196376159 -0.0303233936
0.0238314728 0.0232454442 -0.0282047235
0.0223885618 0.0247099494 -0.0282926729
-0.0292778010 -0.0232996650 -0.0195000004
-0.0283529931 -0.0225634704 -0.0195000004
-0.0281219387 -0.0258369169 -0.0195000004
-0.0309015389 -0.0351909779 -0.0195000004
-0.0285339021 -0.0331545593 -0.0195000004
-0.0291451972 -0.0292237333 -0.0195000004
-0.0346340695 -0.0384438067 -0.0195000004
-0.0295396694 -0.0282053244 -0.0195000004
-0.0374226969 -0.0338624801 -0.0195000004
-0.0075901809 0.0412983820 -0.0195000004
-0.0059175029 0.0552052679 -0.0195000004
-0.0192066196 0.0506584055 -0.0195000004
-0.0163608414 0.0449741742 -0.0195000004
-0.0176544848 0.0488527793 -0.0195000004
-0.0126572706 0.0425772683 -0.0195000004
-0.0144143767 0.0510535781 -0.0195000004
-0.0091252551 0.0463640291 -0.0195000004
-0.0114014334 0.0554332704 -0.0195000004
0.0281700017 0.0506328619 -0.0195000004
-0.0000585531 0.0518660935 -0.0195000004
-0.0003224204 0.0407296855 -0.0195000004
0.0029206259 0.0494913183 -0.0195000004
0.0010736611 0.0514224202 -0.0195000004
0.0050017888 0.0377781457 -0.0195000004
0.0057713178 0.0422525321 -0.0195000004
0.0090019531 0.0497252229 -0.0195000004
0.0113536280 0.0531179687 -0.0195000004
0.0155649042 0.0575816554 -0.0195000004
0.0153471414 0.0341814281 -0.0195000004
0.0117498056 0.0458457982 -0.0195000004
0.0168375781 0.0559131183 -0.0195000004
0.0177588722 0.0479889214 -0.0195000004
0.0213966099 0.0449628382 -0.0195000004
0.0216452082 0.0445123378 -0.0195000004
-0.0233866846 0.0296292285 -0.0195000004
-0.0207866511 0.0292066986 -0.0195000004
-0.0305553303 0.0463878941 -0.0195000004
-0.0195646610 0.0356377750 -0.0195000004
-0.0257051916 0.0512055773 -0.0195000004
-0.0225183910 0.0509889746 -0.0195000004
-0.0371358922 0.0321444511 -0.0195000004
-0.0298823954 0.0233519130 -0.0195000004
-0.0389665892 0.0365114988 -0.0195000004
-0.0393400210 0.0390607691 -0.0195000004
-0.0329794845 0.0412487861 -0.0195000004
-0.0347166905 0.0442881716 -0.0195000004
-0.0486436338 -0.0304461648 -0.0195000004
-0.0486683973 -0.0340673861 -0.0195000004
-0.0488430074 -0.0256053773 -0.0195000004
-0.0514397338 -0.0221758263 -0.0195000004
-0.0350681554 -0.0157593443 -0.0195000004
-0.0441994188 -0.0178980987 -0.0195000004
-0.0468973654 -0.0190908388 -0.0195000004
-0.0182354982 -0.0397810100 -0.0195000004
-0.0187624589 -0.0385119477 -0.0195000004
-0.0270402823 -0.0432760673 -0.0195000004
-0.0295213718 -0.0468460135 -0.0195000004
-0.0310098469 -0.0400392961 -0.0195000004
-0.0344878869 -0.0447337520 -0.0195000004
-0.0099870871 -0.0365834683 -0.0195000004
-0.0063502248 -0.0368223096 -0.0195000004
-0.0169560981 -0.0529953329 -0.0195000004
-0.0152354649 -0.0567703184 -0.0195000004
-0.0246618920 -0.0545743616 -0.0195000004
-0.0188822899 -0.0556374483 -0.0195000004
-0.0469653135 0.0258109437 -0.0195000004
-0.0404494141 0.0225256578 -0.0195000004
-0.0379418639 0.0217416398 -0.0195000004
-0.0487654285 0.0301231508 -0.0195000004
-0.0457218781 0.0289817425 -0.0195000004
-0.0372390612 0.0291152867 -0.0195000004
-0.0454057201 0.0395018113 -0.0195000004
-0.0345283551 0.0097397935 -0.0195000004
-0.0340484517 0.0131516029 -0.0195000004
-0.0574764443 0.0172071056 -0.0195000004
-0.0529790093 0.0154197695 -0.0195000004
-0.0432129036 0.0185390597 -0.0195000004
-0.0435770165 0.0203643522 -0.0195000004
-0.0549201046 -0.0205482259 -0.0195000004
-0.0560280162 -0.0194191021 -0.0195000004
-0.0523791446 -0.0096853279 -0.0195000004
-0.0504382241 -0.0125950200 -0.0195000004
-0.0374573587 -0.0033785580 -0.0195000004
-0.0411819115 -0.0062239024 -0.0195000004
-0.0417878831 -0.0032609183 -0.0195000004
-0.0509816554 -0.0037281619 -0.0195000004
-0.0583788653 -0.0022571348 -0.0195000004
-0.0378183199 -0.0021887235 -0.0195000004
-0.0430285095 0.0006490580 -0.0195000004
-0.0548449743 0.0014860769 -0.0195000004
-0.0560067971 0.0058033806 -0.0195000004
-0.0467243706 0.0080847208 -0.0195000004
-0.0591245646 0.0112974415 -0.0195000004
0.0255781345 -0.0272295333 -0.0195000004
0.0326217681 -0.0395628182 -0.0195000004
0.0289236366 -0.0449182620 -0.0195000004
0.0250977080 -0.0364091694 -0.0195000004
0.0223442400 -0.0353115066 -0.0195000004
0.0215591307 -0.0338748901 -0.0195000004
0.0309145000 -0.0239523351 -0.0195000004
0.0344338089 -0.0275862125 -0.0195000004
0.0376870837 -0.0311593390 -0.0195000004
0.0450785684 -0.0384664074 -0.0195000004
0.0389326210 -0.0342014079 -0.0195000004
0.0349204985 -0.0421396178 -0.0195000004
0.0365537960 -0.0441069679 -0.0195000004
-0.0026026336 -0.0366965611 -0.0195000004
0.0021213577 -0.0371416123 -0.0195000004
0.0013207101 -0.0559106697 -0.0195000004
-0.0011970105 -0.0512322945 -0.0195000004
-0.0048357004 -0.0434435247 -0.0195000004
-0.0041253772 -0.0438902615 -0.0195000004
0.0229658293 -0.0519054897 -0.0195000004
0.0258541118 -0.0534483708 -0.0195000004
0.0183978635 -0.0549147756 -0.0195000004
0.0186865046 -0.0549219165 -0.0195000004
0.0134525742 -0.0498721203 -0.0195000004
0.0147915177 -0.0457703261 -0.0195000004
0.0134010254 -0.0508033463 -0.0195000004
0.0103973946 -0.0462634210 -0.0195000004
0.0090806237 -0.0510945472 -0.0195000004
0.0044061002 -0.0494861363 -0.0195000004
0.0033223706 -0.0573375628 -0.0195000004
0.0378643621 -0.0152685870 -0.0195000004
0.0490528583 -0.0224160236 -0.0195000004
0.0395646971 -0.0210592353 -0.0195000004
0.0516814701 -0.0289063049 -0.0195000004
0.0345814518 -0.0211355483 -0.0195000004
0.0431722306 -0.0294237616 -0.0195000004
0.0441166986 -0.0087739004 -0.0195000004
0.0423110715 -0.0086802532 -0.0195000004
0.0550145578 -0.0108463631 -0.0195000004
0.0555548778 -0.0133348237 -0.0195000004
0.0442545680 -0.0141739968 -0.0195000004
0.0508960632 -0.0212094361 -0.0195000004
0.0437022618 0.0118087808 -0.0195000004
0.0430774090 0.0148081952 -0.0195000004
0.0360365728 0.0118520505 -0.0195000004
0.0568982040 0.0163655402 -0.0195000004
0.0484652666 0.0135013416 -0.0195000004
0.0473000507 0.0079247386 -0.0195000004
0.0588782285 0.0083139353 -0.0195000004
0.0388985222 0.0010230398 -0.0195000004
0.0397622444 0.0045525832 -0.0195000004
0.0435096694 -0.0010173430 -0.0195000004
0.0546976079 -0.0000205614 -0.0195000004
0.0502077162 -0.0062136956 -0.0195000004
0.0491219625 -0.0055149011 -0.0195000004
0.0337375923 0.0192456406 -0.0195000004
0.0351968271 0.0181911528 -0.0195000004
0.0501411788 0.0253776219 -0.0195000004
0.0512036744 0.0260918501 -0.0195000004
0.0467472453 0.0208645912 -0.0195000004
0.0549175960 0.0240903657 -0.0195000004
0.0313071071 0.0487503789 -0.0195000004
0.0320687975 0.0485441678 -0.0195000004
0.0334841833 0.0457474146 -0.0195000004
0.0295614555 0.0392473549 -0.0195000004
0.0387826383 0.0449673681 -0.0195000004
0.0344242564 0.0408586906 -0.0195000004
0.0351652225 0.0373738878 -0.0195000004
0.0361952460 0.0377592320 -0.0195000004
0.0406661571 0.0417595678 -0.0195000004
0.0419076431 0.0426486879 -0.0195000004
0.0357598654 0.0281684943 -0.0195000004
0.0364816876 0.0268770119 -0.0195000004
