-0.0002313174 -0.0124896414 0.0025520900
-0.0000543872 -0.0124966793 0.0048414147
-0.0002393853 -0.0124905283 -0.0033388364
-0.0005210169 -0.0124795320 -0.0079716404
0.0002833845 -0.0124887685 0.0038619894
0.0004611563 -0.0124805216 0.0005307470
0.0005886497 -0.0124764041 0.0067507182
0.0004238052 -0.0124830461 0.0050238208
0.0006500281 -0.0124726739 0.0013709256
0.0003825967 -0.0124831299 -0.0029605205
0.0007338009 -0.0124690100 0.0008664693
0.0007639174 -0.0124675127 -0.0001776369
0.0020633515 -0.0122779377 -0.0059415257
0.0022026519 -0.0122557113 -0.0039728486
0.0013967094 -0.0123997445 0.0029607865
0.0017304795 -0.0123409916 0.0011532515
0.0011944429 -0.0124324229 0.0005831927
0.0012323367 -0.0124244358 -0.0011847448
0.0014432406 -0.0123896734 0.0004772493
0.0019157299 -0.0123018014 -0.0076603878
0.0027315856 -0.0121744205 0.0071868534
0.0017594507 -0.0123420708 0.0083297380
0.0027346308 -0.0121653958 -0.0029042663
0.0023399194 -0.0122405372 0.0059521076
0.0026870167 -0.0121756204 -0.0004588946
0.0015054577 -0.0123847321 0.0072739425
0.0031197127 -0.0121040935 0.0027045600
0.0047104242 -0.0115364486 -0.0050706069
0.0037595769 -0.0118734153 -0.0044859782
0.0039926532 -0.0117932417 -0.0032323689
0.0039270834 -0.0118195851 -0.0014028462
0.0040207146 -0.0117870393 -0.0010942840
0.0044006282 -0.0116406672 -0.0080875316
0.0033267724 -0.0120454126 0.0065032758
0.0047175885 -0.0115332130 -0.0054762992
0.0050263845 -0.0114347690 0.0006631168
0.0036524806 -0.0119299460 0.0062798094
0.0034674786 -0.0119968061 0.0071412434
0.0051170022 -0.0113976025 -0.0023028989
0.0045596672 -0.0116068639 0.0048073092
0.0050607967 -0.0114339094 0.0071709330
0.0041053674 -0.0117677767 0.0050379627
0.0050126059 -0.0114397208 0.0007112672
0.0067429213 -0.0104784134 -0.0078099894
0.0053145791 -0.0113075711 0.0035729575
0.0053332018 -0.0113061074 0.0068294647
0.0063760872 -0.0106904812 -0.0052074075
0.0055263439 -0.0111787134 -0.0002739885
0.0053553479 -0.0112635520 -0.0041662005
0.0053045010 -0.0112982758 -0.0018641029
0.0061104947 -0.0108411732 -0.0043605010
0.0061591614 -0.0108350025 0.0032952972
0.0067560411 -0.0104912601 -0.0004602290
0.0069139654 -0.0104115924 0.0026555458
0.0069128922 -0.0104140444 0.0033303972
0.0064297840 -0.0106973560 0.0082243457
0.0058147785 -0.0110378871 0.0071214084
0.0063608526 -0.0107268143 0.0049280227
0.0060868689 -0.0108735740 0.0026348562
0.0079130479 -0.0095862550 -0.0082424356
0.0076878826 -0.0097795563 -0.0053452382
0.0073139973 -0.0101038492 0.0003017077
0.0075918401 -0.0098588299 -0.0049103110
0.0077939858 -0.0097024182 -0.0031945897
0.0073359863 -0.0100822825 -0.0006590716
0.0082232697 -0.0093436582 -0.0062547663
0.0075460943 -0.0099291931 0.0035143168
0.0080005925 -0.0095638544 0.0039272158
0.0073433702 -0.0101121344 0.0083672604
0.0079390805 -0.0096017502 0.0009604933
0.0076330029 -0.0098557674 0.0026944978
0.0086163920 -0.0090351214 -0.0040158619
0.0082163789 -0.0093803160 0.0015819586
0.0075447983 -0.0099360891 0.0049886060
0.0094407598 -0.0081074147 -0.0031917297
0.0086614846 -0.0089675957 -0.0077118609
0.0087979645 -0.0088351286 -0.0036636387
0.0096865031 -0.0078094349 -0.0065525354
0.0087630735 -0.0088815654 -0.0024469275
0.0089265329 -0.0087394168 0.0053576092
0.0089993616 -0.0086159746 -0.0019308248
0.0087872590 -0.0088936166 0.0046332700
0.0088632347 -0.0088192237 0.0067702075
0.0099118689 -0.0076325058 0.0076206107
0.0098561601 -0.0076461410 -0.0012740252
0.0096323109 -0.0079108887 0.0005902190
0.0092549895 -0.0083501764 0.0024837738
0.0096373325 -0.0079409773 0.0070011443
0.0100201148 -0.0074780217 0.0019798322
0.0097588973 -0.0077950933 0.0056110616
0.0100721329 -0.0073686113 -0.0035706682
0.0109441258 -0.0059348868 -0.0057679027
0.0104386755 -0.0067990998 -0.0003398638
0.0107898830 -0.0061727041 -0.0073574551
0.0106146269 -0.0064502299 -0.0082476939
0.0101670676 -0.0072478378 0.0006154538
0.0103486621 -0.0069519770 0.0004981431
0.0108373660 -0.0062190025 0.0081066304
0.0109455879 -0.0059435742 -0.0043818115
0.0103454811 -0.0070040940 0.0063811635
0.0111331255 -0.0057383632 0.0080688867
0.0109351918 -0.0060140542 0.0023338455
0.0110994469 -0.0057639368 0.0044196915
0.0108419586 -0.0061839494 0.0046490293
0.0109391207 -0.0060262968 0.0046673988
0.0113929682 -0.0050128550 -0.0032043998
0.0112269477 -0.0053705397 -0.0077402805
0.0114968633 -0.0047972140 0.0003044438
0.0116092481 -0.0044193542 -0.0077243546
0.0113897031 -0.0050449689 -0.0012427461
0.0112044197 -0.0056229825 0.0083185666
0.0116052142 -0.0044915001 -0.0026455889
0.0114316351 -0.0048876578 -0.0055735580
0.0117405531 -0.0042597568 0.0059453451
0.0115770679 -0.0046852266 0.0074684632
0.0116439621 -0.0045257178 0.0080377523
0.0117296078 -0.0042763491 0.0050747865
0.0115042861 -0.0048563041 0.0066470389
0.0117859701 -0.0040460535 -0.0022876949
0.0115376109 -0.0047780672 0.0070308875
0.0118629895 -0.0039271682 0.0036640423
0.0119908608 -0.0034695297 -0.0005044463
0.0120972282 -0.0028546059 -0.0058281194
0.0120010143 -0.0032710359 -0.0071437896
0.0119824260 -0.0035552035 0.0015365660
0.0119342810 -0.0036066519 -0.0060045227
0.0119572548 -0.0034944180 -0.0062517334
0.0121108138 -0.0029361539 0.0005131248
0.0119396796 -0.0035794167 -0.0061003913
0.0121707419 -0.0027124257 0.0028961880
0.0122968826 -0.0019546490 -0.0046688780
0.0122649668 -0.0021153580 -0.0041153478
0.0124001895 -0.0017686384 0.0081960201
0.0123110074 -0.0019219318 -0.0032293943
0.0122883510 -0.0021767104 0.0033341665
0.0123609221 -0.0018210192 0.0025024181
0.0124204747 -0.0011371382 0.0004942622
0.0124035853 -0.0006101732 -0.0074982101
0.0124067138 -0.0007166049 -0.0059414818
0.0124077866 -0.0006995223 -0.0058708435
0.0123796747 -0.0012094069 -0.0071838188
0.0124440039 0.0002270836 -0.0065108506
0.0124280111 -0.0000526164 -0.0073474676
0.0124247621 -0.0000034742 -0.0084334513
0.0124422164 -0.0014529505 0.0076488064
0.0124674220 -0.0002305750 0.0022110669
0.0124621785 -0.0004316969 0.0028826638
0.0124710695 -0.0008519377 0.0083248491
0.0124747831 -0.0002378210 0.0037717088
0.0124827805 -0.0003460568 0.0063348465
0.0124637565 -0.0002291206 0.0014525782
0.0124603837 -0.0002488709 0.0009369494
0.0122371947 0.0022454890 -0.0065281280
0.0123363532 0.0016734385 -0.0012567517
0.0125035222 0.0006630111 0.0064308802
0.0123530407 0.0015551714 -0.0009428348
0.0123972094 0.0012436919 -0.0000714993
0.0123503872 0.0013486463 -0.0068647769
0.0122641559 0.0020435604 -0.0063037087
0.0124629175 0.0006555190 -0.0020274385
0.0123768123 0.0015948360 0.0049283577
0.0123149411 0.0019821430 0.0024306086
0.0123211141 0.0019545178 0.0029669202
0.0123431324 0.0019286624 0.0067738621
0.0123435406 0.0019150319 0.0065017339
0.0122836956 0.0020313711 -0.0026450110
0.0122577263 0.0022390322 -0.0025182098
0.0122579750 0.0024662529 0.0034536881
0.0122074638 0.0026933017 0.0012603239
0.0121983287 0.0028114867 0.0067668560
0.0120538192 0.0032105607 0.0022302044
0.0117536504 0.0040280074 -0.0079093729
0.0119983344 0.0033002890 -0.0034689369
0.0118976980 0.0035637272 -0.0075304991
0.0121376770 0.0028607524 -0.0025054493
0.0118206003 0.0040310781 0.0059063381
0.0117456138 0.0041456757 -0.0022114805
0.0120145107 0.0034023090 0.0061810468
0.0117638174 0.0041221124 0.0000244380
0.0119961145 0.0034107736 0.0029649480
0.0120250738 0.0033627597 0.0058658526
0.0120702212 0.0032492445 0.0079788699
0.0120774316 0.0032174265 0.0074632327
0.0114784587 0.0048264116 -0.0074778906
0.0112907850 0.0052456387 -0.0026551717
0.0110558730 0.0056935398 -0.0045033962
0.0115116398 0.0048885151 0.0056465496
0.0115589189 0.0046768982 -0.0064448745
0.0114704482 0.0049054791 -0.0009953758
0.0109350774 0.0059417720 -0.0036157233
0.0115083673 0.0047985191 -0.0042533528
0.0108786385 0.0061533783 0.0066105891
0.0112610308 0.0054123360 0.0083936687
0.0113399065 0.0052126484 0.0039561497
0.0108771028 0.0061676317 0.0077605424
0.0106717540 0.0064929891 -0.0006450440
0.0108076464 0.0062756469 0.0047089175
0.0110706539 0.0057096224 0.0001546620
0.0109704703 0.0059219923 0.0015572752
0.0098476108 0.0076047266 -0.0039461966
0.0099965426 0.0074030130 -0.0039984012
0.0105236542 0.0066848591 -0.0048202417
0.0106390084 0.0065827811 0.0032906322
0.0105732245 0.0066727666 0.0034472967
0.0100058174 0.0073696961 -0.0071254939
0.0100391018 0.0073472774 -0.0037263481
0.0105939028 0.0065946798 -0.0040974954
0.0097109465 0.0078521901 0.0054882924
0.0098863980 0.0075993925 0.0031441974
0.0093741685 0.0082427131 -0.0042686137
0.0098656603 0.0075967443 -0.0014745269
0.0099759150 0.0075030217 0.0068561855
0.0095262012 0.0080851527 0.0029557253
0.0098860404 0.0075880421 0.0013630748
0.0092536999 0.0083509763 -0.0067682555
0.0088741769 0.0087202219 -0.0055990149
0.0082289703 0.0093410588 -0.0050758608
0.0086439265 0.0089331112 -0.0072520730
0.0085468932 0.0090477284 -0.0026615695
0.0087652347 0.0088220405 -0.0061495653
0.0087956750 0.0087828472 -0.0082769097
0.0086595087 0.0089416825 -0.0022611234
0.0083958130 0.0092415334 0.0077443602
0.0086225547 0.0090024764 0.0031271431
0.0081398758 0.0094833164 0.0069990833
0.0088704501 0.0087688615 0.0039702610
0.0086733939 0.0089593279 0.0043111855
0.0079291961 0.0096435945 -0.0018423118
0.0084707144 0.0091689721 0.0075798144
0.0088982770 0.0087533560 0.0063407667
0.0076244069 0.0098873718 0.0022671168
0.0071664118 0.0101853443 -0.0012178437
0.0070303981 0.0102590736 -0.0066973963
0.0070019291 0.0102979442 -0.0007872027
0.0070754995 0.0102454574 -0.0016189636
0.0075683793 0.0099037404 -0.0042060774
0.0071565350 0.0101823619 -0.0041257695
0.0078195486 0.0097427091 -0.0015782740
0.0071888000 0.0101834610 0.0027711090
0.0063960591 0.0107243560 0.0043073557
0.0064991189 0.0106540306 0.0041056454
0.0067023721 0.0105196633 0.0050107858
0.0067677639 0.0104556906 -0.0009436907
0.0060972105 0.0108888450 -0.0069821357
0.0076501562 0.0098903846 0.0084142665
0.0071937163 0.0101829202 0.0036087606
0.0055789799 0.0111477882 0.0005803287
0.0055343677 0.0111481845 -0.0083199210
0.0060070883 0.0109346073 -0.0082733249
0.0047690939 0.0114958302 -0.0075436587
0.0051827031 0.0113245477 -0.0004851938
0.0059274348 0.0110016557 0.0057023657
0.0050173584 0.0113975138 -0.0012836583
0.0053412953 0.0112712330 0.0077862120
0.0050228734 0.0114142954 0.0073937929
0.0047256408 0.0115378287 0.0025213713
0.0049119034 0.0114558240 0.0035074313
0.0042514362 0.0117614817 0.0067089175
0.0045233534 0.0116312817 0.0034282464
0.0046622784 0.0115593614 -0.0006789231
0.0053893621 0.0112489432 0.0075329732
0.0036494721 0.0119135357 -0.0050653715
0.0041151558 0.0117948574 -0.0030529730
0.0035900214 0.0119301003 -0.0042173308
0.0039232536 0.0118441593 -0.0035726644
0.0029386975 0.0121017544 -0.0026037330
0.0040148647 0.0118337208 0.0069119645
0.0039669869 0.0118301143 -0.0056499652
0.0035656152 0.0119409955 -0.0006687713
0.0024165788 0.0122405820 -0.0003528094
0.0032065553 0.0120405470 0.0040680766
0.0021694081 0.0123126891 0.0057040330
0.0022170282 0.0122969316 0.0030793288
0.0028265209 0.0121406050 0.0049324160
0.0024882877 0.0122162142 -0.0048049280
0.0022018819 0.0122982539 0.0010304759
0.0021120561 0.0123178276 -0.0019510997
0.0012045458 0.0123946461 -0.0067745125
0.0010427120 0.0124083411 -0.0069632871
0.0003242856 0.0124692568 -0.0075147900
0.0016168700 0.0123618637 -0.0012485791
0.0011233721 0.0124026937 -0.0040516079
0.0013974262 0.0123802360 -0.0019775118
0.0016251752 0.0123627583 0.0025805571
0.0020608445 0.0123243396 -0.0006193309
0.0014090275 0.0123814631 0.0033171579
0.0009304176 0.0124213502 0.0012895029
0.0005636221 0.0124550838 0.0073030352
0.0005197028 0.0124571441 0.0032915680
0.0011064961 0.0124079235 0.0050183982
0.0013262360 0.0123888704 0.0041799175
0.0004412837 0.0124624044 -0.0000896417
-0.0018092530 0.0123492394 -0.0077170243
-0.0007337523 0.0124386777 -0.0026978094
-0.0002841105 0.0124771621 -0.0032109889
-0.0002745532 0.0124777651 -0.0027078686
-0.0009632439 0.0124204730 -0.0058722315
-0.0000092363 0.0124996847 -0.0011251113
-0.0010825056 0.0124098043 -0.0046332510
-0.0001118993 0.0124874332 0.0072759749
-0.0017275527 0.0123535019 -0.0012823645
-0.0009066018 0.0124195175 0.0079391779
-0.0011607156 0.0124000121 0.0028639035
-0.0016463019 0.0123569411 0.0070291359
-0.0013516163 0.0123817399 0.0077041214
-0.0016202446 0.0123616490 0.0010751804
-0.0016261965 0.0123615673 0.0000593291
-0.0016940860 0.0123542592 0.0037173092
-0.0028955272 0.0121251499 -0.0068961333
-0.0024784526 0.0122182473 0.0052173524
-0.0034144692 0.0119848701 -0.0028636463
-0.0025877702 0.0122033985 -0.0054236286
-0.0036080158 0.0119362489 -0.0042500390
-0.0022870156 0.0122712060 0.0027843678
-0.0025444168 0.0122030864 0.0036427743
-0.0021244902 0.0123094006 0.0060069068
-0.0031236507 0.0120474646 0.0073965898
-0.0029598093 0.0120939158 0.0044338308
-0.0032604280 0.0120155854 0.0044779090
-0.0040609726 0.0118032170 0.0075458393
-0.0025485886 0.0121977819 0.0069396514
-0.0040255379 0.0118156970 0.0050029136
-0.0030233860 0.0120744912 0.0066774814
-0.0029665058 0.0120879083 0.0077663199
-0.0041467986 0.0117785212 0.0069138700
-0.0047695441 0.0115231640 -0.0048536105
-0.0047396776 0.0115186852 0.0032406532
-0.0046974740 0.0115617839 -0.0075739646
-0.0048174583 0.0114977671 -0.0031704637
-0.0055143775 0.0111836847 -0.0035942015
-0.0041730590 0.0117750206 0.0031457878
-0.0054975323 0.0111786024 0.0021218568
-0.0050976172 0.0113623876 0.0007648199
-0.0048065114 0.0114786434 0.0076667416
-0.0053764413 0.0112338796 0.0018781487
-0.0044165497 0.0116565157 0.0069461663
-0.0057192913 0.0110756392 0.0033477208
-0.0059956083 0.0109510760 0.0031953404
-0.0052547533 0.0112888183 0.0019083554
-0.0073745862 0.0100718795 -0.0069824889
-0.0067635812 0.0104632485 -0.0004808261
-0.0066430287 0.0105571022 -0.0042069460
-0.0062242930 0.0108389483 -0.0038556866
-0.0061649730 0.0108839706 -0.0053399138
-0.0072630205 0.0101489885 -0.0074957462
-0.0061352143 0.0109113228 -0.0075195494
-0.0077648268 0.0098112384 -0.0079196506
-0.0076224156 0.0098532315 0.0084173162
-0.0071088080 0.0102050784 0.0069983795
-0.0076168737 0.0098704305 0.0043666423
-0.0074983786 0.0099677917 -0.0008342618
-0.0073862968 0.0100424452 -0.0005031466
-0.0062256824 0.0108020031 0.0069854726
-0.0067369964 0.0104617071 0.0053932975
-0.0069080514 0.0103524626 0.0034762048
-0.0081579039 0.0094116484 0.0045494027
-0.0091814583 0.0084871627 -0.0074471930
-0.0084879756 0.0091226475 -0.0012564264
-0.0081672019 0.0094362566 -0.0025678521
-0.0080043868 0.0095612344 0.0040284251
-0.0080159289 0.0095788193 -0.0020542352
-0.0079469346 0.0096424341 -0.0015212806
-0.0088425682 0.0088113746 -0.0073232253
-0.0084858338 0.0090814333 0.0079305197
-0.0090108691 0.0086085105 0.0015018532
-0.0090875872 0.0085496823 -0.0016192436
-0.0090009828 0.0086364142 -0.0024110931
-0.0085144675 0.0090685329 0.0048426706
-0.0082926749 0.0092673878 0.0077544728
-0.0088138306 0.0088028091 0.0003436231
-0.0101258397 0.0072843768 -0.0044575969
-0.0099763543 0.0074882184 -0.0047174468
-0.0097328497 0.0077759025 0.0015365117
-0.0101823838 0.0072331336 -0.0082517226
-0.0099692843 0.0074743594 -0.0011927670
-0.0098967133 0.0076110539 -0.0069984528
-0.0101566040 0.0072291744 -0.0024096270
-0.0094477620 0.0082107736 -0.0059004856
-0.0102137103 0.0071459392 -0.0015030432
-0.0106237250 0.0065722238 0.0014087114
-0.0103955673 0.0068908466 -0.0001170268
-0.0104009114 0.0068655457 0.0026034709
-0.0104584827 0.0067581175 0.0070567319
-0.0101486959 0.0071745667 0.0074186961
-0.0096698445 0.0078235707 0.0071835457
-0.0099660527 0.0074390404 0.0047807297
-0.0113022042 0.0053111590 -0.0063913485
-0.0110646577 0.0057773643 -0.0058849974
-0.0107254411 0.0063824215 0.0010645534
-0.0109691387 0.0059473304 -0.0038860138
-0.0109682224 0.0059915073 -0.0082322698
-0.0108206605 0.0061671411 0.0037759483
-0.0114219851 0.0050915469 -0.0082337786
-0.0106610840 0.0065194385 0.0001027697
-0.0112176030 0.0053462019 0.0072294937
-0.0112688732 0.0053095546 0.0005561462
-0.0115437091 0.0047229711 0.0048126307
-0.0114134200 0.0050740602 -0.0046965553
-0.0115497320 0.0047266911 0.0032052904
-0.0110930320 0.0056569125 0.0006996362
-0.0106852283 0.0063902372 0.0084459535
-0.0114173894 0.0049776963 0.0043829670
-0.0118786991 0.0038198697 -0.0045665762
-0.0118645889 0.0038394614 -0.0029161491
-0.0118115644 0.0040491010 -0.0051908283
-0.0118568575 0.0039035756 -0.0053385497
-0.0116232889 0.0045228393 0.0035989030
-0.0116375604 0.0044744905 0.0037078568
-0.0118004663 0.0040780085 -0.0047339340
-0.0121086799 0.0029331342 0.0038955228
-0.0118192897 0.0038895880 0.0031782566
-0.0117298937 0.0041461149 0.0053830772
-0.0119680772 0.0034642081 -0.0005894394
-0.0120569986 0.0030875176 0.0047911834
-0.0118246577 0.0038568900 0.0041236941
-0.0121101186 0.0029319182 0.0036785306
-0.0121649655 0.0027868090 0.0015607043
-0.0121934091 0.0026141450 0.0058316888
-0.0122405660 0.0023257743 0.0037500328
-0.0122576681 0.0025745140 -0.0062123062
-0.0123840786 0.0014613189 -0.0029275544
-0.0123660408 0.0016947484 -0.0053399140
-0.0124268744 0.0011868421 -0.0044837813
-0.0123270162 0.0019607869 -0.0043312393
-0.0123282149 0.0020036693 -0.0056926661
-0.0124536675 0.0005591936 0.0064200211
-0.0122945537 0.0018011440 0.0064351290
-0.0122290019 0.0022453179 0.0081999831
-0.0124626622 0.0007005213 0.0009066557
-0.0122850523 0.0018820230 0.0062610047
-0.0123243543 0.0016046713 0.0054906730
-0.0124640088 0.0008818929 -0.0040938201
-0.0123874099 0.0011811491 0.0036956095
-0.0124797794 0.0003160830 -0.0000000905
-0.0124588660 -0.0007564722 -0.0050160370
-0.0124586536 -0.0003693396 -0.0016261919
-0.0124550107 -0.0007838001 -0.0044677214
-0.0124521834 -0.0002315569 0.0008815629
-0.0124760830 0.0002044158 -0.0002131981
-0.0125253432 0.0004341170 -0.0082519916
-0.0124627911 0.0000498936 0.0011559331
-0.0124304661 -0.0007683539 0.0006606446
-0.0123952320 -0.0012220663 0.0039086391
-0.0123684403 -0.0015489656 0.0065348241
-0.0124101077 -0.0015850056 -0.0022560554
-0.0124396681 0.0000799997 0.0061217260
-0.0124321361 -0.0009626770 -0.0013590597
-0.0124339076 -0.0000873284 0.0058475117
-0.0121083102 -0.0031152499 -0.0078582795
-0.0121819393 -0.0026155987 -0.0009280094
-0.0122537762 -0.0023896093 -0.0056353558
-0.0122675700 -0.0022013285 -0.0001847214
-0.0122475525 -0.0022659395 0.0010551055
-0.0121526629 -0.0029103045 -0.0078955342
-0.0123654086 -0.0018779981 -0.0059142282
-0.0122369358 -0.0024793666 -0.0061449328
-0.0122399523 -0.0022003838 0.0054769291
-0.0120054443 -0.0033578510 0.0024349264
-0.0121101206 -0.0027349240 0.0084537406
-0.0120219064 -0.0031579970 0.0078501134
-0.0120498600 -0.0031383734 0.0030222116
-0.0122727284 -0.0020565546 0.0051150592
-0.0120242871 -0.0032123232 0.0049829949
-0.0121376734 -0.0026115609 0.0082572138
-0.0118201065 -0.0040634087 -0.0060781719
-0.0117616286 -0.0041968400 -0.0050891506
-0.0115872674 -0.0046411882 -0.0059428550
-0.0118099245 -0.0040905995 -0.0062296360
-0.0112328999 -0.0055464894 -0.0078593225
-0.0117795945 -0.0040695695 0.0016622565
-0.0117323916 -0.0042958931 -0.0072394172
-0.0116666531 -0.0043687151 0.0001834320
-0.0111695926 -0.0056053070 0.0002139740
-0.0114467881 -0.0048926619 0.0020806460
-0.0112274436 -0.0054138057 0.0041011728
-0.0114649521 -0.0047712521 0.0083124800
-0.0111873417 -0.0055178433 0.0037543158
-0.0114293131 -0.0049663708 -0.0003906794
-0.0112823188 -0.0052644959 0.0051437512
-0.0113285222 -0.0051892886 0.0018913694
-0.0108486717 -0.0061142945 0.0027126221
-0.0105125607 -0.0067086924 -0.0033676917
-0.0107564393 -0.0062672939 0.0023108822
-0.0111218507 -0.0057190922 -0.0033599640
-0.0106328756 -0.0064899667 -0.0004451377
-0.0105447334 -0.0066397259 -0.0012732281
-0.0109034347 -0.0060691553 -0.0027756689
-0.0101713663 -0.0072319590 0.0004993727
-0.0108180293 -0.0061238312 0.0077533931
-0.0101673950 -0.0072326624 0.0012194092
-0.0110173835 -0.0058052021 0.0071094659
-0.0102105503 -0.0071509079 0.0026812539
-0.0102342796 -0.0071380741 -0.0005395750
-0.0102752602 -0.0070598042 0.0009282048
-0.0104360440 -0.0067888926 0.0021543080
-0.0100077342 -0.0074502953 0.0055055496
-0.0091872245 -0.0084530675 -0.0071218883
-0.0099687496 -0.0075231585 0.0003887831
-0.0098893553 -0.0075869588 0.0051186043
-0.0091076787 -0.0085287575 -0.0044907325
-0.0095960846 -0.0079920870 -0.0077611748
-0.0093511011 -0.0082709671 -0.0078557482
-0.0098817828 -0.0076483296 -0.0043321989
-0.0095527803 -0.0079746489 0.0041745495
-0.0095371335 -0.0079940052 0.0038918758
-0.0089870306 -0.0086022485 0.0068987187
-0.0088312444 -0.0088519621 -0.0061237917
-0.0089039165 -0.0087631171 -0.0050000207
-0.0086267642 -0.0090228795 0.0048760197
-0.0093547912 -0.0081984783 0.0043764662
-0.0088113470 -0.0088057951 0.0061942290
-0.0085416253 -0.0091098007 0.0004093410
-0.0076203387 -0.0098865139 -0.0078663421
-0.0083267332 -0.0093141892 -0.0073728877
-0.0084300246 -0.0091918427 0.0024428216
-0.0085890290 -0.0090731637 -0.0000035697
-0.0083417630 -0.0092930617 -0.0051065785
-0.0083443205 -0.0092821060 -0.0028658219
-0.0079747703 -0.0095999805 -0.0077772957
-0.0071350016 -0.0102738004 -0.0067092451
-0.0074333963 -0.0099993960 0.0017264669
-0.0076987555 -0.0097850666 0.0017439927
-0.0077898946 -0.0097124081 0.0015095570
-0.0074879910 -0.0099592958 0.0007230392
-0.0077037706 -0.0097902765 -0.0005896380
-0.0084140010 -0.0091812849 0.0083646065
-0.0062054965 -0.0108066739 -0.0024046253
-0.0067642413 -0.0104959069 -0.0029010997
-0.0068194874 -0.0104786470 -0.0078561643
-0.0068979967 -0.0104221754 -0.0032609488
-0.0063903758 -0.0106957202 0.0003913335
-0.0062797710 -0.0107690219 -0.0038034173
-0.0069314158 -0.0104137009 -0.0069746353
-0.0058907322 -0.0109968866 -0.0076419502
-0.0055409221 -0.0111841453 -0.0046713429
-0.0052695809 -0.0113427695 -0.0072380054
-0.0061645128 -0.0108016427 0.0077683702
-0.0063168376 -0.0107244573 0.0048878437
-0.0053760352 -0.0112578076 0.0020490017
-0.0054335361 -0.0112400976 -0.0032009308
-0.0057966155 -0.0110200995 0.0030546699
-0.0060443483 -0.0108667276 0.0085123307
-0.0037280697 -0.0119017264 -0.0054084257
-0.0040003632 -0.0117998406 -0.0021371691
-0.0049905206 -0.0114462946 -0.0000030869
-0.0034556554 -0.0119999799 -0.0065629712
-0.0050779510 -0.0114079488 0.0042908162
-0.0045612395 -0.0115998070 -0.0010626127
-0.0035740171 -0.0119567474 -0.0057490557
-0.0048911203 -0.0114767408 0.0026888377
-0.0040836910 -0.0117548293 0.0068307364
-0.0043026465 -0.0116760034 0.0076744823
-0.0033571225 -0.0120116286 0.0067792799
-0.0031740580 -0.0120856883 0.0013768254
-0.0037826053 -0.0118685688 0.0025912959
-0.0032777917 -0.0120587444 -0.0042141426
-0.0039005884 -0.0118230806 0.0047815550
-0.0034820973 -0.0119880232 -0.0050572079
-0.0025055358 -0.0122141191 -0.0083010702
-0.0028544661 -0.0121466239 0.0007970188
-0.0018044194 -0.0123343869 -0.0083613044
-0.0029411782 -0.0121323472 0.0000951116
-0.0029230714 -0.0121322780 0.0038620242
-0.0026613774 -0.0121862310 -0.0069163504
-0.0021927659 -0.0122622781 -0.0018088345
-0.0014056287 -0.0123955739 0.0001740516
-0.0022644595 -0.0122419065 0.0077791914
-0.0015703795 -0.0123683762 -0.0010737336
-0.0021135083 -0.0122710180 0.0039472686
-0.0018305224 -0.0123241649 -0.0015414892
-0.0010958519 -0.0124446336 0.0049881352
-0.0016750620 -0.0123491472 0.0004450365
-0.0022474073 -0.0122493009 0.0024733373
-0.0009355831 -0.0124598389 0.0020063457
-0.0003471951 -0.0124841657 0.0052025945
-0.0009587600 -0.0124592963 -0.0001108375
-0.0007797452 -0.0124670034 -0.0006031729
-0.0002580786 -0.0029723583 -0.0084988351
-0.0001604375 -0.0014710219 -0.0084993149
-0.0001143887 -0.0124419314 -0.0084995412
0.0000777170 -0.0020572447 -0.0085004851
0.0002485080 -0.0062637847 -0.0085013244
-0.0000256236 -0.0103925612 -0.0084999773
0.0015424459 -0.0028642434 -0.0085076827
0.0050765913 -0.0092855035 -0.0085250493
0.0051066159 -0.0098641759 -0.0085251968
0.0025134073 -0.0045524260 -0.0085124540
0.0013783903 -0.0023162027 -0.0085068766
0.0031449525 -0.0058995555 -0.0085155573
0.0031327561 -0.0102184531 -0.0085154976
0.0018365658 -0.0063158151 -0.0085091281
0.0033730155 -0.0113559985 -0.0085166782
0.0031397509 -0.0110500487 -0.0085155320
0.0016975923 -0.0059586596 -0.0085084452
0.0020559826 -0.0103553371 -0.0085102063
0.0013898917 -0.0101342133 -0.0085069331
0.0027794290 -0.0108355214 -0.0085137615
0.0013609470 -0.0099256505 -0.0085067908
0.0011172404 -0.0094036325 -0.0085055933
0.0009129620 -0.0046237415 -0.0085045896
0.0071570062 -0.0049811144 -0.0085352723
0.0054040513 -0.0034416867 -0.0085266584
0.0079810138 -0.0047419980 -0.0085393214
0.0037656561 -0.0023628132 -0.0085186074
0.0071066600 -0.0047733321 -0.0085350249
0.0093131454 -0.0047583205 -0.0085458674
0.0009174262 -0.0007354743 -0.0085046114
0.0087771355 -0.0066641061 -0.0085432336
0.0082328343 -0.0083409010 -0.0085405594
0.0020209043 -0.0021167528 -0.0085100340
0.0071658908 -0.0053321248 -0.0085353160
0.0057611767 -0.0068953720 -0.0085284136
0.0081171272 -0.0093026806 -0.0085399907
0.0056335571 -0.0061147979 -0.0085277865
0.0079984009 -0.0084963571 -0.0085394074
0.0071507345 -0.0082508638 -0.0085352419
0.0027528216 -0.0037146575 -0.0085136305
0.0120270795 -0.0010987811 -0.0085592038
0.0080982864 -0.0002395362 -0.0085398980
0.0077169344 -0.0001353144 -0.0085380240
0.0069353074 -0.0002122231 -0.0085341831
0.0104313776 -0.0008741589 -0.0085513626
0.0102091032 -0.0004208346 -0.0085502704
0.0121269199 -0.0020726237 -0.0085596943
0.0058960236 -0.0008191126 -0.0085290761
0.0118259301 -0.0025070300 -0.0085582152
0.0119556320 -0.0031242500 -0.0085588525
0.0021869157 -0.0005989428 -0.0085108496
0.0114642389 -0.0029671543 -0.0085564379
0.0060623747 -0.0020350945 -0.0085298934
0.0048775483 -0.0024728838 -0.0085240712
0.0078526630 -0.0039745498 -0.0085386907
0.0090608650 -0.0044559308 -0.0085446277
0.0093889384 -0.0033251398 -0.0085462399
0.0052596790 0.0031291760 -0.0085259491
0.0044148132 0.0018813052 -0.0085217974
0.0099540222 0.0055810350 -0.0085490168
0.0079712647 0.0045362801 -0.0085392736
0.0089681740 0.0050026556 -0.0085441724
0.0093472431 0.0043573690 -0.0085460351
0.0055651598 0.0019634163 -0.0085274501
0.0112755065 0.0033301939 -0.0085555106
0.0041173389 0.0015057327 -0.0085203356
0.0114086769 0.0037790396 -0.0085561649
0.0069964889 0.0021948521 -0.0085344837
0.0073718618 0.0024955541 -0.0085363282
0.0074967499 0.0004911712 -0.0085369421
0.0101470432 0.0021638783 -0.0085499655
0.0121361680 0.0008824707 -0.0085597400
0.0117475197 0.0020416217 -0.0085578302
0.0103152772 0.0004807362 -0.0085507923
0.0045902497 0.0079006314 -0.0085226595
0.0049470301 0.0078852360 -0.0085244127
0.0043760649 0.0071444987 -0.0085216070
0.0072333936 0.0095845402 -0.0085356477
0.0036129388 0.0053969065 -0.0085178570
0.0057578635 0.0080057672 -0.0085283971
0.0037588150 0.0044643001 -0.0085185739
0.0078611437 0.0074640083 -0.0085387324
0.0063881590 0.0066354686 -0.0085314943
0.0047468261 0.0057773624 -0.0085234289
0.0090686784 0.0083816301 -0.0085446661
0.0038127897 0.0041262024 -0.0085188391
0.0081006971 0.0059100660 -0.0085399096
0.0048658796 0.0038622654 -0.0085240139
0.0084704082 0.0070858860 -0.0085417263
0.0028231151 0.0021089518 -0.0085139759
0.0045104535 0.0036989344 -0.0085222673
0.0072187922 0.0053727518 -0.0085355760
0.0009686970 0.0063517997 -0.0085048633
0.0008690120 0.0122724869 -0.0085043735
0.0003138036 0.0109470458 -0.0085016453
0.0004952520 0.0066430570 -0.0085025369
0.0004538784 0.0068100939 -0.0085023336
0.0000156076 0.0003296757 -0.0085001800
0.0029790529 0.0107445860 -0.0085147423
0.0024696097 0.0105346026 -0.0085122389
0.0023420360 0.0093563078 -0.0085116120
0.0019279857 0.0104481258 -0.0085095772
0.0012542418 0.0040740841 -0.0085062666
0.0019148429 0.0035524388 -0.0085095127
0.0043281372 0.0095631790 -0.0085213717
0.0054481913 0.0103848727 -0.0085268754
0.0049815190 0.0097654030 -0.0085245823
0.0046124367 0.0099792089 -0.0085227687
0.0042613969 0.0097078315 -0.0085210437
-0.0016343648 0.0038459301 -0.0084920720
-0.0007449738 0.0015511461 -0.0084964425
-0.0056786432 0.0103534203 -0.0084721987
-0.0036100279 0.0098309221 -0.0084823635
-0.0054005306 0.0100815970 -0.0084735653
-0.0020606822 0.0079261898 -0.0084899771
-0.0019161012 0.0083414317 -0.0084906876
-0.0022879127 0.0088887544 -0.0084888605
-0.0025677396 0.0098551056 -0.0084874854
-0.0006648517 0.0030458060 -0.0084968362
-0.0012803968 0.0065658166 -0.0084938115
-0.0004415232 0.0099834112 -0.0084979337
-0.0010383619 0.0069030117 -0.0084950009
-0.0011720852 0.0099929835 -0.0084943438
-0.0002505323 0.0081812737 -0.0084988722
-0.0001067030 0.0018624419 -0.0084995789
-0.0010445470 0.0119321639 -0.0084949705
-0.0087953048 0.0059585772 -0.0084568828
-0.0097546167 0.0068205144 -0.0084521687
-0.0066527690 0.0057672386 -0.0084674114
-0.0062982894 0.0041456009 -0.0084691533
-0.0038153498 0.0025525395 -0.0084813545
-0.0086718702 0.0075953309 -0.0084574894
-0.0030450325 0.0036471466 -0.0084851398
-0.0043234248 0.0038264981 -0.0084788578
-0.0086408489 0.0077602835 -0.0084576419
-0.0081029986 0.0091931880 -0.0084602847
-0.0059456116 0.0053126369 -0.0084708863
-0.0058216884 0.0087748161 -0.0084714955
-0.0026683533 0.0040737952 -0.0084869910
-0.0050618666 0.0087948182 -0.0084752295
-0.0047460392 0.0069922724 -0.0084767812
-0.0071141565 0.0095488685 -0.0084651440
-0.0032331281 0.0055575105 -0.0084842158
-0.0066038055 0.0005738360 -0.0084676524
-0.0108195619 0.0014215922 -0.0084469363
-0.0089381823 0.0009572409 -0.0084561813
-0.0082027286 0.0006155289 -0.0084597953
-0.0106060052 0.0007072889 -0.0084479857
-0.0093967247 0.0014961866 -0.0084539281
-0.0025514306 0.0007743406 -0.0084875656
-0.0029957997 0.0010996515 -0.0084853819
-0.0117874386 0.0030893111 -0.0084421801
-0.0038756292 0.0010235523 -0.0084810585
-0.0054579406 0.0011758211 -0.0084732831
-0.0102807462 0.0058103101 -0.0084495834
-0.0060861900 0.0032368192 -0.0084701956
-0.0107287299 0.0060562278 -0.0084473819
-0.0095775371 0.0050290446 -0.0084530390
-0.0067568688 0.0035079570 -0.0084668998
-0.0046272791 0.0018767294 -0.0084773647
-0.0105441387 -0.0040411059 -0.0084482892
-0.0092708230 -0.0041722886 -0.0084545463
-0.0105308431 -0.0044922996 -0.0084483546
-0.0076598427 -0.0028668630 -0.0084624627
-0.0071831826 -0.0025241651 -0.0084648050
-0.0074284261 -0.0032467590 -0.0084635999
-0.0086483000 -0.0011352904 -0.0084576053
-0.0061410823 -0.0011255329 -0.0084699258
-0.0123289850 -0.0017300765 -0.0084395183
-0.0062098457 -0.0010901243 -0.0084695879
-0.0076834670 -0.0012970333 -0.0084623465
-0.0044334616 -0.0005827007 -0.0084783171
-0.0048600321 -0.0000409615 -0.0084762211
-0.0073396132 -0.0007005133 -0.0084640363
-0.0078478151 0.0002937414 -0.0084615393
-0.0042430943 -0.0005141300 -0.0084792526
-0.0111703073 0.0001331449 -0.0084452126
-0.0023982342 -0.0033838207 -0.0084883182
-0.0042984068 -0.0050755077 -0.0084789808
-0.0085380150 -0.0091315917 -0.0084581474
-0.0066714858 -0.0086163913 -0.0084673193
-0.0074282336 -0.0087194271 -0.0084636008
-0.0028318396 -0.0031333630 -0.0084861876
-0.0077483314 -0.0077967093 -0.0084620279
-0.0062853200 -0.0062556406 -0.0084692172
-0.0052444900 -0.0039572439 -0.0084743317
-0.0085948574 -0.0068523568 -0.0084578679
-0.0080393939 -0.0072725972 -0.0084605976
-0.0029767345 -0.0022242726 -0.0084854755
-0.0091372143 -0.0050230690 -0.0084552028
-0.0097976846 -0.0052907468 -0.0084519573
-0.0068984812 -0.0035525313 -0.0084662040
-0.0070930785 -0.0048263409 -0.0084652477
-0.0077648021 -0.0044981214 -0.0084619469
-0.0020927014 -0.0115222611 -0.0084898198
-0.0014757553 -0.0082243652 -0.0084928515
-0.0027367953 -0.0113708151 -0.0084866546
-0.0024311528 -0.0106957906 -0.0084881566
-0.0019374318 -0.0087451260 -0.0084905827
-0.0017013877 -0.0070506031 -0.0084917426
-0.0023013329 -0.0055875726 -0.0084887943
-0.0044107305 -0.0115241174 -0.0084784286
-0.0013463751 -0.0043822472 -0.0084934871
-0.0025941500 -0.0072374492 -0.0084873554
-0.0006254314 -0.0016684714 -0.0084970299
-0.0028127330 -0.0081238819 -0.0084862813
-0.0038862584 -0.0057784215 -0.0084810059
-0.0054332954 -0.0086309501 -0.0084734036
-0.0042254155 -0.0079069941 -0.0084793392
-0.0034870267 -0.0067676050 -0.0084829677
-0.0050187939 -0.0077707992 -0.0084754405
-0.0013365178 -0.0021014324 -0.0084935355
0.0006098058 -0.0081077337 0.0084971068
0.0006001028 -0.0082795967 0.0084971545
-0.0000984201 -0.0071271945 0.0085005869
0.0000141300 -0.0016179256 0.0085000338
-0.0001144405 -0.0082231388 0.0085006656
-0.0038060487 -0.0073815952 0.0085188059
-0.0048508856 -0.0098714349 0.0085239401
-0.0042759780 -0.0074290270 0.0085211151
-0.0044021771 -0.0087492288 0.0085217352
-0.0058898880 -0.0106147848 0.0085290458
-0.0051484954 -0.0110055052 0.0085254026
-0.0028342047 -0.0069165447 0.0085140303
-0.0022167326 -0.0085590566 0.0085109963
-0.0025393084 -0.0076588273 0.0085125813
-0.0038293415 -0.0087887302 0.0085189203
-0.0030124804 -0.0101383631 0.0085149066
-0.0041173326 -0.0098457558 0.0085203355
-0.0015210775 -0.0082454696 0.0085075778
-0.0018258550 -0.0075283810 0.0085090756
-0.0027491194 -0.0107553919 0.0085136125
-0.0006425377 -0.0049886496 0.0085032606
-0.0006162257 -0.0059136045 0.0085031313
-0.0043857137 -0.0026850942 0.0085216544
-0.0070031367 -0.0038315137 0.0085345162
-0.0051225834 -0.0035945594 0.0085252753
-0.0103867331 -0.0055203995 0.0085511429
-0.0030164564 -0.0016545504 0.0085149259
-0.0103963565 -0.0063179815 0.0085511903
-0.0071317014 -0.0064029390 0.0085351482
-0.0055141157 -0.0057065851 0.0085271996
-0.0024891692 -0.0025974231 0.0085123350
-0.0016968905 -0.0015508050 0.0085084417
-0.0091021258 -0.0079426935 0.0085448308
-0.0028446134 -0.0029798915 0.0085140817
-0.0048663849 -0.0067944834 0.0085240164
-0.0065461507 -0.0078965898 0.0085322709
-0.0074565519 -0.0098122472 0.0085367445
-0.0074547054 -0.0078793517 0.0085367357
-0.0054919499 -0.0080261162 0.0085270904
-0.0040100457 -0.0046035683 0.0085198086
-0.0015567058 -0.0000387022 0.0085077529
-0.0072866847 -0.0001064434 0.0085359098
-0.0112321574 -0.0013518956 0.0085552976
-0.0056427409 -0.0000812961 0.0085278315
-0.0111111964 -0.0010135311 0.0085547032
-0.0112003812 -0.0026603803 0.0085551413
-0.0117850067 -0.0027641720 0.0085580141
-0.0107504665 -0.0032799664 0.0085529304
-0.0107657997 -0.0023126473 0.0085530058
-0.0092730252 -0.0021293800 0.0085456704
-0.0026772675 -0.0005306776 0.0085132592
-0.0076583442 -0.0025442733 0.0085377359
-0.0023865772 -0.0007458131 0.0085118307
-0.0069829822 -0.0024714052 0.0085344172
-0.0083210139 -0.0040823654 0.0085409921
-0.0022519892 -0.0008924908 0.0085111694
-0.0096697224 -0.0031261623 0.0085476197
-0.0079999486 0.0037271351 0.0085394145
-0.0089248195 0.0038881620 0.0085439593
-0.0105013451 0.0057132367 0.0085517063
-0.0066880963 0.0033795902 0.0085329682
-0.0080605298 0.0044675919 0.0085397123
-0.0099165706 0.0035197814 0.0085488327
-0.0011796234 0.0003000398 0.0085058999
-0.0108270223 0.0035776944 0.0085533067
-0.0116900487 0.0028909836 0.0085575477
-0.0067015544 0.0019424861 0.0085330344
-0.0073775675 0.0028122286 0.0085363562
-0.0079519518 0.0005518816 0.0085391789
-0.0089144882 0.0009793243 0.0085439088
-0.0073169254 0.0013580311 0.0085360584
-0.0092960985 0.0011122159 0.0085457840
-0.0119089511 0.0025558326 0.0085586234
-0.0117748689 0.0006505622 0.0085579646
-0.0067400406 0.0101123895 0.0085332235
-0.0064501790 0.0083047456 0.0085317991
-0.0049189388 0.0073880322 0.0085242747
-0.0051462925 0.0078710352 0.0085253919
-0.0047333301 0.0074005819 0.0085233626
-0.0054773950 0.0095254468 0.0085270189
-0.0036130477 0.0032426470 0.0085178575
-0.0062775619 0.0078050398 0.0085309508
-0.0015919879 0.0018441117 0.0085079262
-0.0069451568 0.0083820733 0.0085342314
-0.0070346969 0.0072549551 0.0085346713
-0.0063055407 0.0052566734 0.0085310883
-0.0017723704 0.0013358457 0.0085088126
-0.0067029299 0.0059060730 0.0085330410
-0.0078451500 0.0061262447 0.0085386538
-0.0068695414 0.0051864891 0.0085338598
-0.0083283864 0.0061768536 0.0085410285
-0.0009907851 0.0109179562 0.0085049719
-0.0002408053 0.0119872241 0.0085012866
-0.0011940195 0.0098503596 0.0085059705
-0.0000668445 0.0028355734 0.0085004317
-0.0002002366 0.0075798326 0.0085010872
-0.0009856545 0.0083665707 0.0085049467
-0.0022158820 0.0102287320 0.0085109920
-0.0015636835 0.0066239959 0.0085077872
-0.0020708817 0.0078274517 0.0085102796
-0.0023530215 0.0073454159 0.0085116661
-0.0031306360 0.0094132065 0.0085154873
-0.0036297135 0.0066125261 0.0085179395
-0.0047220272 0.0093743551 0.0085233071
-0.0044157549 0.0083772971 0.0085218021
-0.0017327520 0.0034750199 0.0085086179
-0.0046329138 0.0089243592 0.0085228692
-0.0047049542 0.0106705713 0.0085232234
0.0009173937 0.0023579605 0.0084955952
0.0042868653 0.0115853131 0.0084790375
0.0032251437 0.0088412848 0.0084842548
0.0030947341 0.0073337541 0.0084848957
0.0027343486 0.0062395371 0.0084866667
0.0024241317 0.0059706609 0.0084881911
0.0022492576 0.0090558843 0.0084890505
0.0013325220 0.0056787866 0.0084935553
0.0022865785 0.0121762655 0.0084888672
0.0010879913 0.0059661891 0.0084947570
0.0020288456 0.0112090051 0.0084901337
0.0032095738 0.0118815796 0.0084843314
0.0012687541 0.0097909214 0.0084938687
0.0005740122 0.0056643333 0.0084972826
0.0001976418 0.0062444962 0.0084991321
0.0004048574 0.0029915093 0.0084981138
0.0008443819 0.0052002809 0.0084959541
0.0040587282 0.0027305680 0.0084801585
0.0082103622 0.0062327801 0.0084597573
0.0013836996 0.0010100516 0.0084933037
0.0053972531 0.0039007341 0.0084735810
0.0095786806 0.0062773626 0.0084530333
0.0069382275 0.0050121695 0.0084660086
0.0075443221 0.0087019270 0.0084630301
0.0009460851 0.0008391433 0.0084954542
0.0053230648 0.0055330863 0.0084739455
0.0071800481 0.0065991439 0.0084648203
0.0067338410 0.0079816051 0.0084670128
0.0040890911 0.0042807568 0.0084800093
0.0067284997 0.0104363531 0.0084670394
0.0020249432 0.0032502902 0.0084901527
0.0054977628 0.0070256382 0.0084730870
0.0047257820 0.0076239152 0.0084768809
0.0025152389 0.0034733926 0.0084877433
0.0119216758 0.0010196470 0.0084415205
0.0118355169 0.0008759014 0.0084419439
0.0058311857 0.0005431695 0.0084714490
0.0063596917 0.0009908740 0.0084688520
0.0066349592 0.0014064241 0.0084674993
0.0083376298 0.0016941977 0.0084591324
0.0078605778 0.0022457518 0.0084614765
0.0090346498 0.0034941798 0.0084557069
0.0102950193 0.0037888834 0.0084495135
0.0103910203 0.0040612596 0.0084490417
0.0040004519 0.0014479441 0.0084804450
0.0100439764 0.0022136739 0.0084507475
0.0071747494 0.0033241784 0.0084648464
0.0036726195 0.0016856258 0.0084820559
0.0039288956 0.0015649413 0.0084807966
0.0108279399 0.0046707084 0.0084468946
0.0081058342 0.0033285544 0.0084602711
0.0098423900 0.0054892868 0.0084517375
0.0041834576 -0.0014773887 0.0084795457
0.0086551377 -0.0028097914 0.0084575718
0.0113529138 -0.0045197917 0.0084443149
0.0083773219 -0.0025844987 0.0084589370
0.0111911620 -0.0045702400 0.0084451098
0.0081143615 -0.0013009872 0.0084602291
0.0069955536 -0.0011549139 0.0084657269
0.0109239924 -0.0015124798 0.0084464224
0.0062310483 -0.0012404349 0.0084694837
0.0116654748 -0.0030595456 0.0084427789
0.0044928569 -0.0010545023 0.0084780253
0.0119362974 -0.0000000244 0.0084414485
0.0024555030 0.0000097241 0.0084880370
0.0084162144 -0.0001185045 0.0084587461
0.0105345144 -0.0003509593 0.0084483367
0.0104382590 -0.0002019714 0.0084488097
0.0102836740 -0.0011288876 0.0084495690
0.0047813403 -0.0053411915 0.0084766077
0.0065872870 -0.0085560721 0.0084677331
0.0017734114 -0.0024548236 0.0084913886
0.0043985167 -0.0062747874 0.0084784887
0.0049075728 -0.0056746623 0.0084759874
0.0054354145 -0.0053417372 0.0084733936
0.0031096758 -0.0030621869 0.0084848223
0.0047433092 -0.0036622256 0.0084767945
0.0045710992 -0.0041870385 0.0084776408
0.0090409044 -0.0079740567 0.0084556761
0.0075902562 -0.0059291644 0.0084628045
0.0040644769 -0.0024451745 0.0084801303
0.0033904298 -0.0020283945 0.0084834426
0.0082577869 -0.0049703938 0.0084595243
0.0066766804 -0.0035617104 0.0084672940
0.0061065019 -0.0033685912 0.0084700958
0.0073716018 -0.0040039534 0.0084638791
0.0006605888 -0.0033014946 0.0084968571
0.0008543715 -0.0045361611 0.0084959049
0.0008573349 -0.0041128713 0.0084958903
0.0020208787 -0.0107350950 0.0084901727
0.0023648626 -0.0090482122 0.0084884823
0.0028521752 -0.0108762967 0.0084860876
0.0032905470 -0.0108646207 0.0084839334
0.0030389792 -0.0109823324 0.0084851696
0.0037526125 -0.0109865211 0.0084816627
0.0043054781 -0.0111968347 0.0084789458
0.0031199027 -0.0084045720 0.0084847718
0.0039982527 -0.0082390746 0.0084804555
0.0045321707 -0.0091828792 0.0084778318
0.0048621032 -0.0103685406 0.0084762104
0.0053410616 -0.0109771627 0.0084738568
0.0021230582 -0.0044626528 0.0084896704
0.0024458396 -0.0041790315 0.0084880842
