0.0002438554 -0.0124896414 -0.0025509226
0.0000781769 -0.0124966793 -0.0048410889
0.0002229757 -0.0124905283 0.0033399723
0.0004818386 -0.0124795320 0.0079741042
-0.0002644035 -0.0124887685 -0.0038633352
-0.0004585427 -0.0124805216 -0.0005330065
-0.0005554700 -0.0124764041 -0.0067535290
-0.0003991134 -0.0124830461 -0.0050258425
-0.0006432836 -0.0124726739 -0.0013741030
-0.0003971398 -0.0124831299 0.0029586048
-0.0007295342 -0.0124690100 -0.0008700645
-0.0007647810 -0.0124675127 0.0001738811
-0.0020925228 -0.0122779377 0.0059313148
-0.0022221475 -0.0122557113 0.0039619769
-0.0013821434 -0.0123997445 -0.0029676139
-0.0017247916 -0.0123409916 -0.0011617409
-0.0011915626 -0.0124324229 -0.0005890549
-0.0012381435 -0.0124244358 0.0011786751
-0.0014408780 -0.0123896734 -0.0004843353
-0.0019533493 -0.0123018014 0.0076508815
-0.0026962369 -0.0121744205 -0.0072001894
-0.0017184977 -0.0123420708 -0.0083382829
-0.0027488691 -0.0121653958 0.0028907933
-0.0023106428 -0.0122405372 -0.0059635338
-0.0026892392 -0.0121756204 0.0004456852
-0.0014696959 -0.0123847321 -0.0072812521
-0.0031063850 -0.0121040935 -0.0027198574
-0.0047352841 -0.0115364486 0.0050473991
-0.0037815753 -0.0118734153 0.0044674497
-0.0040084887 -0.0117932417 0.0032127103
-0.0039339295 -0.0118195851 0.0013835319
-0.0040260433 -0.0117870393 0.0010745133
-0.0044403167 -0.0116406672 0.0080658096
-0.0032947755 -0.0120454126 -0.0065195447
-0.0047444419 -0.0115332130 0.0054530513
-0.0050230655 -0.0114347690 -0.0006878082
-0.0036215780 -0.0119299460 -0.0062976816
-0.0034323451 -0.0119968061 -0.0071581961
-0.0051282570 -0.0113976025 0.0022777265
-0.0045359895 -0.0116068639 -0.0048296572
-0.0050254983 -0.0114339094 -0.0071957151
-0.0040805617 -0.0117677767 -0.0050580754
-0.0050090505 -0.0114397208 -0.0007358903
-0.0067812179 -0.0104784134 0.0077767610
-0.0052969579 -0.0113075711 -0.0035990300
-0.0052995781 -0.0113061074 -0.0068555896
-0.0064015993 -0.0106904812 0.0051760131
-0.0055276238 -0.0111787134 0.0002468290
-0.0053757559 -0.0112635520 0.0041398344
-0.0053135973 -0.0112982758 0.0018380144
-0.0061318483 -0.0108411732 0.0043304219
-0.0061428944 -0.0108350025 -0.0033255233
-0.0067582213 -0.0104912601 0.0004270246
-0.0069008330 -0.0104115924 -0.0026894887
-0.0068964436 -0.0104140444 -0.0033643267
-0.0063892928 -0.0106973560 -0.0082558423
-0.0057797144 -0.0110378871 -0.0071498962
-0.0063365601 -0.0107268143 -0.0049592203
-0.0060738481 -0.0108735740 -0.0026647350
-0.0079534549 -0.0095862550 0.0082034518
-0.0077140558 -0.0097795563 0.0053073958
-0.0073124265 -0.0101038492 -0.0003376447
-0.0076158773 -0.0098588299 0.0048729459
-0.0078095896 -0.0097024182 0.0031562518
-0.0073391364 -0.0100822825 0.0006230149
-0.0082539055 -0.0093436582 0.0062142819
-0.0075287341 -0.0099291931 -0.0035513557
-0.0079811976 -0.0095638544 -0.0039664829
-0.0073021655 -0.0101121344 -0.0084032445
-0.0079342646 -0.0096017502 -0.0009994941
-0.0076196701 -0.0098557674 -0.0027319737
-0.0086360211 -0.0090351214 0.0039734729
-0.0082085057 -0.0093803160 -0.0016223144
-0.0075201936 -0.0099360891 -0.0050256207
-0.0094563296 -0.0081074147 0.0031453001
-0.0086992750 -0.0089675957 0.0076692057
-0.0088158607 -0.0088351286 0.0036203618
-0.0097185849 -0.0078094349 0.0065048577
-0.0087749912 -0.0088815654 0.0024038368
-0.0089000977 -0.0087394168 -0.0054014087
-0.0090087405 -0.0086159746 0.0018865793
-0.0087643848 -0.0088936166 -0.0046763940
-0.0088298588 -0.0088192237 -0.0068136789
-0.0098743021 -0.0076325058 -0.0076692251
-0.0098623016 -0.0076461410 0.0012255775
-0.0096292943 -0.0079108887 -0.0006375442
-0.0092426724 -0.0083501764 -0.0025292221
-0.0096028130 -0.0079409773 -0.0070484170
-0.0100102652 -0.0074780217 -0.0020290465
-0.0097312071 -0.0077950933 -0.0056589485
-0.0100895575 -0.0073686113 0.0035211315
-0.0109723366 -0.0059348868 0.0057140548
-0.0104402196 -0.0067990998 0.0002885649
-0.0108259067 -0.0061727041 0.0073043459
-0.0106550273 -0.0064502299 0.0081954352
-0.0101639207 -0.0072478378 -0.0006654065
-0.0103460894 -0.0069519770 -0.0005489896
-0.0107973996 -0.0062190025 -0.0081597867
-0.0109669876 -0.0059435742 0.0043279731
-0.0103139997 -0.0070040940 -0.0064319236
-0.0110933409 -0.0057383632 -0.0081234968
-0.0109235913 -0.0060140542 -0.0023875520
-0.0110775947 -0.0057639368 -0.0044741800
-0.0108189827 -0.0061839494 -0.0047022498
-0.0109160532 -0.0060262968 -0.0047210965
-0.0114085769 -0.0050128550 0.0031483772
-0.0112648473 -0.0053705397 0.0076850190
-0.0114952286 -0.0047972140 -0.0003609347
-0.0116470652 -0.0044193542 0.0076672147
-0.0113956724 -0.0050449689 0.0011867632
-0.0111634074 -0.0056229825 -0.0083735240
-0.0116180746 -0.0044915001 0.0025885300
-0.0114588852 -0.0048876578 0.0055173168
-0.0117111967 -0.0042597568 -0.0060029656
-0.0115402288 -0.0046852266 -0.0075252620
-0.0116043247 -0.0045257178 -0.0080948729
-0.0117045294 -0.0042763491 -0.0051323637
-0.0114714842 -0.0048563041 -0.0067034899
-0.0117970698 -0.0040460535 0.0022297521
-0.0115029224 -0.0047780672 -0.0070874976
-0.0118448418 -0.0039271682 -0.0037222919
-0.0119931953 -0.0034695297 0.0004455181
-0.0121257213 -0.0028546059 0.0057686044
-0.0120359739 -0.0032710359 0.0070847316
-0.0119747312 -0.0035552035 -0.0015954281
-0.0119636432 -0.0036066519 0.0059458063
-0.0119878314 -0.0034944180 0.0061929012
-0.0121081464 -0.0029361539 -0.0005726302
-0.0119695128 -0.0035794167 0.0060416473
-0.0121563635 -0.0027124257 -0.0029559593
-0.0123196766 -0.0019546490 0.0046083958
-0.0122850412 -0.0021153580 0.0040550291
-0.0123597649 -0.0017686384 -0.0082568551
-0.0123267277 -0.0019219318 0.0031688600
-0.0122718188 -0.0021767104 -0.0033945104
-0.0123484760 -0.0018210192 -0.0025631287
-0.0124178958 -0.0011371382 -0.0005552896
-0.0124402810 -0.0006101732 0.0074371694
-0.0124357598 -0.0007166049 0.0058804444
-0.0124364855 -0.0006995223 0.0058098017
-0.0124148258 -0.0012094069 0.0071228994
-0.0124758472 0.0002270836 0.0064496230
-0.0124639657 -0.0000526164 0.0072863086
-0.0124660532 -0.0000034742 0.0083722952
-0.0124044802 -0.0014529505 -0.0077098545
-0.0124564061 -0.0002305750 -0.0022723042
-0.0124478625 -0.0004316969 -0.0029438673
-0.0124300109 -0.0008519377 -0.0083860306
-0.0124560983 -0.0002378210 -0.0038329635
-0.0124515005 -0.0003460568 -0.0063961094
-0.0124564679 -0.0002291206 -0.0015138067
-0.0124556289 -0.0002488709 -0.0009981675
-0.0122691258 0.0022454890 0.0064679166
-0.0123423797 0.0016734385 0.0011961168
-0.0124717700 0.0006630111 -0.0064922436
-0.0123575244 0.0015551714 0.0008821217
-0.0123974109 0.0012436919 0.0000105797
-0.0123839710 0.0013486463 0.0068040052
-0.0122949837 0.0020435604 0.0062433675
-0.0124727294 0.0006555190 0.0019661723
-0.0123524451 0.0015948360 -0.0049891166
-0.0123028485 0.0019821430 -0.0024910937
-0.0123063861 0.0019545178 -0.0030274291
-0.0123096970 0.0019286624 -0.0068344332
-0.0123114425 0.0019150319 -0.0065623103
-0.0122965446 0.0020313711 0.0025846180
-0.0122699526 0.0022390322 0.0024579460
-0.0122408558 0.0024662529 -0.0035138808
-0.0122011233 0.0026933017 -0.0013202950
-0.0121649296 0.0028114867 -0.0068267155
-0.0120427147 0.0032105607 -0.0022894087
-0.0117923747 0.0040280074 0.0078515212
-0.0120152357 0.0033002890 0.0034099364
-0.0119345588 0.0035637272 0.0074719441
-0.0121498422 0.0028607524 0.0024457756
-0.0117914343 0.0040310781 -0.0059643522
-0.0117563392 0.0041456757 0.0021537371
-0.0119839925 0.0034023090 -0.0062400103
-0.0117635554 0.0041221124 -0.0000822439
-0.0119814002 0.0034107736 -0.0030238599
-0.0119961043 0.0033627597 -0.0059248718
-0.0120308679 0.0032492445 -0.0080380855
-0.0120406121 0.0032174265 -0.0075224899
-0.0115150661 0.0048264116 0.0074213964
-0.0113036962 0.0052456387 0.0025996577
-0.0110778693 0.0056935398 0.0044490143
-0.0114837542 0.0048885151 -0.0057030489
-0.0115904492 0.0046768982 0.0063879973
-0.0114752011 0.0049054791 0.0009389990
-0.0109527132 0.0059417720 0.0035619456
-0.0115291292 0.0047985191 0.0041967504
-0.0108460236 0.0061533783 -0.0066639664
-0.0112196492 0.0054123360 -0.0084489035
-0.0113203296 0.0052126484 -0.0040118255
-0.0108388371 0.0061676317 -0.0078138983
-0.0106747954 0.0064929891 0.0005925959
-0.0107843770 0.0062756469 -0.0047619689
-0.0110697606 0.0057096224 -0.0002090605
-0.0109626859 0.0059219923 -0.0016111646
-0.0098668833 0.0076047266 0.0038977586
-0.0100160699 0.0074030130 0.0039492308
-0.0105472139 0.0066848591 0.0047684712
-0.0106227105 0.0065827811 -0.0033428719
-0.0105561575 0.0066727666 -0.0034992113
-0.0100407110 0.0073696961 0.0070762403
-0.0100572918 0.0073472774 0.0036769718
-0.0106139102 0.0065946798 0.0040453884
-0.0096838602 0.0078521901 -0.0055359452
-0.0098708284 0.0075993925 -0.0031927406
-0.0093950308 0.0082427131 0.0042224984
-0.0098727870 0.0075967443 0.0014260300
-0.0099421039 0.0075030217 -0.0069051239
-0.0095115619 0.0080851527 -0.0030025007
-0.0098792231 0.0075880421 -0.0014116376
-0.0092868468 0.0083509763 0.0067227021
-0.0089015828 0.0087202219 0.0055553404
-0.0082538132 0.0093410588 0.0050353630
-0.0086794581 0.0089331112 0.0072095100
-0.0085598686 0.0090477284 0.0026195387
-0.0087953472 0.0088220405 0.0061064195
-0.0088362408 0.0087828472 0.0082335887
-0.0086705150 0.0089416825 0.0022185439
-0.0083576561 0.0092415334 -0.0077855234
-0.0086070838 0.0090024764 -0.0031694761
-0.0081053842 0.0094833164 -0.0070389979
-0.0088508332 0.0087688615 -0.0040138020
-0.0086521041 0.0089593279 -0.0043537541
-0.0079381531 0.0096435945 0.0018033260
-0.0084333652 0.0091689721 -0.0076213476
-0.0088670113 0.0087533560 -0.0063844158
-0.0076131742 0.0098873718 -0.0023045554
-0.0071723095 0.0101853443 0.0011826136
-0.0070632236 0.0102590736 0.0066627686
-0.0070057126 0.0102979442 0.0007527861
-0.0070833694 0.0102454574 0.0015841755
-0.0075889560 0.0099037404 0.0041688362
-0.0071767222 0.0101823619 0.0040905530
-0.0078272095 0.0097427091 0.0015398302
-0.0071750961 0.0101834610 -0.0028064010
-0.0063748160 0.0107243560 -0.0043387333
-0.0064788657 0.0106540306 -0.0041375319
-0.0066776686 0.0105196633 -0.0050436602
-0.0067723193 0.0104556906 0.0009104229
-0.0061314467 0.0108888450 0.0069520902
-0.0076087166 0.0098903846 -0.0084517575
-0.0071758961 0.0101829202 -0.0036440666
-0.0055760611 0.0111477882 -0.0006077363
-0.0055751844 0.0111481845 0.0082926250
-0.0060476703 0.0109346073 0.0082437066
-0.0048061054 0.0114958302 0.0075201325
-0.0051850249 0.0113245477 0.0004597205
-0.0058993425 0.0110016557 -0.0057314235
-0.0050236058 0.0113975138 0.0012589878
-0.0053029703 0.0112712330 -0.0078123645
-0.0049864806 0.0114142954 -0.0074183855
-0.0047131942 0.0115378287 -0.0025445624
-0.0048946091 0.0114558240 -0.0035315256
-0.0042184181 0.0117614817 -0.0067297278
-0.0045064529 0.0116312817 -0.0034504325
-0.0046655585 0.0115593614 0.0006560047
-0.0053522809 0.0112489432 -0.0075593650
-0.0036743190 0.0119135357 0.0050473769
-0.0041301084 0.0117948574 0.0030327143
-0.0036107019 0.0119301003 0.0041996385
-0.0039407622 0.0118441593 0.0035533424
-0.0029514566 0.0121017544 0.0025892610
-0.0039808517 0.0118337208 -0.0069316098
-0.0039947026 0.0118301143 0.0056304032
-0.0035688586 0.0119409955 0.0006512419
-0.0024182833 0.0122405820 0.0003409304
-0.0031865266 0.0120405470 -0.0040837842
-0.0021413528 0.0123126891 -0.0057146241
-0.0022018699 0.0122969316 -0.0030901857
-0.0028022494 0.0121406050 -0.0049462456
-0.0025118687 0.0122162142 0.0047926428
-0.0021967916 0.0122982539 -0.0010412832
-0.0021216181 0.0123178276 0.0019406978
-0.0012378207 0.0123946461 0.0067685116
-0.0010769164 0.0124083411 0.0069580791
-0.0003612088 0.0124692568 0.0075131056
-0.0016229859 0.0123618637 0.0012406190
-0.0011432678 0.0124026937 0.0040460389
-0.0014071267 0.0123802360 0.0019706212
-0.0016124749 0.0123627583 -0.0025885117
-0.0020638629 0.0123243396 0.0006091968
-0.0013927103 0.0123814631 -0.0033240415
-0.0009240698 0.0124213502 -0.0012940592
-0.0005277288 0.0124550838 -0.0073057164
-0.0005035220 0.0124571441 -0.0032940819
-0.0010818227 0.0124079235 -0.0050237747
-0.0013056802 0.0123888704 -0.0041863839
-0.0004417189 0.0124624044 0.0000874723
0.0017713103 0.0123492394 0.0077258213
0.0007204867 0.0124386777 0.0027013823
0.0002683285 0.0124771621 0.0032123461
0.0002612436 0.0124777651 0.0027091850
0.0009343766 0.0124204730 0.0058768937
0.0000037075 0.0124996847 0.0011251431
0.0010597251 0.0124098043 0.0046385142
0.0001476516 0.0124874332 -0.0072753371
0.0017212304 0.0123535019 0.0012908379
0.0009456033 0.0124195175 -0.0079346270
0.0011747746 0.0124000121 -0.0028581653
0.0016808227 0.0123569411 -0.0070209612
0.0013894574 0.0123817399 -0.0076973866
0.0016255084 0.0123616490 -0.0010672058
0.0016264684 0.0123615673 -0.0000513375
0.0017123321 0.0123542592 -0.0037089398
0.0028616052 0.0121251499 0.0069102783
0.0025040603 0.0122182473 -0.0052051105
0.0034003561 0.0119848701 0.0028803902
0.0025610876 0.0122033985 0.0054362791
0.0035870878 0.0119362489 0.0042677173
0.0023006701 0.0122712060 -0.0027730961
0.0025622863 0.0122030864 -0.0036302273
0.0021539820 0.0123094006 -0.0059963947
0.0031599591 0.0120474646 -0.0073811510
0.0029815609 0.0120939158 -0.0044192329
0.0032823926 0.0120155854 -0.0044618333
0.0040980029 0.0118032170 -0.0075257925
0.0025826587 0.0121977819 -0.0069270440
0.0040500730 0.0118156970 -0.0049830717
0.0030561619 0.0120744912 -0.0066625440
0.0030046329 0.0120879083 -0.0077516488
0.0041807224 0.0117785212 -0.0068934091
0.0047456361 0.0115231640 0.0048769890
0.0047555444 0.0115186852 -0.0032173235
0.0046601993 0.0115617839 0.0075969561
0.0048018205 0.0114977671 0.0031940980
0.0054966491 0.0111836847 0.0036212552
0.0041884665 0.0117750206 -0.0031252434
0.0055078924 0.0111786024 -0.0020948168
0.0051013137 0.0113623876 -0.0007397613
0.0048441269 0.0114786434 -0.0076430299
0.0053856053 0.0112338796 -0.0018517066
0.0044506289 0.0116565157 -0.0069243796
0.0057356726 0.0110756392 -0.0033195763
0.0060112375 0.0109510760 -0.0031658400
0.0052640672 0.0112888183 -0.0018825109
0.0073401855 0.0100718795 0.0070186430
0.0067611366 0.0104632485 0.0005140561
0.0066222757 0.0105571022 0.0042395385
0.0062052712 0.0108389483 0.0038862255
0.0061386586 0.0108839706 0.0053701432
0.0072260991 0.0101489885 0.0075313458
0.0060981896 0.0109113228 0.0075496063
0.0077258162 0.0098112384 0.0079577111
0.0076636855 0.0098532315 -0.0083797588
0.0071431115 0.0102050784 -0.0069633629
0.0076382388 0.0098704305 -0.0043291609
0.0074941884 0.0099677917 0.0008710984
0.0073837350 0.0100424452 0.0005394365
0.0062599333 0.0108020031 -0.0069547957
0.0067634173 0.0104617071 -0.0053601273
0.0069250497 0.0103524626 -0.0034422171
0.0081801606 0.0094116484 -0.0045092605
0.0091447523 0.0084871627 0.0074922203
0.0084816989 0.0091226475 0.0012981206
0.0081544848 0.0094362566 0.0026079543
0.0080240853 0.0095612344 -0.0039890435
0.0080057375 0.0095788193 0.0020936003
0.0079393630 0.0096424341 0.0015603131
0.0088064755 0.0088113746 0.0073665889
0.0085247011 0.0090814333 -0.0078887254
0.0090181402 0.0086085105 -0.0014575563
0.0090795205 0.0085496823 0.0016638798
0.0089890260 0.0086364142 0.0024552943
0.0085381611 0.0090685329 -0.0048007728
0.0083306795 0.0092673878 -0.0077136298
0.0088154126 0.0088028091 -0.0003003084
0.0101038128 0.0072843768 0.0045073008
0.0099530523 0.0074882184 0.0047664131
0.0097402823 0.0077759025 -0.0014886667
0.0101417121 0.0072331336 0.0083016588
0.0099633024 0.0074743594 0.0012417409
0.0098622037 0.0076110539 0.0070470002
0.0101446403 0.0072291744 0.0024595069
0.0094186532 0.0082107736 0.0059468402
0.0102062008 0.0071459392 0.0015532146
0.0106305186 0.0065722238 -0.0013564902
0.0103948664 0.0068908466 0.0001681085
0.0104135788 0.0068655457 -0.0025523302
0.0104930323 0.0067581175 -0.0070052547
0.0101850280 0.0071745667 -0.0073687368
0.0097050270 0.0078235707 -0.0071359423
0.0099894242 0.0074390404 -0.0047316997
0.0112706610 0.0053111590 0.0064468097
0.0110356055 0.0057773643 0.0059392974
0.0107305423 0.0063824215 -0.0010118365
0.0109499104 0.0059473304 0.0039398686
0.0109276369 0.0059915073 0.0082860677
0.0108390843 0.0061671411 -0.0037227309
0.0113813870 0.0050915469 0.0082898062
0.0106614598 0.0065194385 -0.0000503806
0.0112529927 0.0053462019 -0.0071742842
0.0112714699 0.0053095546 -0.0005007652
0.0115672188 0.0047229711 -0.0047558479
0.0113902036 0.0050740602 0.0047525834
0.0115653433 0.0047266911 -0.0031484974
0.0110963359 0.0056569125 -0.0006451174
0.0107266017 0.0063902372 -0.0083933454
0.0114387892 0.0049776963 -0.0043268101
0.0118561159 0.0038198697 0.0046248919
0.0118501161 0.0038394614 0.0029744153
0.0117859145 0.0040491010 0.0052488067
0.0118304812 0.0039035756 0.0053967488
0.0116408335 0.0045228393 -0.0035417438
0.0116556402 0.0044744905 -0.0036506263
0.0117770617 0.0040780085 0.0047918634
0.0121276762 0.0029331342 -0.0038359748
0.0118347649 0.0038895880 -0.0031201395
0.0117562043 0.0041461149 -0.0053253728
0.0119650363 0.0034642081 0.0006482421
0.0120803967 0.0030875176 -0.0047318786
0.0118447786 0.0038568900 -0.0040655392
0.0121280486 0.0029319182 -0.0036189782
0.0121724879 0.0027868090 -0.0015009080
0.0122219185 0.0026141450 -0.0057717011
0.0122588456 0.0023257743 -0.0036898384
0.0122269934 0.0025745140 0.0062724641
0.0123695431 0.0014613189 0.0029883732
0.0123396514 0.0016947484 0.0054006150
0.0124046911 0.0011868421 0.0045447916
0.0123055839 0.0019607869 0.0043917607
0.0123000926 0.0020036693 0.0057531770
0.0124850644 0.0005591936 -0.0063587473
0.0123260269 0.0018011440 -0.0063746369
0.0122691484 0.0022453179 -0.0081397917
0.0124669667 0.0007005213 -0.0008454043
0.0123156700 0.0018820230 -0.0062005614
0.0123511862 0.0016046713 -0.0054300458
0.0124437412 0.0008818929 0.0041550176
0.0124054201 0.0011811491 -0.0036346942
0.0124796279 0.0003160830 0.0000614152
0.0124340668 -0.0007564722 0.0050771985
0.0124505118 -0.0003693396 0.0016873933
0.0124329060 -0.0007838001 0.0045288707
0.0124563647 -0.0002315569 -0.0008203630
0.0124748844 0.0002044158 0.0002745020
0.0124846419 0.0004341170 0.0083134403
0.0124683204 0.0000498936 -0.0010946779
0.0124335621 -0.0007683539 -0.0005995540
0.0124142888 -0.0012220663 -0.0038476827
0.0124004025 -0.0015489656 -0.0064739677
0.0123988715 -0.0015850056 0.0023170107
0.0124695993 0.0000799997 -0.0060605245
0.0124253074 -0.0009626770 0.0014201341
0.0124624914 -0.0000873284 -0.0057863418
0.0120695486 -0.0031152499 0.0079176842
0.0121772317 -0.0026155987 0.0009878594
0.0122259362 -0.0023896093 0.0056955021
0.0122665139 -0.0022013285 0.0002450012
0.0122525891 -0.0022659395 -0.0009949092
0.0121137177 -0.0029103045 0.0079551564
0.0123361970 -0.0018779981 0.0059749198
0.0122065920 -0.0024793666 0.0062049902
0.0122667175 -0.0022003838 -0.0054167169
0.0120172640 -0.0033578510 -0.0023759034
0.0121515151 -0.0027349240 -0.0083941307
0.0120603359 -0.0031579970 -0.0077909442
0.0120645651 -0.0031383734 -0.0029629632
0.0122977150 -0.0020565546 -0.0050546903
0.0120486276 -0.0032123232 -0.0049238486
0.0121781019 -0.0026115609 -0.0081974708
0.0117900957 -0.0040634087 0.0061361817
0.0117364785 -0.0041968400 0.0051468850
0.0115579244 -0.0046411882 0.0059997222
0.0117791695 -0.0040905995 0.0062875939
0.0111941439 -0.0055464894 0.0079144253
0.0117876201 -0.0040695695 -0.0016043526
0.0116966756 -0.0042958931 0.0072969820
0.0116674133 -0.0043687151 -0.0001261008
0.0111705090 -0.0056053070 -0.0001590850
0.0114568738 -0.0048926619 -0.0020243725
0.0112474607 -0.0054138057 -0.0040459528
0.0115056604 -0.0047712521 -0.0082560421
0.0112056549 -0.0055178433 -0.0036992970
0.0114272551 -0.0049663708 0.0004468373
0.0113074584 -0.0052644959 -0.0050882490
0.0113376792 -0.0051892886 -0.0018356792
0.0108618703 -0.0061142945 -0.0026592800
0.0104958853 -0.0067086924 0.0034193090
0.0107676649 -0.0062672939 -0.0022579982
0.0111052057 -0.0057190922 0.0034145753
0.0106305599 -0.0064899667 0.0004973814
0.0105383496 -0.0066397259 0.0013250288
0.0108896635 -0.0060691553 0.0028292140
0.0101736976 -0.0072319590 -0.0004493854
0.0108559982 -0.0061238312 -0.0077001409
0.0101732645 -0.0072326624 -0.0011694327
0.0110521858 -0.0058052021 -0.0070552418
0.0102236027 -0.0071509079 -0.0026310477
0.0102315048 -0.0071380741 0.0005898589
0.0102796974 -0.0070598042 -0.0008777018
0.0104465041 -0.0067888926 -0.0021030001
0.0100346675 -0.0074502953 -0.0054563061
0.0091521174 -0.0084530675 0.0071669477
0.0099705399 -0.0075231585 -0.0003397927
0.0099143886 -0.0075869588 -0.0050699472
0.0090855019 -0.0085287575 0.0045354327
0.0095578311 -0.0079920870 0.0078082357
0.0093123858 -0.0082709671 0.0079016040
0.0098603756 -0.0076483296 0.0043807051
0.0095731786 -0.0079746489 -0.0041275576
0.0095561429 -0.0079940052 -0.0038449642
0.0090208217 -0.0086022485 -0.0068544737
0.0088010462 -0.0088519621 0.0061671138
0.0088792396 -0.0087631171 0.0050437135
0.0086506201 -0.0090228795 -0.0048335693
0.0093761840 -0.0081984783 -0.0043304447
0.0088416783 -0.0088057951 -0.0061508557
0.0085435335 -0.0091098007 -0.0003673630
0.0075815919 -0.0098865139 0.0079036931
0.0082904030 -0.0093141892 0.0074137157
0.0084419263 -0.0091918427 -0.0024013674
0.0085889076 -0.0090731637 0.0000457757
0.0083165689 -0.0092930617 0.0051475077
0.0083301373 -0.0092821060 0.0029067908
0.0079364570 -0.0095999805 0.0078163894
0.0071019464 -0.0102738004 0.0067442253
0.0074417900 -0.0099993960 -0.0016899187
0.0077072321 -0.0097850666 -0.0017061403
0.0077972180 -0.0097124081 -0.0014712595
0.0074914532 -0.0099592958 -0.0006862348
0.0077007798 -0.0097902765 0.0006274870
0.0084550020 -0.0091812849 -0.0083231594
0.0061936052 -0.0108066739 0.0024350898
0.0067499036 -0.0104959069 0.0029343038
0.0067808002 -0.0104786470 0.0078895803
0.0068818891 -0.0104221754 0.0032948059
0.0063922214 -0.0106957202 -0.0003599268
0.0062610053 -0.0107690219 0.0038342300
0.0068970590 -0.0104137009 0.0070086119
0.0058531088 -0.0109968866 0.0076708049
0.0055179003 -0.0111841453 0.0046985145
0.0052339500 -0.0113427695 0.0072638127
0.0062026114 -0.0108016427 -0.0077379846
0.0063407796 -0.0107244573 -0.0048567443
0.0053860387 -0.0112578076 -0.0020225595
0.0054177411 -0.0112400976 0.0032275924
0.0058115557 -0.0110200995 -0.0030261489
0.0060861041 -0.0108667276 -0.0084825266
0.0037014481 -0.0119017264 0.0054266798
0.0039898130 -0.0117998406 0.0021568007
0.0049904450 -0.0114462946 0.0000276100
0.0034233638 -0.0119999799 0.0065798727
0.0050989743 -0.0114079488 -0.0042658118
0.0045559627 -0.0115998070 0.0010850135
0.0035457236 -0.0119567474 0.0057665487
0.0049042738 -0.0114767408 -0.0026647706
0.0041172073 -0.0117548293 -0.0068105870
0.0043403062 -0.0116760034 -0.0076532468
0.0033903948 -0.0120116286 -0.0067627012
0.0031807854 -0.0120856883 -0.0013612116
0.0037952931 -0.0118685688 -0.0025726771
0.0032570442 -0.0120587444 0.0042301986
0.0039240374 -0.0118230806 -0.0047623300
0.0034572046 -0.0119880232 0.0050742576
0.0024647148 -0.0122141191 0.0083132818
0.0028583481 -0.0121466239 -0.0007829824
0.0017633109 -0.0123343869 0.0083700699
0.0029416101 -0.0121323472 -0.0000806576
0.0029420138 -0.0121322780 -0.0038476136
0.0026273589 -0.0121862310 0.0069293446
0.0021838510 -0.0122622781 0.0018195877
0.0014064671 -0.0123955739 -0.0001671426
0.0023026586 -0.0122419065 -0.0077679700
0.0015650844 -0.0123683762 0.0010814372
0.0021328794 -0.0122710180 -0.0039368353
0.0018229255 -0.0123241649 0.0015504655
0.0011203500 -0.0124446336 -0.0049826902
0.0016772287 -0.0123491472 -0.0004368001
0.0022595340 -0.0122493009 -0.0024622638
0.0009454309 -0.0124598389 -0.0020017242
0.0003727560 -0.0124841657 -0.0052008256
0.0009582038 -0.0124592963 0.0001155473
0.0007767719 -0.0124670034 0.0006069970
0.0002163129 -0.0029723583 0.0085000005
0.0001186706 -0.0014710219 0.0085000005
0.0000726212 -0.0124419314 0.0085000005
-0.0001194868 -0.0020572447 0.0085000005
-0.0002902798 -0.0062637847 0.0085000005
-0.0000161449 -0.0103925612 0.0085000005
-0.0015842335 -0.0028642434 0.0085000005
-0.0051184218 -0.0092855035 0.0085000005
-0.0051484467 -0.0098641759 0.0085000005
-0.0025552067 -0.0045524260 0.0085000005
-0.0014201759 -0.0023162027 0.0085000005
-0.0031867595 -0.0058995555 0.0085000005
-0.0031745629 -0.0102184531 0.0085000005
-0.0018783568 -0.0063158151 0.0085000005
-0.0034148252 -0.0113559985 0.0085000005
-0.0031815577 -0.0110500487 0.0085000005
-0.0017393817 -0.0059586596 0.0085000005
-0.0020977762 -0.0103553371 0.0085000005
-0.0014316774 -0.0101342133 0.0085000005
-0.0028212314 -0.0108355214 0.0085000005
-0.0014027322 -0.0099256505 0.0085000005
-0.0011590227 -0.0094036325 0.0085000005
-0.0009547419 -0.0046237415 0.0085000005
-0.0071988616 -0.0049811144 0.0085000005
-0.0054458855 -0.0034416867 0.0085000005
-0.0080228790 -0.0047419980 0.0085000005
-0.0038074704 -0.0023628132 0.0085000005
-0.0071485148 -0.0047733321 0.0085000005
-0.0093550266 -0.0047583205 0.0085000005
-0.0009592062 -0.0007354743 0.0085000005
-0.0088190105 -0.0066641061 0.0085000005
-0.0082747022 -0.0083409010 0.0085000005
-0.0020626975 -0.0021167528 0.0085000005
-0.0072077464 -0.0053321248 0.0085000005
-0.0058030150 -0.0068953720 0.0085000005
-0.0081589937 -0.0093026806 0.0085000005
-0.0056753937 -0.0061147979 0.0085000005
-0.0080402659 -0.0084963571 0.0085000005
-0.0071925895 -0.0082508638 0.0085000005
-0.0027946237 -0.0037146575 0.0085000005
-0.0120689934 -0.0010987811 0.0085000005
-0.0081401529 -0.0002395362 0.0085000005
-0.0077587963 -0.0001353144 0.0085000005
-0.0069771599 -0.0002122231 0.0085000005
-0.0104732723 -0.0008741589 0.0085000005
-0.0102509951 -0.0004208346 0.0085000005
-0.0121688352 -0.0020726237 0.0085000005
-0.0059378636 -0.0008191126 0.0085000005
-0.0118678419 -0.0025070300 0.0085000005
-0.0119975456 -0.0031242500 0.0085000005
-0.0022287110 -0.0005989428 0.0085000005
-0.0115061465 -0.0029671543 0.0085000005
-0.0061042170 -0.0020350945 0.0085000005
-0.0049193760 -0.0024728838 0.0085000005
-0.0078945266 -0.0039745498 0.0085000005
-0.0091027432 -0.0044559308 0.0085000005
-0.0094308210 -0.0033251398 0.0085000005
-0.0053015117 0.0031291760 0.0085000005
-0.0044566355 0.0018813052 0.0085000005
-0.0099959117 0.0055810350 0.0085000005
-0.0080131302 0.0045362801 0.0085000005
-0.0090100515 0.0050026556 0.0085000005
-0.0093891251 0.0043573690 0.0085000005
-0.0056069959 0.0019634163 0.0085000005
-0.0113174116 0.0033301939 0.0085000005
-0.0041591575 0.0015057327 0.0085000005
-0.0114505837 0.0037790396 0.0085000005
-0.0070383424 0.0021948521 0.0085000005
-0.0074137198 0.0024955541 0.0085000005
-0.0075386091 0.0004911712 0.0085000005
-0.0101889346 0.0021638783 0.0085000005
-0.0121780832 0.0008824707 0.0085000005
-0.0117894304 0.0020416217 0.0085000005
-0.0103571703 0.0004807362 0.0085000005
-0.0046320739 0.0079006314 0.0085000005
-0.0049888587 0.0078852360 0.0085000005
-0.0044178866 0.0071444987 0.0085000005
-0.0072752496 0.0095845402 0.0085000005
-0.0036547513 0.0053969065 0.0085000005
-0.0057997018 0.0080057672 0.0085000005
-0.0038006292 0.0044643001 0.0085000005
-0.0079030073 0.0074640083 0.0085000005
-0.0064300049 0.0066354686 0.0085000005
-0.0047886522 0.0057773624 0.0085000005
-0.0091105567 0.0083816301 0.0085000005
-0.0038546045 0.0041262024 0.0085000005
-0.0081425640 0.0059100660 0.0085000005
-0.0049077073 0.0038622654 0.0085000005
-0.0085122794 0.0070858860 0.0085000005
-0.0028649181 0.0021089518 0.0085000005
-0.0045522768 0.0036989344 0.0085000005
-0.0072606484 0.0053727518 0.0085000005
-0.0010104776 0.0063517997 0.0085000005
-0.0009107913 0.0122724869 0.0085000005
-0.0003555762 0.0109470458 0.0085000005
-0.0005370268 0.0066430570 0.0085000005
-0.0004956527 0.0068100939 0.0085000005
-0.0000573767 0.0003296757 0.0085000005
-0.0030208578 0.0107445860 0.0085000005
-0.0025114084 0.0105346026 0.0085000005
-0.0023838332 0.0093563078 0.0085000005
-0.0019697778 0.0104481258 0.0085000005
-0.0012960258 0.0040740841 0.0085000005
-0.0019566349 0.0035524388 0.0085000005
-0.0043699584 0.0095631790 0.0085000005
-0.0054900260 0.0103848727 0.0085000005
-0.0050233480 0.0097654030 0.0085000005
-0.0046542613 0.0099792089 0.0085000005
-0.0043032172 0.0097078315 0.0085000005
0.0015926156 0.0038459301 0.0085000005
0.0007032139 0.0015511461 0.0085000005
0.0056369428 0.0103534203 0.0085000005
0.0035683025 0.0098309221 0.0085000005
0.0053588269 0.0100815970 0.0085000005
0.0020189382 0.0079261898 0.0085000005
0.0018743555 0.0083414317 0.0085000005
0.0022461714 0.0088887544 0.0085000005
0.0025260017 0.0098551056 0.0085000005
0.0006230909 0.0030458060 0.0085000005
0.0012386434 0.0065658166 0.0085000005
0.0003997597 0.0099834112 0.0085000005
0.0009966056 0.0069030117 0.0085000005
0.0011303305 0.0099929835 0.0085000005
0.0002087665 0.0081812737 0.0085000005
0.0000649354 0.0018624419 0.0085000005
0.0010027908 0.0119321639 0.0085000005
0.0087536418 0.0059585772 0.0085000005
0.0097129653 0.0068205144 0.0085000005
0.0066110803 0.0057672386 0.0085000005
0.0062565963 0.0041456009 0.0085000005
0.0037736268 0.0025525395 0.0085000005
0.0086302059 0.0075953309 0.0085000005
0.0030033003 0.0036471466 0.0085000005
0.0042817081 0.0038264981 0.0085000005
0.0085991841 0.0077602835 0.0085000005
0.0080613273 0.0091931880 0.0085000005
0.0059039144 0.0053126369 0.0085000005
0.0057799897 0.0087748161 0.0085000005
0.0026266166 0.0040737952 0.0085000005
0.0050201588 0.0087948182 0.0085000005
0.0047043275 0.0069922724 0.0085000005
0.0070724733 0.0095488685 0.0085000005
0.0031913982 0.0055575105 0.0085000005
0.0065621162 0.0005738360 0.0085000005
0.0107779235 0.0014215922 0.0085000005
0.0088965212 0.0009572409 0.0085000005
0.0081610586 0.0006155289 0.0085000005
0.0105643641 0.0007072889 0.0085000005
0.0093550692 0.0014961866 0.0085000005
0.0025096925 0.0007743406 0.0085000005
0.0029540671 0.0010996515 0.0085000005
0.0117458121 0.0030893111 0.0085000005
0.0038339071 0.0010235523 0.0085000005
0.0054162376 0.0011758211 0.0085000005
0.0102391011 0.0058103101 0.0085000005
0.0060444945 0.0032368192 0.0085000005
0.0106870901 0.0060562278 0.0085000005
0.0095358836 0.0050290446 0.0085000005
0.0067151813 0.0035079570 0.0085000005
0.0045855661 0.0018767294 0.0085000005
0.0105024968 -0.0040411059 0.0085000005
0.0092291658 -0.0041722886 0.0085000005
0.0104892011 -0.0044922996 0.0085000005
0.0076181661 -0.0028668630 0.0085000005
0.0071415002 -0.0025241651 0.0085000005
0.0073867468 -0.0032467590 0.0085000005
0.0086066354 -0.0011352904 0.0085000005
0.0060993874 -0.0011255329 0.0085000005
0.0122873647 -0.0017300765 0.0085000005
0.0061681516 -0.0010901243 0.0085000005
0.0076417907 -0.0012970333 0.0085000005
0.0043917462 -0.0005827007 0.0085000005
0.0048183218 -0.0000409615 0.0085000005
0.0072979328 -0.0007005133 0.0085000005
0.0078061407 0.0002937414 0.0085000005
0.0042013766 -0.0005141300 0.0085000005
0.0111286730 0.0001331449 0.0085000005
0.0023564942 -0.0033838207 0.0085000005
0.0042566898 -0.0050755077 0.0085000005
0.0084963494 -0.0091315917 0.0085000005
0.0066297974 -0.0086163913 0.0085000005
0.0073865545 -0.0087194271 0.0085000005
0.0027901050 -0.0031333630 0.0085000005
0.0077066564 -0.0077967093 0.0085000005
0.0062436272 -0.0062556406 0.0085000005
0.0052027845 -0.0039572439 0.0085000005
0.0085531924 -0.0068523568 0.0085000005
0.0079977223 -0.0072725972 0.0085000005
0.0029350017 -0.0022242726 0.0085000005
0.0090955556 -0.0050230690 0.0085000005
0.0097560339 -0.0052907468 0.0085000005
0.0068567955 -0.0035525313 0.0085000005
0.0070513954 -0.0048263409 0.0085000005
0.0077231269 -0.0044981214 0.0085000005
0.0020509578 -0.0115222611 0.0085000005
0.0014340043 -0.0082243652 0.0085000005
0.0026950596 -0.0113708151 0.0085000005
0.0023894134 -0.0106957906 0.0085000005
0.0018956864 -0.0087451260 0.0085000005
0.0016596395 -0.0070506031 0.0085000005
0.0022595918 -0.0055875726 0.0085000005
0.0043690148 -0.0115241174 0.0085000005
0.0013046225 -0.0043822472 0.0085000005
0.0025524124 -0.0072374492 0.0085000005
0.0005836701 -0.0016684714 0.0085000005
0.0027709981 -0.0081238819 0.0085000005
0.0038445363 -0.0057784215 0.0085000005
0.0053915919 -0.0086309501 0.0085000005
0.0041836975 -0.0079069941 0.0085000005
0.0034452998 -0.0067676050 0.0085000005
0.0049770854 -0.0077707992 0.0085000005
0.0012947650 -0.0021014324 0.0085000005
-0.0005680443 -0.0081077337 -0.0085000005
-0.0005583411 -0.0082795967 -0.0085000005
0.0001401901 -0.0071271945 -0.0085000005
0.0000276387 -0.0016179256 -0.0085000005
0.0001562108 -0.0082231388 -0.0085000005
0.0038478634 -0.0073815952 -0.0085000005
0.0048927129 -0.0098714349 -0.0085000005
0.0043177983 -0.0074290270 -0.0085000005
0.0044439990 -0.0087492288 -0.0085000005
0.0059317278 -0.0106147848 -0.0085000005
0.0051903263 -0.0110055052 -0.0085000005
0.0028760077 -0.0069165447 -0.0085000005
0.0022585283 -0.0085590566 -0.0085000005
0.0025811079 -0.0076588273 -0.0085000005
0.0038711565 -0.0087887302 -0.0085000005
0.0030542856 -0.0101383631 -0.0085000005
0.0041591511 -0.0098457558 -0.0085000005
0.0015628648 -0.0082454696 -0.0085000005
0.0018676459 -0.0075283810 -0.0085000005
0.0027909214 -0.0107553919 -0.0085000005
0.0006843143 -0.0049886496 -0.0085000005
0.0006580020 -0.0059136045 -0.0085000005
0.0044275356 -0.0026850942 -0.0085000005
0.0070449901 -0.0038315137 -0.0085000005
0.0051644142 -0.0035945594 -0.0085000005
0.0104286273 -0.0055203995 -0.0085000005
0.0030582617 -0.0016545504 -0.0085000005
0.0104382509 -0.0063179815 -0.0085000005
0.0071735563 -0.0064029390 -0.0085000005
0.0055559508 -0.0057065851 -0.0085000005
0.0025309680 -0.0025974231 -0.0085000005
0.0017386798 -0.0015508050 -0.0085000005
0.0091440045 -0.0079426935 -0.0085000005
0.0028864165 -0.0029798915 -0.0085000005
0.0049082124 -0.0067944834 -0.0085000005
0.0065879983 -0.0078965898 -0.0085000005
0.0074984105 -0.0098122472 -0.0085000005
0.0074965638 -0.0078793517 -0.0085000005
0.0055337849 -0.0080261162 -0.0085000005
0.0040518628 -0.0046035683 -0.0085000005
0.0015984934 -0.0000387022 -0.0085000005
0.0073285414 -0.0001064434 -0.0085000005
0.0112740617 -0.0013518956 -0.0085000005
0.0056845778 -0.0000812961 -0.0085000005
0.0111530993 -0.0010135311 -0.0085000005
0.0112422850 -0.0026603803 -0.0085000005
0.0118269176 -0.0027641720 -0.0085000005
0.0107923648 -0.0032799664 -0.0085000005
0.0108076984 -0.0023126473 -0.0085000005
0.0093149058 -0.0021293800 -0.0085000005
0.0027190686 -0.0005306776 -0.0085000005
0.0077002054 -0.0025442733 -0.0085000005
0.0024283748 -0.0007458131 -0.0085000005
0.0070248351 -0.0024714052 -0.0085000005
0.0083628832 -0.0040823654 -0.0085000005
0.0022937852 -0.0008924908 -0.0085000005
0.0097116077 -0.0031261623 -0.0085000005
0.0080418141 0.0037271351 -0.0085000005
0.0089666962 0.0038881620 -0.0085000005
0.0105432405 0.0057132367 -0.0085000005
0.0067299458 0.0033795902 -0.0085000005
0.0081023958 0.0044675919 -0.0085000005
0.0099584594 0.0035197814 -0.0085000005
0.0012214066 0.0003000398 -0.0085000005
0.0108689220 0.0035776944 -0.0085000005
0.0117319588 0.0028909836 -0.0085000005
0.0067434043 0.0019424861 -0.0085000005
0.0074194256 0.0028122286 -0.0085000005
0.0079938165 0.0005518816 -0.0085000005
0.0089563646 0.0009793243 -0.0085000005
0.0073587826 0.0013580311 -0.0085000005
0.0093379795 0.0011122159 -0.0085000005
0.0119508638 0.0025558326 -0.0085000005
0.0118167796 0.0006505622 -0.0085000005
0.0067818908 0.0101123895 -0.0085000005
0.0064920256 0.0083047456 -0.0085000005
0.0049607670 0.0073880322 -0.0085000005
0.0051881234 0.0078710352 -0.0085000005
0.0047751560 0.0074005819 -0.0085000005
0.0055192300 0.0095254468 -0.0085000005
0.0036548601 0.0032426470 -0.0085000005
0.0063194064 0.0078050398 -0.0085000005
0.0016337759 0.0018441117 -0.0085000005
0.0069870093 0.0083820733 -0.0085000005
0.0070765506 0.0072549551 -0.0085000005
0.0063473856 0.0052566734 -0.0085000005
0.0018141606 0.0013358457 -0.0085000005
0.0067447797 0.0059060730 -0.0085000005
0.0078870134 0.0061262447 -0.0085000005
0.0069113931 0.0051864891 -0.0085000005
0.0083702557 0.0061768536 -0.0085000005
0.0010325659 0.0109179562 -0.0085000005
0.0002825771 0.0119872241 -0.0085000005
0.0012358028 0.0098503596 -0.0085000005
0.0001086142 0.0028355734 -0.0085000005
0.0002420079 0.0075798326 -0.0085000005
0.0010274352 0.0083665707 -0.0085000005
0.0022576775 0.0102287320 -0.0085000005
0.0016054712 0.0066239959 -0.0085000005
0.0021126754 0.0078274517 -0.0085000005
0.0023948186 0.0073454159 -0.0085000005
0.0031724424 0.0094132065 -0.0085000005
0.0036715262 0.0066125261 -0.0085000005
0.0047638531 0.0093743551 -0.0085000005
0.0044575771 0.0083772971 -0.0085000005
0.0017745418 0.0034750199 -0.0085000005
0.0046747386 0.0089243592 -0.0085000005
0.0047467797 0.0106705713 -0.0085000005
-0.0008756360 0.0023579605 -0.0085000005
-0.0042451486 0.0115853131 -0.0085000005
-0.0031834141 0.0088412848 -0.0085000005
-0.0030530029 0.0073337541 -0.0085000005
-0.0026926130 0.0062395371 -0.0085000005
-0.0023823923 0.0059706609 -0.0085000005
-0.0022075161 0.0090558843 -0.0085000005
-0.0012907693 0.0056787866 -0.0085000005
-0.0022448373 0.0121762655 -0.0085000005
-0.0010462356 0.0059661891 -0.0085000005
-0.0019871013 0.0112090051 -0.0085000005
-0.0031678439 0.0118815796 -0.0085000005
-0.0012270006 0.0097909214 -0.0085000005
-0.0005322503 0.0056643333 -0.0085000005
-0.0001558753 0.0062444962 -0.0085000005
-0.0003630934 0.0029915093 -0.0085000005
-0.0008026232 0.0052002809 -0.0085000005
-0.0040170084 0.0027305680 -0.0085000005
-0.0081686925 0.0062327801 -0.0085000005
-0.0013419474 0.0010100516 -0.0085000005
-0.0053555495 0.0039007341 -0.0085000005
-0.0095370276 0.0062773626 -0.0085000005
-0.0068965425 0.0050121695 -0.0085000005
-0.0075026440 0.0087019270 -0.0085000005
-0.0009043276 0.0008391433 -0.0085000005
-0.0052813600 0.0055330863 -0.0085000005
-0.0071383658 0.0065991439 -0.0085000005
-0.0066921531 0.0079816051 -0.0085000005
-0.0040473715 0.0042807568 -0.0085000005
-0.0066868122 0.0104363531 -0.0085000005
-0.0019831988 0.0032502902 -0.0085000005
-0.0054560601 0.0070256382 -0.0085000005
-0.0046840704 0.0076239152 -0.0085000005
-0.0024735004 0.0034733926 -0.0085000005
-0.0118800505 0.0010196470 -0.0085000005
-0.0117938906 0.0008759014 -0.0085000005
-0.0057894871 0.0005431695 -0.0085000005
-0.0063179996 0.0009908740 -0.0085000005
-0.0065932704 0.0014064241 -0.0085000005
-0.0082959616 0.0016941977 -0.0085000005
-0.0078189038 0.0022457518 -0.0085000005
-0.0089929901 0.0034941798 -0.0085000005
-0.0102533748 0.0037888834 -0.0085000005
-0.0103493770 0.0040612596 -0.0085000005
-0.0039587313 0.0014479441 -0.0085000005
-0.0100023288 0.0022136739 -0.0085000005
-0.0071330673 0.0033241784 -0.0085000005
-0.0036308950 0.0016856258 -0.0085000005
-0.0038871742 0.0015649413 -0.0085000005
-0.0107863019 0.0046707084 -0.0085000005
-0.0080641633 0.0033285544 -0.0085000005
-0.0098007402 0.0054892868 -0.0085000005
-0.0041417394 -0.0014773887 -0.0085000005
-0.0086134736 -0.0028097914 -0.0085000005
-0.0113112821 -0.0045197917 -0.0085000005
-0.0083356545 -0.0025844987 -0.0085000005
-0.0111495284 -0.0045702400 -0.0085000005
-0.0080726905 -0.0013009872 -0.0085000005
-0.0069538691 -0.0011549139 -0.0085000005
-0.0108823553 -0.0015124798 -0.0085000005
-0.0061893547 -0.0012404349 -0.0085000005
-0.0116238471 -0.0030595456 -0.0085000005
-0.0044511424 -0.0010545023 -0.0085000005
-0.0118946723 -0.0000000244 -0.0085000005
-0.0024137637 0.0000097241 -0.0085000005
-0.0083745469 -0.0001185045 -0.0085000005
-0.0104928724 -0.0003509593 -0.0085000005
-0.0103966159 -0.0002019714 -0.0085000005
-0.0102420290 -0.0011288876 -0.0085000005
-0.0047396289 -0.0053411915 -0.0085000005
-0.0065455975 -0.0085560721 -0.0085000005
-0.0017316640 -0.0024548236 -0.0085000005
-0.0043568010 -0.0062747874 -0.0085000005
-0.0048658629 -0.0056746623 -0.0085000005
-0.0053937109 -0.0053417372 -0.0085000005
-0.0030679443 -0.0030621869 -0.0085000005
-0.0047015976 -0.0036622256 -0.0085000005
-0.0045293854 -0.0041870385 -0.0085000005
-0.0089992444 -0.0079740567 -0.0085000005
-0.0075485789 -0.0059291644 -0.0085000005
-0.0040227571 -0.0024451745 -0.0085000005
-0.0033487019 -0.0020283945 -0.0085000005
-0.0082161177 -0.0049703938 -0.0085000005
-0.0066349921 -0.0035617104 -0.0085000005
-0.0060648067 -0.0033685912 -0.0085000005
-0.0073299219 -0.0040039534 -0.0085000005
-0.0006188279 -0.0033014946 -0.0085000005
-0.0008126129 -0.0045361611 -0.0085000005
-0.0008155764 -0.0041128713 -0.0085000005
-0.0019791342 -0.0107350950 -0.0085000005
-0.0023231222 -0.0090482122 -0.0085000005
-0.0028104406 -0.0108762967 -0.0085000005
-0.0032488178 -0.0108646207 -0.0085000005
-0.0029972470 -0.0109823324 -0.0085000005
-0.0037108889 -0.0109865211 -0.0085000005
-0.0042637613 -0.0111968347 -0.0085000005
-0.0030781715 -0.0084045720 -0.0085000005
-0.0039565322 -0.0082390746 -0.0085000005
-0.0044904567 -0.0091828792 -0.0085000005
-0.0048203932 -0.0103685406 -0.0085000005
-0.0052993574 -0.0109771627 -0.0085000005
-0.0020813151 -0.0044626528 -0.0085000005
-0.0024041003 -0.0041790315 -0.0085000005
