0.0009504608 0.0469896549 0.0002800498
0.0020699252 0.0468944078 0.0050230921
0.0063907332 0.0467661356 0.0026516128
-0.0000392882 0.0465505722 0.0111547671
0.0022715619 0.0466441789 0.0029050220
-0.0042668499 0.0465811247 0.0031680946
0.0019976270 0.0463377106 0.0136685729
0.0031028072 0.0461365127 0.0152283367
-0.0079957677 0.0463769909 -0.0057807269
0.0030997002 0.0463072154 0.0103545645
-0.0081931393 0.0463385766 -0.0012057416
-0.0086670499 0.0462933940 0.0013933037
-0.0055094155 0.0462451499 -0.0105682429
-0.0125045402 0.0457421633 0.0102872250
0.0100201401 0.0456116531 0.0162324396
0.0144498475 0.0451944786 0.0137695391
-0.0113312743 0.0462700246 0.0015359824
0.0112696360 0.0460467319 -0.0000847225
0.0175370664 0.0453335057 -0.0013124510
0.0155692426 0.0456476637 0.0004358533
0.0117830575 0.0460346855 0.0078650243
-0.0108113227 0.0456103246 -0.0093902357
0.0009792481 0.0454009303 -0.0176091419
0.0047968910 0.0454864982 -0.0162976260
-0.0067712730 0.0458680378 -0.0131037340
-0.0178824224 0.0452892561 -0.0040159855
0.0028011811 0.0455239774 0.0207164061
0.0017051242 0.0457161657 0.0193836457
-0.0056011543 0.0453412010 0.0215344432
-0.0109325058 0.0450934204 0.0198816846
0.0098865959 0.0448525155 0.0229618074
0.0129973208 0.0445878013 0.0214541384
0.0000884715 0.0452828252 -0.0183952299
0.0064127636 0.0437283130 0.0331940182
-0.0015464160 0.0451778010 0.0243162793
-0.0002621880 0.0444309975 0.0295126263
-0.0212820610 0.0442797317 0.0098636548
-0.0003573115 0.0441505847 -0.0236342130
-0.0128388153 0.0443412537 -0.0186711006
-0.0174867588 0.0447806263 -0.0111108363
-0.0185762618 0.0449993956 -0.0068251738
0.0203715278 0.0446379288 0.0069589793
0.0042413776 0.0442496336 -0.0225346518
0.0067611327 0.0448168413 -0.0194885723
0.0154752931 0.0446657840 -0.0144810924
0.0200062691 0.0434762179 -0.0167192779
0.0196889439 0.0448008161 -0.0062996999
0.0245286549 0.0436825591 -0.0055951722
-0.0125154054 0.0433163772 0.0316611790
-0.0157614408 0.0440200796 0.0229605084
0.0113163577 0.0438553635 0.0288890769
-0.0185932844 0.0437745046 0.0202761917
0.0195524831 0.0437288461 0.0187453655
-0.0234703629 0.0438333392 0.0082503917
-0.0230650529 0.0435782528 0.0113923749
0.0217110442 0.0440011011 0.0116496908
-0.0059850235 0.0427012219 -0.0276937047
-0.0116950992 0.0432385347 -0.0239554237
-0.0189715022 0.0429850381 -0.0198624838
-0.0244156078 0.0431250665 -0.0115310939
-0.0273673561 0.0428658655 -0.0049761798
0.0019604566 0.0431912519 0.0372253191
-0.0231808392 0.0421990596 0.0207426758
-0.0198445421 0.0431728376 0.0220792151
0.0213250869 0.0422432589 0.0245935409
0.0084936084 0.0433730886 0.0344746069
0.0079406872 0.0428680972 -0.0266973897
0.0087965363 0.0422514745 -0.0282479586
0.0195781457 0.0420073599 -0.0232023200
0.0252134706 0.0419225863 -0.0171303872
0.0298666049 0.0421655063 -0.0019194569
0.0288781716 0.0425558270 0.0011374225
-0.0027108519 0.0426551148 0.0396850387
-0.0283142395 0.0414943925 0.0135735742
0.0055202016 0.0422680884 0.0416281066
0.0301445961 0.0414959674 0.0089614190
-0.0302339778 0.0419743462 0.0025373256
-0.0168117820 0.0423830559 0.0317048420
0.0100495627 0.0403922747 0.0489032564
0.0104473197 0.0405590837 0.0477735595
-0.0047954928 0.0417597560 0.0442050960
-0.0090192803 0.0405244002 0.0489958668
0.0197280599 0.0403883428 0.0366282098
-0.0007065436 0.0420168012 0.0438009158
-0.0196952278 0.0409576114 0.0340408366
-0.0026548198 0.0408904609 -0.0325263474
-0.0137141438 0.0399328320 -0.0317220865
-0.0196364601 0.0411503679 -0.0254358159
-0.0251639402 0.0420264191 -0.0169060568
-0.0296515317 0.0411734848 -0.0122347279
-0.0344989384 0.0398471052 -0.0042541524
0.0150661017 0.0413010182 0.0397887154
0.0133509590 0.0404478971 0.0457124233
-0.0155995003 0.0409325985 0.0406148963
0.0030710791 0.0416652805 -0.0309581712
0.0193467100 0.0410187997 -0.0260729940
0.0266918622 0.0413258400 -0.0173842654
0.0305709036 0.0410397635 -0.0109285697
0.0226239383 0.0409225134 0.0284801882
-0.0342114434 0.0399225321 0.0045408436
-0.0317393330 0.0413475881 0.0000517768
0.0334375668 0.0404745320 0.0008792413
-0.0236251926 0.0402970576 0.0286840392
0.0234788676 0.0396026345 0.0318920604
-0.0012442907 0.0402948121 0.0529152030
0.0030413197 0.0390209633 0.0592896980
-0.0010144381 0.0387041997 0.0614362565
0.0053878933 0.0392838017 0.0572173003
-0.0060708924 0.0395850794 0.0553455150
0.0076446239 0.0384811390 0.0597626038
0.0301949292 0.0396504125 0.0175796587
0.0181471511 0.0395420809 0.0429375463
-0.0262389237 0.0379878612 0.0308058980
-0.0204269912 0.0395602543 0.0386824836
0.0115063593 0.0383708783 0.0572454069
-0.0355975528 0.0390645233 -0.0045758816
-0.0129559293 0.0392894862 -0.0331049672
0.0240464337 0.0397276314 -0.0253957735
0.0328948987 0.0395459246 -0.0128450427
-0.0359370467 0.0388550462 0.0020312417
-0.0330773384 0.0384876524 0.0145078542
0.0047923984 0.0372137495 -0.0377551075
0.0154173880 0.0383242907 -0.0333750338
0.0259323173 0.0376484385 -0.0271767810
0.0348506381 0.0371133781 -0.0155670247
0.0376951389 0.0374179198 -0.0035080024
-0.0121964636 0.0369016807 0.0628528732
0.0216287255 0.0374137718 0.0442840533
0.0151613141 0.0357554427 0.0636174107
0.0166433628 0.0366223379 0.0577150449
-0.0204024163 0.0366923797 0.0496901595
0.0253899940 0.0364105939 0.0376039975
0.0359093244 0.0384540391 0.0069831062
0.0324624885 0.0370631511 0.0199785493
0.0023169156 0.0375116311 0.0683656741
-0.0006987652 0.0371574660 0.0711866749
-0.0046763112 0.0373728739 0.0678778450
-0.0168762412 0.0365420578 0.0576924765
-0.0142547305 0.0370642082 -0.0352999937
-0.0243996876 0.0370804284 -0.0292036426
-0.0361431956 0.0365962852 -0.0133521159
0.0049771762 0.0376891533 0.0661073069
0.0064592836 0.0376347609 0.0649848666
-0.0059557894 0.0372926304 0.0678206145
-0.0112408039 0.0368201707 0.0646529089
0.0349876536 0.0367046241 0.0149941869
0.0380647431 0.0368821104 0.0029319274
0.0282758000 0.0351788048 0.0333103222
0.0091821924 0.0356523599 0.0739308365
0.0117987202 0.0356028791 0.0704655335
0.0184264845 0.0357048657 0.0577671066
0.0203666483 0.0364347823 -0.0329535897
0.0371294928 0.0367580201 -0.0102265492
-0.0139794618 0.0345329945 0.0711976143
-0.0160314355 0.0351158890 0.0650926008
-0.0331276413 0.0350083684 0.0221531621
-0.0387490429 0.0357876048 0.0032335471
0.0247311439 0.0344005573 0.0445585725
-0.0236299770 0.0355473086 0.0448705177
-0.0096765603 0.0340071279 -0.0387679333
-0.0243988880 0.0345263306 -0.0313758304
-0.0363032494 0.0346068222 -0.0160063130
-0.0020044135 0.0357069171 0.0800559141
0.0028951091 0.0355506465 0.0821359344
0.0003040919 0.0355683307 0.0837566910
0.0154820595 0.0344651547 -0.0367551204
0.0366245937 0.0348615989 -0.0153155020
0.0055016678 0.0352203346 0.0824092525
-0.0028459818 0.0348330283 0.0937973835
-0.0056661613 0.0353687742 0.0803557650
-0.0103548376 0.0337360444 0.0849936094
0.0160712170 0.0343261937 0.0690887888
0.0179234617 0.0333602775 0.0691219201
0.0333810370 0.0348381286 0.0222019368
-0.0216939848 0.0339911718 0.0562074046
-0.0171650014 0.0342980512 0.0666675713
-0.0237275437 0.0306885220 0.0626080700
-0.0024796292 0.0348394903 0.1241065613
0.0027620503 0.0348426879 0.1068857833
-0.0011780400 0.0347594892 0.1395270505
-0.0018440076 0.0347946911 0.1323993888
-0.0025331387 0.0348110536 0.1290863276
-0.0025195925 0.0348000293 0.1313185043
0.0034058212 0.0347657725 0.1382548218
-0.0032373457 0.0348036239 0.1106813991
0.0022608356 0.0346576032 0.1502148675
-0.0091145623 0.0334913495 0.1525000036
-0.0101700633 0.0334802720 0.1521272945
-0.0031124454 0.0346179586 0.1424999833
0.0067631325 0.0341259317 0.1409074525
0.0096730803 0.0335698187 0.1098077230
0.0064933935 0.0342113035 0.1372619193
0.0091736274 0.0335243030 0.1423542077
0.0083081965 0.0339530779 0.0953359278
0.0053238973 0.0345295217 0.1306484015
0.0047964967 0.0346639530 0.1150005775
-0.0049394123 0.0346193913 0.1247085715
-0.0093904689 0.0335442821 0.1208720522
-0.0084188955 0.0337650925 0.1263127324
-0.0058567744 0.0343861123 0.1293700604
-0.0068430415 0.0341425157 0.1295169074
0.0059902045 0.0344643799 0.0934703581
0.0119297139 0.0333815922 0.0849924637
-0.0112771721 0.0330644711 0.0935190814
-0.0346180485 0.0327299542 0.0217044042
0.0085241695 0.0333769052 0.1444859360
0.0019906287 0.0344469994 0.1474980233
-0.0027240902 0.0344469994 0.1453887379
-0.0098585454 0.0330480108 0.1467935947
0.0108220042 0.0333128259 -0.0387855438
0.0355942650 0.0335579820 -0.0186701926
0.0114132729 0.0328015921 0.1508294804
0.0097588793 0.0329532632 0.1525000036
-0.0101075257 0.0334237368 0.1142227148
0.0162345556 0.0320232740 0.0805990031
-0.0182538801 0.0320543088 0.0750684203
-0.0135625858 0.0331868569 0.0801536441
-0.0058288782 0.0326728130 -0.0398695328
-0.0218176242 0.0327663996 -0.0337578659
-0.0370053731 0.0335396323 -0.0153645765
-0.0394531294 0.0323317004 -0.0080722952
-0.0109267587 0.0331938473 0.1019909979
-0.0104113402 0.0333632465 0.0960384544
0.0117921148 0.0329144213 0.1179018058
0.0100302984 0.0334972090 0.1020051565
-0.0154160691 0.0311479770 0.1502916702
-0.0163209267 0.0307422264 0.1509333009
-0.0318129406 0.0319658162 0.0292555300
0.0146480751 0.0319731812 0.0867925474
0.0241065076 0.0317903935 -0.0324130946
0.0399383528 0.0316756202 -0.0050045174
0.0243733396 0.0323023961 0.0533869739
-0.0134936913 0.0323802913 0.0909152518
0.0189775833 0.0320933135 0.0726240638
0.0155669337 0.0310847068 0.1349736312
0.0147610342 0.0315513565 0.1136402469
0.0146159196 0.0316037556 0.1252456001
0.0159021567 0.0309505620 0.1145622871
0.0172512996 0.0302185333 0.1262565717
-0.0125928354 0.0326476956 0.1229350201
-0.0137930318 0.0320968910 0.1194880757
-0.0136725803 0.0321580724 0.1165841270
-0.0182760036 0.0297551599 0.1238314391
-0.0192921707 0.0291197594 0.1415264376
-0.0163005952 0.0309251509 0.1007378524
-0.0173065427 0.0303282517 0.1126883662
-0.0214088328 0.0298012516 0.0760574721
-0.0219133881 0.0294161695 0.0760958273
-0.0262878870 0.0244800633 0.0801178330
0.0147656751 0.0311534944 0.1429034583
0.0127152295 0.0322296519 0.1461985671
-0.0189571430 0.0289536392 0.1436399854
0.0160947378 0.0308526961 0.1146583227
0.0172741996 0.0302213254 0.1225869382
0.0248444447 0.0305158707 0.0576896226
0.0284917904 0.0310645460 0.0393707557
-0.0258055301 0.0285444752 0.0608457035
0.0176246498 0.0313660060 0.0800928009
-0.0189786980 0.0303077251 0.0821128481
0.0191576839 0.0289689428 0.1518942222
0.0020174790 0.0306405555 -0.0402726807
-0.0035360035 0.0284226183 -0.0402217065
-0.0060692249 0.0167108390 -0.0398197465
-0.0060102703 0.0205106871 -0.0398808731
0.0033885357 0.0180960479 -0.0401182043
0.0072913379 0.0253335602 -0.0396784693
-0.0090196077 0.0178458801 -0.0394711791
0.0106042723 0.0177014336 -0.0389274608
0.0142152236 0.0277467922 -0.0376639306
-0.0146230885 0.0214281026 -0.0376069164
-0.0119951575 0.0197145887 -0.0384969043
0.0150972767 0.0290117582 -0.0373552845
-0.0205356695 0.0260408019 -0.0346962803
-0.0195478921 0.0232873673 -0.0352970956
-0.0239597720 0.0285494754 -0.0326287053
0.0182733760 0.0242688936 -0.0360487225
0.0178891426 0.0221859310 -0.0362901535
0.0238302858 0.0242048090 -0.0325570822
0.0255292534 0.0251807031 -0.0313862606
-0.0287830033 0.0289045868 -0.0284310629
-0.0282244630 0.0199392967 -0.0287745004
0.0282397353 0.0272804173 -0.0286757756
0.0297313306 0.0214730384 -0.0271841798
0.0308639884 0.0200139799 -0.0260515224
-0.0322269967 0.0245039672 -0.0245082756
-0.0362313468 0.0215754712 -0.0180462604
-0.0338621215 0.0185428760 -0.0217957968
0.0340233205 0.0304165988 -0.0214967837
0.0347046190 0.0232968918 -0.0204125010
-0.0363633409 0.0237844170 -0.0177982978
-0.0369967283 0.0221938447 -0.0162860919
0.0372238523 0.0238888495 -0.0154728813
-0.0385375307 0.0290467582 -0.0123392158
-0.0391170501 0.0263512435 -0.0101977745
0.0377063979 0.0183676346 -0.0140938471
0.0395465378 0.0234302427 -0.0084622281
-0.0397971352 0.0306056027 -0.0065292157
-0.0400505341 0.0164874249 -0.0044897776
0.0398064699 0.0246744478 -0.0061552595
0.0404395529 0.0203033499 -0.0005363923
0.0404022082 0.0235211605 -0.0008679276
-0.0404959445 0.0283711863 0.0000974287
0.0401153936 0.0233367763 0.0050108334
0.0224431596 0.0303561744 0.0696127815
-0.0400677547 0.0278940222 0.0052403847
-0.0396416476 0.0278746288 0.0078697611
0.0039874677 0.0233426288 0.1424999833
0.0022612111 0.0248298992 0.1424999833
0.0043437381 0.0275292297 0.1424999833
-0.0064683194 0.0300560895 0.1424999833
-0.0026522522 0.0293565986 0.1424999833
0.0062692135 0.0301746408 0.1485114759
0.0019974882 0.0307370238 0.1453130188
-0.0019670841 0.0307410260 0.1491312297
-0.0062645232 0.0301752579 0.1518276028
0.0281823896 0.0289805606 0.0430672798
-0.0372750891 0.0306184569 0.0161380814
-0.0183976092 0.0299349896 0.0901037475
-0.0187371150 0.0294986082 0.1055206238
0.0171244364 0.0305092891 0.0955661754
0.0194001946 0.0291001573 0.1313864335
0.0191821236 0.0294775937 0.0876442964
-0.0377930659 0.0278499980 0.0144409347
-0.0219928616 0.0278604943 0.0845329121
0.0014010787 0.0025635757 0.1424999833
0.0099466913 0.0220572168 0.1424999833
0.0025282411 0.0092903767 0.1424999833
0.0084205506 0.0297791905 0.1499328806
-0.0074855878 0.0182611323 0.1424999833
-0.0099817614 0.0283559089 0.1424999833
-0.0107000658 0.0187342251 0.1424999833
-0.0108403927 0.0287768599 0.1455450886
-0.0152865088 0.0269352210 0.1479351480
-0.0227793087 0.0260060802 0.1525000036
0.0392406673 0.0219578414 0.0097084889
-0.0392426871 0.0207425296 0.0097134357
0.0360662455 0.0271153884 0.0190735783
0.0248148226 0.0278497775 0.0710609737
0.0262977835 0.0273412461 0.0635307790
-0.0252954624 0.0274035491 0.0701955749
-0.0266078297 0.0258648617 0.0686605335
-0.0344803283 0.0238415848 0.0222461188
0.0219479027 0.0270384222 0.1101748695
0.0214626686 0.0274803220 0.1041021453
0.0204002596 0.0283743112 0.1279612948
0.0207327667 0.0281414776 0.0967669255
0.0201050215 0.0286109680 0.1405424036
-0.0199559431 0.0287511530 0.1369367631
-0.0203117530 0.0284839138 0.1185224566
-0.0217243146 0.0272011676 0.1365772081
-0.0238527049 0.0253348120 0.1325998736
-0.0238801297 0.0253252647 0.1295501789
-0.0226286459 0.0265840456 0.0985212269
-0.0280576913 0.0272757688 0.0450007477
0.0215747415 0.0269071622 0.1482795342
-0.0245034453 0.0243125574 0.1426459082
0.0222600184 0.0282424859 0.0806498385
0.0233944825 0.0257877291 0.1145466576
0.0238847181 0.0254302758 0.1108097895
0.0251558654 0.0241945471 0.1296305496
-0.0233066478 0.0262666515 0.0908564953
0.0317898255 0.0255928017 0.0294294856
-0.0269066314 0.0267172403 0.0620375036
0.0342316631 0.0262632551 0.0233942909
0.0277281049 0.0250480165 0.0521169067
-0.0374237941 0.0240775392 0.0152856768
-0.0283124324 0.0229648579 0.0600823848
-0.0238769474 0.0255043109 0.1045537692
0.0051366954 0.0081547394 0.1424999833
0.0128450433 0.0145083450 0.1424999833
0.0131032395 0.0195871472 0.1424999833
0.0169100444 0.0257648234 0.1479815228
-0.0172673820 0.0204794022 0.1424999833
-0.0095788835 0.0164038981 0.1424999833
-0.0164886680 0.0217079391 0.1424999833
-0.0189332189 0.0242123864 0.1433546910
-0.0180436267 0.0248949950 0.1520913879
0.0273802558 0.0215465877 0.1524161229
0.0240999626 0.0253530506 0.0935965079
0.0250499039 0.0256994805 0.0806244384
-0.0040910346 0.0264610816 -0.0243325631
-0.0028070848 0.0264610816 -0.0249617226
0.0009615173 0.0264610816 -0.0281476989
0.0029217116 0.0264610816 -0.0285524550
0.0059765233 0.0264610816 -0.0277257740
-0.0059450684 0.0242444346 -0.0302173149
-0.0009690298 0.0230252311 -0.0308724222
0.0035240080 0.0249547861 -0.0305360538
0.0093990573 0.0264610816 -0.0177326478
0.0067282504 0.0264610816 -0.0167946340
0.0079224229 0.0194314658 -0.0299569918
0.0085972331 0.0192712415 -0.0297060063
-0.0095332736 0.0264610816 -0.0289069589
-0.0075681967 0.0264610816 -0.0134001080
-0.0057012046 0.0264610816 -0.0188597062
-0.0141039730 0.0217556503 -0.0274250427
0.0122973760 0.0264610816 -0.0207719063
0.0048185997 0.0264610816 -0.0048423351
0.0108444670 0.0264610816 -0.0182238605
0.0115656533 0.0165783586 -0.0284764476
0.0155402769 0.0173252777 -0.0268158827
-0.0144807164 0.0264610816 -0.0211421463
-0.0142606491 0.0264610816 -0.0189670020
-0.0193193783 0.0237625238 -0.0239160712
-0.0167278617 0.0194780546 -0.0259046162
0.0130875903 0.0264610816 -0.0110162940
0.0205073506 0.0264610816 -0.0124699932
0.0212020960 0.0264610816 -0.0130920641
0.0205198764 0.0193354576 -0.0229948965
0.0232719119 0.0249829783 -0.0201588653
-0.0098971532 0.0264610816 -0.0063063217
-0.0064842635 0.0264610816 -0.0043653317
-0.0265901863 0.0210797639 -0.0158344090
-0.0230236704 0.0220048830 -0.0204823758
0.0217127348 0.0264610816 -0.0069447731
0.0195944640 0.0264610816 -0.0099490214
0.0160278810 0.0264610816 -0.0085530191
0.0227109529 0.0165530765 -0.0208899206
0.0272699054 0.0192905900 -0.0144785012
-0.0259332798 0.0264610816 -0.0071817503
-0.0185093709 0.0264610816 -0.0095894675
-0.0285612759 0.0227481268 -0.0113608583
-0.0275673114 0.0233401378 -0.0137604997
0.0170699448 0.0264610816 -0.0025665339
0.0139767720 0.0264610816 -0.0024029265
0.0261865154 0.0264610816 -0.0069033792
0.0300757608 0.0204190304 -0.0070202945
-0.0055494678 0.0264610816 -0.0013109690
-0.0279986470 0.0264610816 -0.0037620755
-0.0108428210 0.0264610816 -0.0017817853
-0.0306739885 0.0246552264 -0.0024762976
-0.0301201936 0.0173460955 -0.0066827934
0.0218011665 0.0264610816 0.0024823376
0.0180018462 0.0264610816 0.0039827103
0.0307873230 0.0225368272 -0.0016154356
0.0308157329 0.0224536666 0.0013996488
0.0047915777 0.0264610816 0.0106409376
0.0092359401 0.0264610816 0.0174730447
0.0104057808 0.0264610816 0.0238354661
0.0000880526 0.0264610816 0.0295776353
0.0045283458 0.0264610816 0.0233700282
0.0031035803 0.0264610816 0.0259894026
-0.0021957247 0.0264610816 0.0135458775
-0.0009562121 0.0264610816 0.0041358494
0.0171208798 0.0264610816 0.0098728623
0.0274276303 0.0264610816 0.0085411691
0.0245018339 0.0264610816 0.0114123550
0.0225152410 0.0264610816 0.0144780643
0.0059332771 0.0264610816 0.0055446077
0.0132260146 0.0264610816 0.0082119778
0.0105621198 0.0264610816 0.0156468852
0.0140286755 0.0264610816 0.0165062531
-0.0184153428 0.0264610816 0.0095737162
-0.0107362137 0.0264610816 0.0031429804
-0.0252898999 0.0264610816 0.0080101943
-0.0175207832 0.0264610816 0.0010831665
-0.0267146314 0.0264610816 0.0056516300
-0.0155369333 0.0264610816 0.0011707983
-0.0036788224 0.0264610816 0.0135365030
-0.0025909677 0.0264610816 0.0083766491
-0.0110428201 0.0264610816 0.0139001666
-0.0164362479 0.0264610816 0.0252162937
-0.0079613496 0.0264610816 0.0104138389
-0.0115695156 0.0264610816 0.0113675964
-0.0206604246 0.0264610816 0.0132165319
-0.0185528265 0.0264610816 0.0125388544
-0.0304703856 0.0229179693 0.0040228203
0.0300811692 0.0186484622 0.0069792115
0.0299227731 0.0261166257 0.0080739109
-0.0274910919 0.0244852978 0.0139445061
-0.0297245452 0.0196920117 0.0085524752
0.0284182150 0.0200621808 0.0117062340
0.0244296503 0.0263480317 0.0186500760
-0.0231298743 0.0226518896 0.0203439759
0.0224555690 0.0227545636 0.0212227528
0.0218281775 0.0221083590 0.0219910114
-0.0197492236 0.0236371391 0.0235862447
-0.0197625100 0.0178373432 0.0235760497
0.0166848425 0.0226087066 0.0259376245
0.0125690265 0.0242333246 0.0280608335
-0.0100391677 0.0257214767 0.0291087339
0.0102578811 0.0224495877 0.0290181403
0.0079205448 0.0201328487 0.0299572353
-0.0004068416 0.0199595822 0.0309464319
-0.0042464396 0.0212380582 0.0304409397
0.0033863313 0.0220675797 0.0305541755
0.0295361694 0.0252118465 0.0363621099
0.0404907828 0.0221244974 0.0002247573
0.0255316186 0.0238858199 0.1291676966
-0.0248691156 0.0245577542 0.1149137357
-0.0316360732 0.0239978028 0.0287897812
0.0283022527 0.0229273194 0.0695017478
0.0280195488 0.0239452726 0.0635751465
-0.0299765041 0.0190754062 0.0739074863
0.0276190012 0.0230395936 0.0431764310
0.0261760324 0.0232252856 0.1338165411
-0.0365327045 0.0236351149 0.0175058992
-0.0261104688 0.0232784032 0.1145304894
-0.0261496622 0.0170458314 0.1525000036
0.0267857066 0.0235268375 0.0823779288
-0.0279395528 0.0231855828 0.0529988080
-0.0279527146 0.0217659975 0.0838777352
0.0289329909 0.0204471960 0.0631867190
-0.0291958636 0.0193677305 0.0635837268
0.0300772136 0.0177109902 0.1292194900
0.0277437107 0.0210128507 0.1378054104
0.0291624860 0.0192983536 0.1006557308
0.0292427715 0.0191526254 0.1038607135
0.0268138379 0.0224129178 0.1320399113
0.0278283164 0.0211132496 0.1054341755
0.0266771736 0.0225958101 0.1291347945
-0.0283497118 0.0201423262 0.1172018749
-0.0277317531 0.0209904832 0.1407987508
-0.0296623630 0.0181963023 0.1394008716
-0.0275190734 0.0213572993 0.1113989703
-0.0285903029 0.0197914166 0.1183805371
0.0297669824 0.0175142976 0.1438804213
-0.0275367899 0.0207452869 0.1458427739
-0.0286719594 0.0191007090 0.1492184957
-0.0288492763 0.0198177948 0.0936091498
-0.0289828955 0.0193259055 0.1134287429
-0.0293834026 0.0188018237 0.1133824923
-0.0276017464 0.0197549431 0.0542275413
-0.0341668895 0.0200131124 0.0222575746
-0.0265154480 0.0202370551 0.0478612108
0.0288862149 0.0197837242 0.0933211524
0.0151234511 0.0127662910 0.1424999833
0.0173924842 0.0112918179 0.1424999833
0.0253002033 0.0157026928 0.1424999833
0.0265332542 0.0159086042 0.1488016964
-0.0211859488 0.0152723227 0.1424999833
-0.0161164246 0.0130022219 0.1424999833
-0.0035706291 0.0025751937 0.1424999833
-0.0235547195 0.0197903049 0.1429877464
-0.0267276447 0.0156552693 0.1447361560
0.0254826674 0.0186536111 0.0490509635
0.0331271136 0.0182037150 0.0236646033
-0.0253207287 0.0196689048 0.0398241363
0.0304368482 0.0180476993 0.0750403598
0.0292418219 0.0191964146 0.0639827002
-0.0316452938 0.0148182466 0.0776477836
0.0284369775 0.0204024730 0.1510223299
-0.0271478571 0.0192878395 0.0532120281
0.0253214666 0.0194679453 0.0383910113
0.0320607728 0.0142558062 0.0849915653
0.0292940018 0.0191086330 0.0994781578
0.0308851535 0.0164358653 0.1304201320
0.0296450784 0.0166620813 0.0654839717
0.0401325183 0.0188748197 0.0050853608
0.0378062289 0.0168526245 0.0140139588
0.0294047867 0.0189541630 0.0295504084
-0.0291223353 0.0161101393 0.0632357226
-0.0302971136 0.0182438766 0.0828557637
-0.0299795925 0.0179581101 0.1143665838
-0.0303920488 0.0172570583 0.1109103782
-0.0306879858 0.0168322984 0.0927852747
0.0269192896 0.0165343717 0.0562946316
-0.0278646652 0.0108956963 0.0631097741
-0.0239477849 0.0181936119 0.0364369724
0.0249760462 0.0160409328 0.0532539268
-0.0302832168 0.0175315012 0.1504866589
-0.0333210108 0.0103890416 0.1509857593
-0.0361352191 0.0165538676 0.0182672519
0.0191133873 0.0167995183 0.0369140114
-0.0160174908 0.0162174694 0.0445027686
0.0134174195 0.0164465308 0.0406600653
0.0317805819 0.0146363509 0.0915705448
0.0041195013 0.0162585666 0.0425882198
-0.0056965126 0.0160275097 0.0435544599
-0.0053279850 0.0164610837 -0.0364316005
0.0002314358 0.0164610837 -0.0382299468
0.0064671601 0.0164610837 -0.0351931931
0.0162298962 0.0164610837 -0.0332768097
-0.0117803971 0.0164610837 -0.0334775591
-0.0074002480 0.0164610837 -0.0362961400
0.0182486824 0.0164610837 -0.0258170718
0.0214146815 0.0164610837 -0.0277338162
-0.0190678025 0.0164610837 -0.0351722979
-0.0172816807 0.0164610837 -0.0353696290
-0.0226024702 0.0164610837 -0.0221913579
-0.0219601783 0.0164610837 -0.0232760973
0.0257129863 0.0164610837 -0.0213669466
0.0347906092 0.0164610837 -0.0173399822
-0.0311128052 0.0164610837 -0.0237762821
-0.0355125829 0.0164610837 -0.0148178192
-0.0377587190 0.0164610837 -0.0080100019
-0.0293929438 0.0164610837 -0.0147908841
0.0348860853 0.0164610837 -0.0159170798
0.0351057477 0.0164610837 -0.0126538439
0.0360378218 0.0164610837 -0.0075039404
0.0390545818 0.0164610837 -0.0037962773
-0.0321051165 0.0164610837 -0.0057374180
0.0383480959 0.0164610837 0.0006288799
0.0390813755 0.0164610837 0.0052180738
-0.0374614180 0.0164610837 0.0102600125
-0.0372273935 0.0164610837 0.0086276596
-0.0254184731 0.0164610837 0.0299772775
-0.0335472240 0.0164610837 0.0119043854
0.0317107931 0.0164610837 0.0095255827
0.0342788000 0.0164610837 0.0160465956
-0.0331582550 0.0164610837 0.0212472819
-0.0252786136 0.0164610837 0.0216868868
0.0300090107 0.0164610837 0.0223359582
0.0212922838 0.0164610837 0.0245236192
0.0254713519 0.0164610837 0.0273866729
-0.0184034942 0.0164610837 0.0340718457
-0.0157437557 0.0164610837 0.0276359866
0.0095241741 0.0164610837 0.0305293543
-0.0153170213 0.0164610837 0.0285149588
-0.0097170992 0.0164610837 0.0293576039
0.0025520591 0.0164610837 0.0333983983
0.0111072825 0.0164610837 0.0360292206
-0.0086901316 0.0164610837 0.0370240638
-0.0005077224 0.0164610837 0.0366802852
0.0005741180 0.0164610837 0.0401014552
0.0008734358 0.0158069650 0.0449781962
0.0330696133 0.0108642368 0.1370988280
0.0330056050 0.0114997778 0.1055366305
0.0326226724 0.0121614007 0.1290739448
0.0325968300 0.0121886921 0.1318361429
0.0318689566 0.0143002457 0.1153202086
0.0313535828 0.0154850597 0.1016091719
-0.0320143346 0.0128750858 0.1424999833
-0.0320379732 0.0139265462 0.1057129034
-0.0325404910 0.0127963708 0.0953376468
-0.0325653435 0.0121327335 0.1412331847
-0.0317457420 0.0142790554 0.1422332792
-0.0325872732 0.0126406524 0.1029752293
-0.0318297155 0.0140872027 0.1402338265
-0.0317460703 0.0146257766 0.0935507410
0.0323942396 0.0117253366 0.1464163412
-0.0315941043 0.0138351092 0.1425171055
-0.0314518321 0.0142102500 0.1481807925
-0.0050017212 0.0152699517 0.0465699462
0.0305001843 0.0146274037 0.0691518804
-0.0311506086 0.0138152831 0.0719609796
0.0091160721 0.0031207372 0.1424999833
0.0118207714 0.0053399060 0.1424999833
0.0112291662 0.0044476834 0.1424999833
0.0294191826 0.0092896881 0.1482389487
0.0284676815 0.0115868142 0.1512277120
-0.0159401042 0.0087132175 0.1424999833
-0.0212749340 0.0063046222 0.1424999833
-0.0287259175 0.0109633775 0.1428209102
0.0299111407 0.0115934222 0.1525000036
0.0219125195 0.0142817642 0.0523161837
-0.0076351916 0.0144149721 0.0484610338
0.0286340205 0.0101401220 0.0654651014
-0.0293765370 0.0137250577 0.0647493134
0.0102904206 0.0139031452 0.0494427289
-0.0264473876 0.0126198713 0.0591699543
0.0188986547 0.0127315017 0.0528947200
-0.0141331843 0.0135162162 0.0504512198
-0.0330364842 0.0110342996 0.0832724802
0.0057135526 0.0118690664 0.0526128697
0.0209630036 0.0124732465 0.0542471295
0.0311919478 0.0107617923 0.0716895570
0.0320377578 0.0069038641 0.1525000036
-0.0234491398 0.0117029635 0.0568684276
-0.0333987261 0.0102691634 0.1108267186
0.0336047057 0.0095961128 0.1133553725
0.0092520195 0.0119179105 0.0525407696
0.0330089081 0.0104117139 0.0811304758
-0.0039024194 0.0103619637 0.0542617430
-0.0332278333 0.0093593878 0.0814076151
-0.0343312725 0.0051280439 0.0869907253
0.0299180857 0.0064999649 0.0700252696
0.0269879161 0.0082732049 0.0642294704
-0.0170174806 0.0094013620 0.0564235260
-0.0250382834 0.0075046856 0.0623237596
0.0339721310 0.0083974944 0.1210076893
0.0291690540 0.0056192004 0.0692960702
-0.0337619268 0.0090765492 0.1063292725
-0.0274034627 0.0058097635 0.0664391400
-0.0345741144 0.0011886794 0.1525000036
-0.0098297752 0.0083116477 0.0564065622
0.0023212699 0.0073126679 0.0570907377
-0.0021407703 0.0071367164 0.0572208593
-0.0239761836 0.0029996890 0.0651977902
0.0347007935 0.0025996852 0.1393949489
0.0346787490 0.0026701283 0.1419412552
0.0344515186 0.0053675747 0.1230110617
0.0341419026 0.0073393565 0.1362603440
0.0341242691 0.0076063426 0.1280510299
0.0340295649 0.0081447402 0.1184261618
-0.0341465696 0.0074998706 0.1129026469
-0.0342521919 0.0062596946 0.1374397393
-0.0340752341 0.0076831267 0.1391412571
-0.0343460827 0.0062400320 0.0996638820
-0.0348058855 0.0016396223 0.1404474897
-0.0343714196 0.0059527371 0.1036052535
0.0340021097 0.0057476769 0.1470581364
-0.0340082557 0.0056970295 0.1439502960
0.0223969780 0.0032030111 0.1424999833
0.0248710407 0.0034236176 0.1424999833
0.0075134789 0.0016224491 0.1424999833
0.0304902556 0.0038718920 0.1430263646
0.0301534872 0.0064299033 0.1463783866
-0.0162831478 0.0007001470 0.1424999833
-0.0141255917 0.0021829240 0.1424999833
-0.0300480883 0.0072304877 0.1459407565
0.0309892418 0.0010859886 0.1525000036
-0.0306287048 0.0039436595 0.1525000036
-0.0340937791 0.0040447234 0.0840812367
-0.0128490595 0.0057940506 0.0589936548
0.0178754815 0.0052423071 0.0605028155
-0.0183009590 0.0046829099 0.0609975927
-0.0345041561 0.0052756410 0.0984774597
-0.0349457317 0.0005247687 0.1386029117
-0.0111506992 0.0041667048 0.0599153748
0.0329777975 0.0009427011 0.0802742641
-0.0338477843 0.0043987446 0.0823657658
-0.0051702129 0.0049218475 0.0589576860
0.0286707228 0.0016685565 0.0710448989
0.0295905596 0.0021611776 0.0721487333
-0.0299733651 -0.0028375279 0.0757177302
0.0165409467 0.0031572396 0.0616272589
-0.0156403706 -0.0008101869 0.0640991845
-0.0133210897 -0.0022544280 0.0644237787
-0.0347927928 0.0034931795 0.0957396124
0.0348020727 0.0019597623 0.0906928446
0.0349738195 0.0004412916 0.1142264373
0.0349420122 0.0009776221 0.1155478530
-0.0349363921 0.0010721425 0.1001669257
0.0256535981 -0.0017797623 0.0699233146
0.0135716726 -0.0023745147 0.0647254927
-0.0073397455 -0.0049444049 0.0651931539
-0.0230051985 0.0010008338 0.0660422160
0.0015876238 -0.0032569551 0.0639011820
-0.0018956899 -0.0000196611 0.0620855647
-0.0026978574 -0.0054823226 0.0652406793
-0.0339290085 -0.0004086760 0.0840915335
0.0215547287 -0.0036719227 0.0683612672
-0.0223774574 -0.0010696934 0.0670286331
-0.0347531584 -0.0015323131 0.0904866821
0.0345042994 -0.0045893369 0.1302472752
0.0342394025 -0.0070297338 0.1239919014
0.0344162691 -0.0058710336 0.1167898487
0.0343021851 -0.0061549113 0.1326402305
0.0342812046 -0.0065950771 0.1261768233
0.0348114599 -0.0026780588 0.1108114320
0.0349574758 -0.0010053168 0.1130312986
0.0340471121 -0.0053770460 0.1456195163
0.0215196896 -0.0001249504 0.1424999833
0.0152597834 -0.0012977341 0.1424999833
0.0307259416 -0.0005900216 0.1424999833
0.0303256339 -0.0051223192 0.1439098236
0.0306004251 -0.0030350704 0.1477780757
-0.0202945103 -0.0000765336 0.1424999833
-0.0224925326 -0.0009321130 0.1424999833
0.0253768767 -0.0102235849 0.1424999833
0.0105987741 -0.0059533178 0.1424999833
0.0275602308 -0.0128771726 0.1424999833
0.0033539383 -0.0075381647 0.1424999833
0.0028532353 -0.0098042808 0.1424999833
0.0066892954 -0.0149193403 0.1424999833
0.0213372147 -0.0223282719 0.1424999833
0.0155559159 -0.0218703063 0.1424999833
0.0229917025 -0.0163465632 0.1424999833
0.0086744388 -0.0056825286 0.1424999833
0.0240980716 -0.0150427177 0.1424999833
-0.0095252707 -0.0265011362 0.1424999833
-0.0077196335 -0.0140382249 0.1424999833
-0.0034831841 -0.0092481929 0.1424999833
-0.0010606461 -0.0199746603 0.1424999833
-0.0056574363 -0.0217457199 0.1424999833
0.0014826595 -0.0107009573 0.1424999833
0.0012611074 -0.0081249621 0.1424999833
0.0003235641 -0.0130390706 0.1424999833
-0.0238484492 -0.0108530122 0.1424999833
-0.0153192041 -0.0062261234 0.1424999833
-0.0265728310 -0.0113133217 0.1424999833
-0.0162894961 -0.0126122076 0.1424999833
-0.0211255508 -0.0197446154 0.1424999833
-0.0147851793 -0.0227009745 0.1424999833
-0.0122469634 -0.0184089416 0.1424999833
-0.0095154090 -0.0151859681 0.1424999833
-0.0308787326 -0.0009211136 0.1476656533
-0.0346891792 -0.0000891063 0.1450369624
-0.0349221816 -0.0013118654 0.0976342691
-0.0348378369 -0.0027341220 0.1088398046
-0.0347311196 -0.0040785516 0.0973156693
-0.0343581314 -0.0054898330 0.1274222710
-0.0346232761 -0.0033936251 0.1209451475
-0.0346779091 -0.0027730840 0.1335804302
-0.0343135454 -0.0058380868 0.1288254080
-0.0342399369 -0.0065155375 0.1235497252
0.0308960166 -0.0034673994 0.1525000036
-0.0301008293 -0.0068298815 0.1520075832
-0.0328496889 -0.0052547376 0.1525000036
0.0308143462 -0.0040447012 0.0780178359
-0.0316675572 -0.0074516307 0.0822086099
-0.0276939165 -0.0085208604 0.0763807992
0.0337143638 -0.0059286916 0.0869354567
0.0153176156 -0.0054739804 0.0670614411
-0.0160810269 -0.0091989198 0.0694576448
-0.0179005002 -0.0082442463 0.0694940126
-0.0270940063 -0.0086573713 0.0758745701
0.0336847087 -0.0084531940 0.1524288898
0.0067294446 -0.0067242507 0.0661478512
-0.0150258516 -0.0113000748 0.0703394141
0.0344769217 -0.0055208970 0.0921978127
0.0312091464 -0.0076600759 0.0814353430
0.0342061777 -0.0071630132 0.1052095279
0.0242592745 -0.0070000324 0.0722668983
-0.0233710439 -0.0124913956 0.0752499148
-0.0053754985 -0.0123506740 0.0690312263
0.0335003745 -0.0089441065 0.0897569009
-0.0027105746 -0.0138547481 0.0696332040
-0.0333872658 -0.0075487657 0.0870546109
0.0340889415 -0.0077777341 0.1193704780
-0.0341225580 -0.0076447531 0.1032820739
0.0243194025 -0.0107694608 0.0749093902
0.0283816124 -0.0117946031 0.1466875993
0.0273594227 -0.0142623851 0.1519537928
-0.0297962958 -0.0083792584 0.1448114093
0.0303158974 -0.0167515097 0.1525000036
-0.0281402416 -0.0123773234 0.1489565809
0.0325287595 -0.0113706344 0.1450370042
0.0336495746 -0.0084152899 0.1475670866
-0.0310243670 -0.0153373787 0.1438093637
-0.0339606975 -0.0084338782 0.1193854508
-0.0335368437 -0.0098060924 0.0945042868
0.0328093113 -0.0115566483 0.1364903489
0.0326998090 -0.0120996479 0.1187075002
0.0334291692 -0.0100719530 0.1260182617
0.0322736399 -0.0134736374 0.1012037961
0.0336178972 -0.0095071676 0.1297792240
0.0329839183 -0.0115030886 0.0999720218
-0.0338721496 -0.0087349849 0.1362746261
-0.0329339587 -0.0114222489 0.1235529806
-0.0313417515 -0.0153712616 0.1404093675
-0.0331703727 -0.0107364477 0.1277743257
-0.0316501471 -0.0146668283 0.1330567090
-0.0328381089 -0.0114468678 0.1389777326
-0.0281071320 -0.0115364470 0.0792738302
-0.0332895377 -0.0104630430 0.1522076326
-0.0198974690 -0.0139700111 0.0740761956
0.0160379351 -0.0135642300 0.0720941107
-0.0151067558 -0.0193274896 0.0753761825
0.0248222396 -0.0153065668 0.0787241929
-0.0318926526 -0.0142585906 0.1038103615
0.0307068956 -0.0162284144 0.1520653844
-0.0126180307 -0.0135762961 0.0709583983
-0.0303478605 -0.0161963456 0.0888423822
0.0310537940 -0.0160661345 0.1028708853
0.0313393671 -0.0154698655 0.1045592140
-0.0312542753 -0.0156848754 0.1259219447
0.0096443381 -0.0190223852 0.0736530211
0.0299650238 -0.0155008537 0.0864955075
0.0062313719 -0.0187563499 0.0728774104
-0.0039520057 -0.0198292082 0.0732623620
-0.0264759463 -0.0150019745 0.0799640816
0.0035219523 -0.0200019756 0.0733310766
-0.0258192096 -0.0159419429 0.0800717788
0.0235805205 -0.0197566830 0.1447636079
0.0250520984 -0.0178388838 0.1517570711
0.0246503650 -0.0189303723 0.1525000036
-0.0240881265 -0.0190951547 0.1496677132
-0.0310005850 -0.0162314401 0.1179799517
0.0291171919 -0.0184556778 0.1465838015
-0.0306199177 -0.0162785987 0.1492806574
-0.0301428930 -0.0169696888 0.1491339548
-0.0308018667 -0.0165670967 0.1167042296
0.0286554822 -0.0199847713 0.1053659034
0.0283363310 -0.0202623479 0.1257928108
0.0280941104 -0.0206055651 0.1266439448
0.0281943987 -0.0204330459 0.1296535376
0.0287759175 -0.0198558018 0.0997336645
0.0297310038 -0.0183186741 0.1125163987
-0.0293565466 -0.0189989969 0.0943086695
-0.0304109259 -0.0172148238 0.0965858174
-0.0269161458 -0.0222212732 0.1363906670
-0.0288397353 -0.0194596635 0.1334632454
-0.0276530402 -0.0212427358 0.1260442455
-0.0287993312 -0.0197823135 0.1027729632
0.0188282506 -0.0189540237 0.0769206826
-0.0268979447 -0.0202302851 0.0868298614
-0.0255149070 -0.0213342686 0.1525000036
-0.0290245301 -0.0193236693 0.0923978873
-0.0260246222 -0.0225560405 0.0896193898
-0.0267453247 -0.0225376930 0.1004875498
-0.0268475933 -0.0223798670 0.1223721455
-0.0259115576 -0.0209277594 0.0859028079
-0.0123259925 -0.0214333473 0.0758605165
0.0272269875 -0.0219043401 0.1032132726
0.0248562013 -0.0242716423 0.1517948582
0.0098200770 -0.0233105689 0.0765550998
-0.0159021545 -0.0238114553 0.0793238123
0.0194753149 -0.0237964210 0.1472030256
-0.0214805702 -0.0222577334 0.1445442422
0.0193235103 -0.0239542687 0.1525000036
-0.0196599096 -0.0236547753 0.1505453826
-0.0251751185 -0.0230577219 0.0883748206
0.0263496728 -0.0230079371 0.1273231242
0.0209021702 -0.0232836945 0.0823622754
0.0035415648 -0.0247208030 0.0764770291
0.0247118173 -0.0241279534 0.1426328156
-0.0255490992 -0.0233861863 0.1489416885
-0.0212639141 -0.0271825264 0.1493138071
-0.0258127394 -0.0235854572 0.1149225220
-0.0257895734 -0.0236055556 0.1098941912
0.0241081617 -0.0251931286 0.1233985725
0.0235838426 -0.0256279012 0.1276846421
0.0223378310 -0.0266787620 0.1353258533
0.0258985157 -0.0234991481 0.1389471992
0.0244513322 -0.0249321159 0.1169837944
0.0260330114 -0.0233756020 0.1367158870
-0.0248194662 -0.0246099904 0.1163004493
-0.0219943117 -0.0270030966 0.1323939659
-0.0232111240 -0.0260372201 0.1161533842
-0.0244489923 -0.0249258814 0.1182801218
-0.0231645742 -0.0261504437 0.1057269731
-0.0126318049 -0.0271087437 0.0808926457
-0.0230395562 -0.0260527207 0.1498110055
0.0220248567 -0.0262020845 0.0888732544
0.0113726037 -0.0251779877 0.0784811393
-0.0007984569 -0.0257482776 0.0770980975
-0.0216140759 -0.0274462479 0.1019212453
-0.0217713140 -0.0273103488 0.1089712492
-0.0030259274 -0.0267859841 0.0780909304
0.0200950329 -0.0286393700 0.1377042411
0.0103743912 -0.0289698828 0.1454968579
0.0138483782 -0.0275309100 0.1513750050
-0.0148185938 -0.0271290341 0.1441555823
0.0109558134 -0.0317877348 0.1525000036
-0.0128145789 -0.0279591240 0.1489595419
-0.0180282682 -0.0293846619 0.0899998942
0.0200338421 -0.0286693979 0.1079363598
-0.0210508363 -0.0279027425 0.1025202351
0.0102425545 -0.0295522815 0.0827929206
-0.0200032572 -0.0286774441 0.0938620239
0.0126885860 -0.0322436319 0.1478961243
-0.0172969052 -0.0298249975 0.1434840119
-0.0159100717 -0.0305528641 0.1482990123
-0.0198681469 -0.0287955137 0.1198358658
0.0196662959 -0.0289432721 0.0961033650
0.0157535127 -0.0310841481 0.1234095588
0.0179779789 -0.0298189204 0.1399542706
0.0183895182 -0.0296295770 0.1354431555
0.0188933403 -0.0293357279 0.1404237579
0.0172477131 -0.0303820233 0.1073485838
0.0185483422 -0.0296216765 0.0953018810
-0.0182617836 -0.0297974051 0.1037541097
-0.0162045150 -0.0309245226 0.1095799958
-0.0154075883 -0.0313388632 0.1102595254
-0.0137751761 -0.0320258714 0.1396930509
-0.0140551527 -0.0319470848 0.1278750317
-0.0179455229 -0.0298485910 0.1377012319
0.0024538190 -0.0301029574 0.0814552701
-0.0109799148 -0.0302087817 0.1525000036
0.0001765891 -0.0309767514 0.1475013547
0.0079081505 -0.0299588708 0.1494837239
-0.0044582711 -0.0304130561 0.1477310958
-0.0042534457 -0.0304400219 0.1512452183
-0.0079921339 -0.0316065647 0.1525000036
0.0163479676 -0.0306156235 0.0910848860
-0.0155055526 -0.0313005260 0.1041988415
-0.0132470624 -0.0323437133 0.1297768371
-0.0133850481 -0.0323101551 0.1050335496
-0.0060343679 -0.0317065448 0.0843557356
0.0129674822 -0.0324777212 0.1331108014
0.0106794292 -0.0330493408 0.1504834374
0.0121986011 -0.0324823637 0.0910532305
-0.0009572078 -0.0328753999 0.0854144030
0.0062970918 -0.0339258294 0.1488996386
-0.0112514181 -0.0327046955 0.1456011615
0.0124784084 -0.0326895268 0.1214272142
-0.0118003218 -0.0328927868 0.0953789290
-0.0108016013 -0.0332313858 0.0962023985
0.0091127059 -0.0336446278 0.1228992798
0.0070448469 -0.0341833432 0.1175335468
0.0057986042 -0.0344346390 0.1278596574
0.0078365966 -0.0338715718 0.1390862255
0.0094077611 -0.0336555279 0.1025599135
0.0122007055 -0.0327983619 0.1164878162
-0.0105990919 -0.0332301300 0.1313194167
-0.0089909931 -0.0337248643 0.1123312125
-0.0090552130 -0.0337250234 0.1092452038
-0.0088165449 -0.0336691147 0.1313915306
-0.0104021571 -0.0333203586 0.1232726533
-0.0051689501 -0.0337654022 0.0888051665
-0.0074142237 -0.0339604109 0.1498909067
-0.0081009843 -0.0339872419 0.1017281200
-0.0077141745 -0.0340657479 0.1037571859
0.0073182210 -0.0341837312 0.0996728901
-0.0006067097 -0.0348775375 0.1506215018
0.0047310144 -0.0346480181 0.0947298361
-0.0044295124 -0.0347084073 0.1371146615
-0.0018155158 -0.0344469994 0.1481535292
-0.0025527426 -0.0347911528 0.0934212068
-0.0041183457 -0.0347335698 0.1202620478
0.0024441278 -0.0348325897 0.1258153959
0.0005323862 -0.0348241596 0.1274177429
-0.0007061979 -0.0349061393 0.1118355358
-0.0001436476 -0.0349165445 0.1098577730
0.0026549755 -0.0348422372 0.0967932526
0.0029513886 -0.0348242214 0.1010578706
-0.0021879152 -0.0348835334 0.0953403563
-0.0015790700 -0.0349336987 0.1047752351
