-0.0289030735 0.0016296584 -0.0284750808
-0.0276473353 0.0015415478 -0.0289999992
-0.0244229418 0.0026346717 -0.0289999992
-0.0164286919 -0.0163925639 -0.0289999992
-0.0158585746 -0.0157735232 -0.0289999992
-0.0258113668 -0.0062193269 -0.0289999992
-0.0186448384 -0.0119614138 -0.0289999992
-0.0174176773 -0.0137757070 -0.0289999992
-0.0248911267 0.0001867676 -0.0289999992
-0.0226968495 0.0008796585 -0.0289999992
-0.0245167538 -0.0020498151 -0.0289999992
-0.0232696303 -0.0045280549 -0.0289999992
-0.0219720202 -0.0067535371 -0.0289999992
-0.0201967461 -0.0092459101 -0.0289999992
-0.0147865754 -0.0141358752 -0.0289999992
-0.0110656954 -0.0216102129 -0.0289999992
-0.0058957496 -0.0271429316 -0.0289999992
-0.0069056028 -0.0265663599 -0.0289999992
-0.0084273863 -0.0245369567 -0.0289999992
-0.0189240531 -0.0177864462 -0.0289999992
-0.0225504803 -0.0125098998 -0.0289999992
-0.0138177179 -0.0213703673 -0.0289999992
-0.0176084134 -0.0216843754 -0.0289999992
-0.0226309546 -0.0152674251 -0.0289999992
-0.0245250598 -0.0144112339 -0.0289999992
-0.0282029902 0.0066126292 -0.0276864992
-0.0252599021 0.0048350176 -0.0289999992
-0.0279568897 0.0072750119 -0.0289999992
-0.0237837029 0.0074157026 -0.0289999992
-0.0271274832 -0.0099858696 -0.0281443813
-0.0213256563 0.0097853350 -0.0289999992
-0.0216490577 0.0100903978 -0.0289999992
-0.0235587184 0.0109876274 -0.0289999992
-0.0212935147 -0.0196138385 -0.0289340930
-0.0223782832 0.0153612874 -0.0289999992
-0.0204575838 0.0130593564 -0.0289999992
-0.0204772455 0.0187855639 -0.0289999992
-0.0206377406 0.0193074798 -0.0289999992
-0.0183311467 0.0223281896 -0.0289846103
-0.0167976254 0.0174460601 -0.0289999992
-0.0199596525 0.0200088596 -0.0289999992
-0.0169176168 0.0211546838 -0.0289999992
-0.0198904388 -0.0017983462 -0.0245698902
-0.0198248163 -0.0023992989 -0.0278550925
-0.0197094244 -0.0029421774 -0.0200766232
-0.0190919621 -0.0058471088 -0.0202382837
-0.0197204642 0.0028902362 -0.0277622760
-0.0194684067 0.0040760729 -0.0259946202
-0.0198904388 -0.0005054317 -0.0204895739
-0.0181383980 -0.0081629925 -0.0201638256
-0.0186408742 -0.0070344117 -0.0244519823
-0.0177162755 -0.0091110935 -0.0245098710
-0.0187992746 0.0066786362 -0.0239063438
-0.0189303060 0.0063843354 -0.0256845896
-0.0192837476 0.0049448256 -0.0255285937
-0.0172852113 -0.0100485826 -0.0256618415
-0.0171253298 -0.0102686418 -0.0218362232
-0.0159281509 -0.0119164164 -0.0255248028
-0.0160912017 0.0116919941 -0.0256704648
-0.0172776375 0.0100590051 -0.0250777443
-0.0179652649 0.0085518515 -0.0235007774
-0.0145352363 -0.0249546401 -0.0285641795
-0.0140487778 0.0252403623 -0.0286799651
-0.0131471278 0.0204613153 -0.0289999992
-0.0118904323 0.0230528349 -0.0289999992
-0.0153712414 0.0233649448 -0.0289999992
-0.0139584034 -0.0141970238 -0.0195873808
-0.0127759225 -0.0152617328 -0.0250716779
-0.0123077906 -0.0156832415 -0.0210787067
-0.0135161348 0.0145952411 -0.0247202978
-0.0129235458 0.0151288108 -0.0257088304
-0.0166661290 0.0109006734 -0.0218050744
-0.0110146301 -0.0267243817 -0.0283931448
-0.0058809362 0.0200413726 -0.0289999992
-0.0093075121 0.0232706299 -0.0289999992
-0.0046075557 0.0202162202 -0.0289999992
-0.0060535043 0.0227930177 -0.0289999992
-0.0113240304 -0.0164295681 -0.0267052090
-0.0084598192 -0.0180832218 -0.0255216020
-0.0087832274 -0.0178965028 -0.0210680234
-0.0069428973 -0.0215076522 -0.0289999992
-0.0089491548 0.0178007025 -0.0276156984
-0.0120639240 0.0159028150 -0.0195886103
-0.0119075507 0.0160436171 -0.0273095133
-0.0058598064 -0.0190100793 -0.0221511450
-0.0051013812 -0.0192565057 -0.0260868749
-0.0044462941 -0.0194693569 -0.0234095325
-0.0063541429 -0.0195926904 -0.0289999992
-0.0080220320 0.0183075271 -0.0253077476
-0.0087398723 0.0179215309 -0.0251715437
-0.0105662425 0.0168670732 -0.0196454894
-0.0073355498 0.0280537470 -0.0287446443
-0.0032768208 0.0227529950 -0.0289999992
-0.0052947236 0.0262453204 -0.0289999992
-0.0040493846 0.0245405529 -0.0289999992
-0.0026681573 -0.0197195677 -0.0202943978
-0.0033211262 -0.0196509374 -0.0218840175
-0.0027127401 -0.0197148807 -0.0258221891
-0.0019135263 -0.0267004105 -0.0289999992
-0.0007431513 -0.0210345297 -0.0289999992
-0.0039029948 0.0195897788 -0.0287851705
-0.0055880070 0.0190983888 -0.0234356538
-0.0050999203 0.0192569787 -0.0259701075
-0.0003038151 -0.0261507543 -0.0289999992
-0.0004972644 -0.0269298182 -0.0289999992
0.0003185625 0.0255666523 -0.0289999992
-0.0001299056 0.0215886361 -0.0289999992
-0.0002357435 0.0199752208 -0.0233941279
-0.0014007564 0.0198527730 -0.0252572458
0.0024905514 0.0236785687 -0.0289999992
0.0041272974 0.0195662038 -0.0289503389
0.0014459573 0.0198480234 -0.0282745320
0.0021395253 -0.0238826857 -0.0289999992
0.0006107797 -0.0199358055 -0.0246193994
0.0002384229 -0.0199749424 -0.0233901364
0.0019283748 -0.0197973203 -0.0247328017
0.0020957198 -0.0288471410 -0.0282331177
0.0043088425 -0.0230844913 -0.0289999992
0.0064182064 0.0281653100 -0.0277591155
0.0061758168 0.0274616252 -0.0289999992
0.0041328442 0.0260822310 -0.0289999992
0.0099859192 -0.0216589241 -0.0289999992
0.0074981025 -0.0242665286 -0.0289999992
0.0079565028 -0.0260700790 -0.0289999992
0.0055716811 -0.0191036973 -0.0197918050
0.0080318311 -0.0183043449 -0.0275426069
0.0078164946 -0.0183743119 -0.0276835962
0.0068504183 0.0237958133 -0.0289999992
0.0047332713 0.0193761082 -0.0210811812
0.0063161332 0.0188618072 -0.0258366333
0.0009518942 0.0198999495 -0.0198032120
0.0161283882 -0.0212047058 -0.0289999992
0.0085877661 -0.0181555465 -0.0289999992
0.0131840934 -0.0241960074 -0.0289999992
0.0092221938 -0.0176430649 -0.0233302913
0.0093992768 -0.0175408258 -0.0245206191
0.0109854636 -0.0166250403 -0.0238331603
0.0105777760 0.0224492349 -0.0289999992
0.0103847543 0.0230085949 -0.0289999992
0.0104725059 0.0185792947 -0.0289999992
0.0112293558 0.0173330018 -0.0289999992
0.0085714599 0.0180187652 -0.0287804235
0.0073239359 0.0185343526 -0.0263296769
0.0071621640 0.0185869155 -0.0265547129
0.0131572662 0.0258343608 -0.0275954369
0.0164744463 -0.0163408852 -0.0289999992
0.0181686701 -0.0198430141 -0.0289999992
0.0182133188 -0.0183027067 -0.0289999992
0.0126087272 -0.0154122769 -0.0228186219
0.0134260678 -0.0146763397 -0.0249859350
0.0141469046 -0.0140272952 -0.0255214182
0.0149300219 0.0227135116 -0.0289999992
0.0123201518 0.0177709913 -0.0289999992
0.0143975442 0.0190196814 -0.0289999992
0.0144959271 0.0137130327 -0.0284655361
0.0131480702 0.0149266485 -0.0283729100
0.0111709366 0.0165179539 -0.0225895331
0.0107314997 -0.0268110893 -0.0280835522
0.0166500468 -0.0131897782 -0.0289999992
0.0213061332 -0.0130467688 -0.0289999992
0.0211346127 -0.0154738239 -0.0289999992
0.0157315766 -0.0121869784 -0.0225670415
0.0156540411 -0.0122936969 -0.0227456465
0.0159273675 -0.0119174945 -0.0257489709
0.0166023317 0.0173376109 -0.0289999992
0.0200638758 0.0200251225 -0.0289999992
0.0177086809 0.0123239093 -0.0289999992
0.0150583370 0.0131136110 -0.0261549775
0.0162825714 0.0114285965 -0.0251895314
0.0148298817 0.0134123370 -0.0201516875
0.0191874398 -0.0076053124 -0.0289999992
0.0200601464 -0.0099546180 -0.0289999992
0.0230046356 -0.0120111322 -0.0289999992
0.0214813470 -0.0124812494 -0.0289999992
0.0182248379 -0.0079688453 -0.0203874237
0.0181023583 -0.0082439373 -0.0259873004
0.0188183291 -0.0066358411 -0.0265356372
0.0209577582 0.0164920055 -0.0289999992
0.0201361410 0.0094679244 -0.0289999992
0.0224484038 0.0119241047 -0.0289999992
0.0184093502 0.0075544211 -0.0275306608
0.0172537312 0.0100919083 -0.0219827472
0.0171791940 0.0101945000 -0.0215363087
0.0210034830 0.0199063447 -0.0276312943
0.0225888996 -0.0044480662 -0.0289999992
0.0230266202 -0.0068683505 -0.0289999992
0.0273109700 -0.0056055027 -0.0289999992
0.0197750046 -0.0026336467 -0.0193829660
0.0193914041 -0.0044383449 -0.0205541640
0.0193021867 -0.0048580782 -0.0261824038
0.0259059148 0.0112638580 -0.0289999992
0.0211035231 0.0085226564 -0.0289999992
0.0238854055 0.0086919969 -0.0289999992
0.0196369926 0.0032829387 -0.0264390994
0.0191984743 0.0053460058 -0.0286085174
0.0181115383 0.0082233162 -0.0235000792
0.0218934872 -0.0010164729 -0.0289999992
0.0243331925 0.0007935296 -0.0289999992
0.0264265180 -0.0026815737 -0.0289999992
0.0198904388 -0.0016190319 -0.0252800726
0.0198904388 -0.0011115963 -0.0241322200
0.0198904388 0.0017691983 -0.0268708325
0.0273722335 0.0087664883 -0.0289999992
0.0269036600 0.0086454576 -0.0289999992
0.0245995122 0.0014420321 -0.0289999992
0.0246227362 0.0024684885 -0.0289999992
0.0192697481 0.0050106865 -0.0195323936
0.0223421182 -0.0183505911 -0.0287384650
0.0237971270 0.0163951289 -0.0284200591
0.0265179335 0.0115175707 -0.0289861651
0.0279206815 0.0073911295 -0.0275419030
0.0283825344 -0.0057489144 -0.0281945309
-0.0285068004 -0.0028861029 -0.0274999999
-0.0274125004 0.0079332198 -0.0274999999
-0.0278003308 0.0043131265 -0.0218784936
-0.0278709870 0.0035506236 -0.0264607083
-0.0281021432 -0.0010560492 -0.0271506877
-0.0276117351 -0.0055616930 -0.0247148593
-0.0277755705 -0.0045803327 -0.0247281702
-0.0270433614 0.0075593169 -0.0238051193
-0.0268047985 0.0083977777 -0.0274059722
-0.0269589904 0.0078558499 -0.0252830156
-0.0255305677 -0.0117236401 -0.0272478315
-0.0267422653 -0.0086175586 -0.0226617305
-0.0264181072 -0.0097568547 -0.0259940525
-0.0256835892 0.0114163315 -0.0220042562
-0.0245186122 0.0137559216 -0.0243666168
-0.0238011451 -0.0150770951 -0.0238635324
-0.0227865323 -0.0164206593 -0.0271898871
-0.0242647874 -0.0142656706 -0.0227775270
-0.0232609448 0.0157924358 -0.0223183341
-0.0220548721 0.0173895337 -0.0249173932
-0.0187443191 -0.0215357467 -0.0274999999
-0.0190874699 -0.0205959060 -0.0271275881
-0.0213267170 -0.0183537666 -0.0241280207
-0.0185516373 0.0210843823 -0.0224010576
-0.0184743674 0.0211548231 -0.0259437246
-0.0151828207 -0.0236257043 -0.0240437710
-0.0142767135 -0.0241867420 -0.0254904946
-0.0179356625 -0.0216459177 -0.0250795876
-0.0158589071 0.0232070895 -0.0246531664
-0.0146300882 0.0239679417 -0.0255137978
-0.0151564320 0.0245278690 -0.0274999999
-0.0124724164 -0.0252813395 -0.0220463219
-0.0125823773 -0.0252358303 -0.0223165334
-0.0111837309 0.0257805789 -0.0220981130
-0.0090237166 0.0266173730 -0.0242855052
-0.0087756123 0.0272805822 -0.0274999999
-0.0076401772 -0.0271378990 -0.0217411351
-0.0090497784 -0.0266072766 -0.0255065909
-0.0074338482 0.0271764686 -0.0243297853
-0.0074054258 0.0271817816 -0.0221113382
-0.0054419149 0.0275488254 -0.0249443489
0.0004653329 -0.0280797035 -0.0272573049
-0.0029274274 -0.0280188645 -0.0245646554
-0.0006499648 -0.0283185619 -0.0274999999
-0.0010810488 0.0280797035 -0.0234781470
-0.0019141477 0.0280797035 -0.0273317637
0.0035080478 -0.0279103277 -0.0257177997
0.0039293227 -0.0278315778 -0.0242684693
0.0023140261 -0.0280797035 -0.0234783515
0.0054569209 0.0275460203 -0.0229327240
0.0076321812 0.0271393937 -0.0255703698
0.0043100549 0.0283608651 -0.0274999999
0.0091292836 -0.0265764761 -0.0238994297
0.0074042128 -0.0271820084 -0.0250466270
0.0077312356 0.0271180829 -0.0220363150
0.0121688334 0.0253989482 -0.0264872010
0.0113283226 0.0259272907 -0.0274999999
0.0132292065 -0.0248353307 -0.0243796719
0.0113092451 -0.0257319545 -0.0228005358
0.0132947526 0.0247947463 -0.0264325807
0.0139777976 0.0243718229 -0.0253293353
0.0149821234 0.0237499708 -0.0254829613
0.0177428502 -0.0218216894 -0.0228084797
0.0150530673 -0.0237060442 -0.0246210441
0.0193593784 -0.0203529676 -0.0274999999
0.0188560093 0.0208069104 -0.0239843138
0.0189547873 0.0207168622 -0.0269557924
0.0210221079 -0.0187571341 -0.0268224018
0.0221792238 -0.0172248654 -0.0254524932
0.0197663491 -0.0199770256 -0.0242528649
0.0217244579 0.0178270727 -0.0235034471
0.0232338084 0.0158283701 -0.0235864081
0.0242797837 -0.0150751050 -0.0274999999
0.0255053562 -0.0117742717 -0.0256731912
0.0226468082 -0.0166056839 -0.0223321629
0.0241390790 0.0145181271 -0.0255796205
0.0252393338 0.0123085169 -0.0260698850
0.0257995000 0.0115438990 -0.0274999999
0.0271759264 -0.0070934000 -0.0259775472
0.0251239842 -0.0125401703 -0.0232145475
0.0264608775 0.0096065331 -0.0265309167
0.0267483712 0.0085960986 -0.0235463431
0.0275389515 0.0058175005 -0.0256337693
0.0278834015 -0.0034166494 -0.0242858072
0.0271453592 -0.0072008322 -0.0241538382
0.0283366651 -0.0022956861 -0.0274999999
0.0278500665 0.0037763918 -0.0245098561
0.0281664404 0.0003621714 -0.0219322348
0.0279234622 -0.0029843259 -0.0229330893
0.0284016950 -0.0029115313 -0.0274999999
-0.0280950890 -0.0042505003 -0.0146966119
-0.0283186019 -0.0029391579 -0.0155273185
-0.0282847167 -0.0031985400 -0.0135155709
-0.0283632333 -0.0013617661 -0.0167740904
-0.0283632632 -0.0012048581 -0.0167834071
-0.0284002050 -0.0004010570 -0.0118391804
-0.0284380813 -0.0001979740 -0.0084846077
-0.0284764364 0.0000078469 -0.0049732494
-0.0284186123 0.0001098015 -0.0147234119
-0.0281345954 0.0035831917 -0.0178055132
-0.0283930792 0.0020666162 -0.0163963651
-0.0275190530 -0.0072226992 -0.0164740369
-0.0275434601 -0.0070951651 -0.0201215821
-0.0277090194 -0.0062795233 -0.0014143708
-0.0280076274 -0.0049554145 -0.0101164202
-0.0283460528 0.0014888200 -0.0047622238
-0.0281333767 0.0036877194 -0.0078193637
-0.0279591930 0.0048684219 -0.0196633333
-0.0279807501 0.0052630424 -0.0056975037
-0.0278358006 0.0055689541 -0.0203592194
-0.0279452025 0.0053017077 -0.0104285263
-0.0269406635 -0.0090304871 -0.0205975768
-0.0267736890 -0.0097396967 -0.0011748170
-0.0274542382 -0.0073530348 -0.0071691711
-0.0271728296 -0.0083923566 -0.0072743088
-0.0275891780 0.0068372823 -0.0062625901
-0.0273401786 0.0077855091 -0.0077653470
-0.0274625520 0.0074840943 -0.0151382429
-0.0269138988 0.0090887606 -0.0074813231
-0.0270013807 0.0088609805 -0.0152575466
-0.0254791853 -0.0126461353 -0.0121420670
-0.0258421309 -0.0118360365 -0.0204665953
-0.0260482268 -0.0112572285 -0.0059428895
-0.0255287190 -0.0124072614 -0.0021388089
-0.0267385106 0.0096382607 -0.0114275630
-0.0265233188 0.0101419022 -0.0141662221
-0.0260415322 0.0113839274 -0.0126702931
-0.0263704303 0.0104975562 -0.0197136578
-0.0250872045 -0.0127570626 -0.0215000007
-0.0248432915 -0.0138803759 -0.0122773484
-0.0251675872 -0.0132017851 -0.0022730724
-0.0252301322 -0.0130601428 -0.0014956681
-0.0254969326 0.0126479875 -0.0141866658
-0.0245426462 0.0142610687 -0.0203539369
-0.0254648837 0.0127751607 -0.0208460635
-0.0242969694 -0.0146654111 -0.0213550034
-0.0236592535 -0.0156868177 -0.0196469971
-0.0242905017 -0.0147052309 -0.0139670144
-0.0241346524 -0.0149998566 -0.0060149703
-0.0247658944 0.0139833917 -0.0051258606
-0.0252487923 0.0130140888 -0.0010476655
-0.0240476140 0.0151635428 -0.0087869248
-0.0238683982 0.0154389364 -0.0106732601
-0.0221316532 -0.0176371388 -0.0215000007
-0.0225834224 -0.0173626185 -0.0195190167
-0.0223937389 -0.0175658304 -0.0094235056
-0.0225633628 -0.0172906563 -0.0050411406
-0.0239229099 0.0153643821 -0.0032946970
-0.0222420889 0.0176304075 -0.0137746345
-0.0222364578 0.0176287024 -0.0131315527
-0.0210139691 -0.0190692446 -0.0151399854
-0.0202042048 -0.0199602017 -0.0207628752
-0.0213046946 -0.0188164343 -0.0081156845
-0.0213741236 -0.0187696540 -0.0051736653
-0.0200736134 0.0201444747 -0.0162181141
-0.0211207513 0.0190423171 -0.0101796960
-0.0215424717 0.0186011096 -0.0074009033
-0.0221762297 0.0177744690 -0.0040050497
-0.0198626496 -0.0200900042 -0.0215000007
-0.0185786414 -0.0215714907 -0.0147651358
-0.0190037894 -0.0211624166 -0.0068030875
-0.0195912999 -0.0206268308 -0.0133306039
-0.0194687540 0.0207135163 -0.0127473913
-0.0199138999 0.0202817321 -0.0087856040
-0.0201190399 0.0201092400 -0.0133782141
-0.0151291496 -0.0240572326 -0.0046519972
-0.0152184773 -0.0240119123 -0.0093770105
-0.0167470736 -0.0228740088 -0.0128857709
-0.0168640518 -0.0228257401 -0.0069943432
-0.0178441340 -0.0221354855 -0.0105791467
-0.0183291372 0.0216804064 -0.0172408134
-0.0188330065 0.0212162369 -0.0126707732
-0.0184227163 0.0216724516 -0.0045849117
-0.0177872357 0.0221989836 -0.0063101667
-0.0172068727 0.0225706699 -0.0190240935
-0.0165147685 0.0230941961 -0.0184120933
-0.0162792867 0.0232839796 -0.0100298413
-0.0142693217 -0.0246368101 -0.0130666450
-0.0150245137 -0.0241466589 -0.0070892898
-0.0162866100 0.0232751696 -0.0051874121
-0.0150140514 0.0242011726 -0.0168345956
-0.0107529330 -0.0263292795 -0.0116832858
-0.0123773952 -0.0255357561 -0.0199013435
-0.0113536260 -0.0260304887 -0.0118538676
-0.0131676821 -0.0251367881 -0.0169849949
-0.0127118855 -0.0254105287 -0.0010429044
-0.0138860944 -0.0248203003 -0.0143321944
-0.0144705562 0.0244942614 -0.0012404079
-0.0139299025 0.0248551417 -0.0026429793
-0.0128713738 0.0253018816 -0.0180674384
-0.0124165502 0.0255316505 -0.0168270745
-0.0126484174 0.0254214790 -0.0148367934
-0.0096339868 -0.0268031656 -0.0111053527
-0.0104869960 -0.0264405845 -0.0086564063
-0.0123988350 0.0255568214 -0.0023941572
-0.0123951072 0.0255603519 -0.0028830791
-0.0099734193 0.0266247003 -0.0170284220
-0.0080636880 -0.0272094838 -0.0158757366
-0.0060290100 -0.0277882541 -0.0150125237
-0.0058246564 -0.0278468472 -0.0176717746
-0.0082103888 -0.0272044814 -0.0020677628
-0.0092833788 -0.0268961630 -0.0123647946
-0.0103445678 0.0264645822 -0.0037810597
-0.0081035221 0.0272086800 -0.0184821840
-0.0076192055 0.0273418197 -0.0199495865
-0.0084078198 0.0271671706 -0.0042900015
-0.0085124823 0.0271294189 -0.0068004838
-0.0047546841 -0.0280781735 -0.0015749186
-0.0052877025 -0.0279757012 -0.0124264428
-0.0064944935 0.0276659827 -0.0101509430
-0.0062286875 0.0277470818 -0.0151020621
-0.0052773057 0.0279370923 -0.0165459452
-0.0014280817 -0.0283756886 -0.0177200673
-0.0044138575 -0.0280988368 -0.0188428982
-0.0018496983 -0.0283433508 -0.0156139389
-0.0009320672 -0.0284245438 -0.0165808423
-0.0020999661 0.0283056793 -0.0179321586
-0.0038717394 0.0281804683 -0.0064993462
-0.0036685466 0.0281912815 -0.0085911163
-0.0011481312 0.0284041718 -0.0080251563
-0.0031956872 0.0282228773 -0.0112939302
-0.0056993416 0.0278329539 -0.0030752352
-0.0049752731 0.0279835127 -0.0134552743
0.0000039861 0.0284999962 -0.0185364539
0.0016644990 0.0283725927 -0.0212664031
0.0062526369 0.0277546451 -0.0209517399
0.0123177972 0.0255926139 -0.0210161442
0.0193549203 -0.0208447814 -0.0215000007
0.0192210695 -0.0210073772 -0.0071123426
0.0189307676 -0.0212731510 -0.0072963745
0.0203900182 -0.0198050892 -0.0158898422
0.0196729747 -0.0205643478 -0.0190568390
0.0203165657 -0.0199497469 -0.0084559330
0.0222374766 -0.0177555192 -0.0185582741
0.0201427056 -0.0201237842 -0.0034883523
0.0196636235 0.0205909601 -0.0037068186
0.0198416791 0.0204010353 -0.0161089182
0.0203242633 0.0198999965 -0.0124411304
0.0211761470 0.0189209397 -0.0181180638
0.0209044919 0.0192705514 -0.0115453198
0.0178929748 0.0221211937 -0.0205634147
0.0194209382 0.0208187177 -0.0143061010
0.0225854906 0.0172550493 -0.0215000007
0.0223506267 0.0176581007 -0.0098192346
0.0223016895 -0.0177258836 -0.0033417953
0.0222360183 -0.0177876314 -0.0111236228
0.0228126056 -0.0170634832 -0.0213723339
0.0236259983 -0.0157542026 -0.0206449592
0.0243035655 -0.0146899422 -0.0148229603
0.0253862308 -0.0129283585 -0.0173453465
0.0239450908 -0.0152566947 -0.0171875662
0.0240803141 -0.0150732240 -0.0107620711
0.0239931360 -0.0153058146 -0.0052007296
0.0230983366 -0.0166468559 -0.0065911725
0.0231723626 0.0165437318 -0.0112214604
0.0236312325 0.0159043198 -0.0054839477
0.0229473318 0.0168533031 -0.0207938581
0.0239914719 0.0152877806 -0.0093152036
0.0245506823 0.0142716415 -0.0200492858
0.0226424980 0.0172821897 -0.0083820963
0.0251493743 0.0133620909 -0.0112099753
0.0246312503 0.0142613570 -0.0060330627
0.0254369096 -0.0128431664 -0.0139016082
0.0258986905 0.0118357029 -0.0125768280
0.0261389307 0.0111022879 -0.0203568149
0.0267679425 0.0095623006 -0.0146100974
0.0260742982 0.0113075651 -0.0177167631
0.0258945213 0.0118536667 -0.0088965837
0.0255991577 0.0124707586 -0.0065268763
0.0262028713 -0.0109518404 -0.0194031432
0.0267507382 -0.0095103050 -0.0212372232
0.0265807929 -0.0101436507 -0.0081718654
0.0264816172 -0.0102168201 -0.0204430124
0.0258153833 -0.0120202444 -0.0124932811
0.0273042300 -0.0081227686 -0.0060143966
0.0268193779 -0.0094985021 -0.0095099942
0.0270029392 -0.0090303088 -0.0056707090
0.0269554120 0.0091211947 -0.0103862195
0.0271477584 0.0086636044 -0.0012748810
0.0271943307 0.0084721378 -0.0112204415
0.0279958783 0.0049916357 -0.0187326160
0.0275677799 0.0071681031 -0.0133392656
0.0279938190 -0.0050653893 -0.0184956603
0.0280805663 -0.0048441629 -0.0168322581
0.0274523338 -0.0075958530 -0.0149911129
0.0284295071 0.0012949996 -0.0203545301
0.0282927569 0.0034059873 -0.0181348478
0.0167938890 -0.0230375656 -0.0203807282
0.0071617788 0.0282386176 -0.0204858980
0.0162631683 -0.0237365106 -0.0199068489
0.0145203700 -0.0264983892 -0.0200386172
0.0156389023 -0.0276545502 -0.0198651470
0.0062925865 -0.0336246173 -0.0198300773
0.0092526438 -0.0327587705 -0.0200000084
0.0153225296 -0.0313487087 -0.0200000087
0.0095804005 -0.0343570741 -0.0199268651
0.0133932856 0.0285132212 -0.0199999936
0.0086323694 0.0318762097 -0.0199999911
0.0109434483 0.0298525506 -0.0199999918
0.0084806061 0.0345445154 -0.0199693194
0.0155828791 -0.0254846723 -0.0197903184
0.0171347424 0.0320352600 -0.0195430539
0.0056007329 0.0347095915 -0.0192406068
0.0122189689 -0.0338730438 -0.0195538431
0.0177028808 -0.0286565308 -0.0190685097
0.0150250584 0.0329826240 -0.0192491145
-0.0058764996 -0.0174313089 -0.0193000041
-0.0043224140 -0.0170840673 -0.0193000039
-0.0054760134 -0.0086484497 -0.0193000020
-0.0048399184 -0.0025590765 -0.0193000005
-0.0045680521 -0.0005130248 -0.0193000000
-0.0051215190 -0.0075856633 -0.0193000017
-0.0075386969 0.0029310406 -0.0192999995
-0.0112879704 -0.0160329431 -0.0193000044
-0.0086004786 -0.0096655486 -0.0193000025
-0.0071822285 0.0027551291 -0.0192999995
-0.0049012877 0.0138053721 -0.0192999966
-0.0002646386 -0.0077246723 -0.0193000016
-0.0013647146 0.0009903215 -0.0192999996
-0.0016595018 -0.0088472990 -0.0193000019
-0.0002305581 -0.0164666211 -0.0193000037
-0.0025758726 -0.0177782191 -0.0193000040
-0.0001005614 -0.0120121087 -0.0193000026
-0.0003023740 0.0189237827 -0.0192999954
-0.0039718432 0.0044872868 -0.0192999987
-0.0032670861 0.0141132883 -0.0192999965
-0.0025738389 0.0005271835 -0.0192999997
-0.0012896414 0.0134156519 -0.0192999967
-0.0028193189 0.0071864431 -0.0192999981
-0.0041539596 0.0002917599 -0.0192999997
0.0003959046 -0.0127270494 -0.0193000028
0.0001959181 -0.0050542359 -0.0193000010
0.0017565451 0.0001196533 -0.0192999998
0.0000995300 -0.0154715947 -0.0193000034
0.0009321190 0.0101351710 -0.0192999975
0.0011114143 -0.0024361610 -0.0193000004
0.0036379589 -0.0131533806 -0.0193000030
0.0023058928 0.0067055313 -0.0192999984
0.0025409350 -0.0002871586 -0.0193000000
0.0018797552 0.0040641449 -0.0192999989
0.0040639907 -0.0146678559 -0.0193000033
0.0057634743 -0.0184057059 -0.0193000043
0.0067702255 -0.0051828555 -0.0193000015
0.0104095347 -0.0146508632 -0.0193000040
0.0057799308 -0.0029873612 -0.0193000009
0.0097748007 -0.0107150630 -0.0193000030
0.0104395907 -0.0164682698 -0.0193000044
-0.0080403096 0.0037276717 -0.0192999994
-0.0137591577 -0.0140509566 -0.0193000044
-0.0082303800 0.0021395262 -0.0192999998
-0.0065462892 0.0100591854 -0.0192999977
-0.0118304936 -0.0121785941 -0.0193000036
-0.0142784448 -0.0072823147 -0.0193000024
-0.0100232003 0.0033269700 -0.0192999996
-0.0158633336 -0.0099525328 -0.0193000030
-0.0094235347 0.0060034462 -0.0192999988
-0.0132512467 -0.0028027217 -0.0193000010
0.0093011361 -0.0013182737 -0.0193000011
0.0120594939 -0.0145578762 -0.0193000042
0.0097575545 -0.0041679239 -0.0193000017
0.0061114880 0.0055808028 -0.0192999991
0.0069527054 0.0033266597 -0.0192999997
0.0129980045 -0.0074662983 -0.0193000026
0.0102062683 0.0015881021 -0.0192999998
0.0132507716 -0.0049926035 -0.0193000016
0.0148520668 -0.0115416970 -0.0193000038
0.0150467621 -0.0127989891 -0.0193000042
-0.0179954587 -0.0044335844 -0.0193000021
-0.0064187114 0.0148851398 -0.0192999964
-0.0111550532 0.0055915819 -0.0192999989
-0.0164902339 -0.0018997362 -0.0193000013
0.0153920430 -0.0057267627 -0.0193000017
0.0112107425 0.0036535345 -0.0192999996
0.0131815403 0.0011980789 -0.0193000004
0.0139524463 -0.0027821489 -0.0193000010
-0.0183140748 -0.0040549656 -0.0193000019
-0.0145490738 0.0028205368 -0.0192999998
-0.0156453004 0.0004586446 -0.0193000006
0.0101432629 0.0066052825 -0.0192999989
0.0182718525 -0.0040400596 -0.0193000018
0.0176514500 -0.0035581202 -0.0193000018
0.0095399588 0.0073243155 -0.0192999987
-0.0108642901 0.0109686908 -0.0192999973
-0.0156673127 0.0044688518 -0.0192999989
0.0178167239 0.0039575210 -0.0192999985
0.0160017295 0.0033285795 -0.0192999992
0.0151142889 0.0039211840 -0.0192999991
-0.0151861509 0.0092558649 -0.0192999979
-0.0107895936 0.0126060924 -0.0192999968
0.0151981380 0.0072883279 -0.0192999980
0.0106131521 0.0114180913 -0.0192999972
0.0162970298 0.0059455055 -0.0192999982
-0.0095479964 0.0151573730 -0.0192999963
-0.0128552227 0.0146160873 -0.0192999958
0.0016939273 0.0189938744 -0.0192999954
0.0154207798 0.0109438727 -0.0192999969
0.0160658283 0.0109126961 -0.0192999969
0.0034805644 0.0184667624 -0.0192999956
0.0033278385 0.0189191705 -0.0192999952
0.0186410198 -0.0315459311 -0.0186662155
0.0059984467 -0.0363242400 -0.0108248296
0.0054317484 -0.0365290960 -0.0135357839
0.0162410461 -0.0326216537 -0.0063838825
0.0144696565 -0.0332619905 -0.0101271709
0.0143239737 -0.0333146513 -0.0174409082
0.0163005025 -0.0326001604 -0.0083301467
0.0136082230 -0.0335733879 -0.0151244409
0.0114852922 -0.0343408053 -0.0102801408
0.0107818651 -0.0345950862 -0.0111542782
0.0099304415 -0.0349028675 -0.0071964382
0.0116188965 -0.0342925096 -0.0074676895
0.0186590713 -0.0317475608 -0.0167526704
0.0180058613 -0.0319836907 -0.0111072135
0.0178976459 0.0319954063 -0.0174690608
0.0030009337 0.0294982198 -0.0189380191
0.0035523095 0.0309994997 -0.0188083658
0.0035128489 0.0314237438 -0.0185267939
0.0121710109 0.0340939603 -0.0133607206
0.0141290256 0.0333764337 -0.0127376685
0.0108481791 0.0345787177 -0.0156120671
0.0102294460 0.0348054560 -0.0165873010
0.0170699862 0.0322987049 -0.0149658202
0.0185020481 -0.0277517173 -0.0179310644
0.0002746784 -0.0285018556 -0.0180153587
0.0090714352 0.0352298143 -0.0151718142
0.0270051948 0.0025286602 -0.0172448375
0.0193058222 0.0289172417 -0.0175336816
0.0133830468 0.0336498019 -0.0110661841
0.0102940889 0.0347817675 -0.0132374857
0.0029853436 0.0323782530 -0.0168329177
0.0270089133 0.0043578600 -0.0153699637
0.0195494966 0.0313385483 -0.0167710813
0.0097203819 0.0349920054 -0.0132374558
0.0036866781 0.0346706936 -0.0162301865
0.0279696788 -0.0002420945 -0.0161509663
0.0388177736 -0.0022545314 -0.0155265229
0.0290741525 0.0008533618 -0.0161348339
0.0362271046 -0.0004757032 -0.0161509663
0.0369591611 0.0011040431 -0.0160063945
0.0037712908 -0.0354356733 -0.0108519519
0.0034343201 -0.0345034993 -0.0119398064
0.0043674746 -0.0364687863 -0.0145892093
0.0171200489 -0.0323039041 -0.0059010908
0.0199502847 -0.0308770195 -0.0118134329
-0.0025153748 -0.0283056847 -0.0058136416
0.0008330078 -0.0287884182 -0.0085773784
0.0020275018 -0.0306117685 -0.0135281540
0.0023172980 -0.0314134425 -0.0111592439
0.0190697101 -0.0277501844 -0.0083646456
0.0199424083 -0.0301643579 -0.0149030040
0.0181584821 -0.0252294218 -0.0139141997
0.0187249191 -0.0267963760 -0.0131090844
0.0176559596 -0.0235376756 -0.0132897336
0.0178368190 -0.0224442039 -0.0091537784
0.0178085401 0.0237921863 -0.0091726162
0.0190299939 0.0272263425 -0.0131106968
0.0184546130 0.0256562165 -0.0130906810
0.0006859771 0.0286435168 -0.0157064409
0.0200877080 0.0307790116 -0.0115451219
0.0197124207 0.0290885791 -0.0089745135
0.0201094572 0.0302323437 -0.0117191828
0.0024018920 0.0312579711 -0.0116145320
0.0019315323 0.0299744312 -0.0080031573
0.0028886870 0.0325863612 -0.0151676238
0.0033876046 0.0339478305 -0.0149546467
0.0041977317 0.0360860319 -0.0142015836
0.0144902045 0.0332440781 -0.0059148866
0.0079862762 0.0356274763 -0.0080662298
0.0074458806 0.0358255072 -0.0084439930
0.0103801285 0.0347502382 -0.0098657913
0.0079144585 0.0356537976 -0.0141322415
0.0091698354 0.0351937575 -0.0128427060
0.0064851158 0.0361775857 -0.0108878754
0.0343169473 -0.0030398032 -0.0147521512
0.0282462116 -0.0028863324 -0.0149291250
0.0278149670 0.0024821555 -0.0152930548
0.0284084188 0.0034395980 -0.0140909498
0.0370468967 -0.0001271430 -0.0147361092
0.0366236502 0.0000638095 -0.0147129560
0.0306906235 -0.0018713263 -0.0138378226
0.0269986398 -0.0006964696 -0.0142359642
0.0269981705 -0.0009272102 -0.0135597012
0.0338719317 -0.0037802901 -0.0133452260
0.0360009315 -0.0039440826 -0.0126465644
0.0276392021 0.0036844661 -0.0132172711
0.0366242044 0.0036361047 -0.0133491458
0.0326561744 -0.0024877393 -0.0124068979
0.0293189879 0.0022378009 -0.0128695458
0.0274594027 0.0059242827 -0.0129571537
0.0371993473 -0.0036808776 -0.0107895914
0.0269899883 -0.0049537243 -0.0115734990
0.0371899116 -0.0023219939 -0.0115401441
0.0343730116 0.0022689978 -0.0118852197
0.0352146749 0.0038713077 -0.0122687927
0.0375859736 0.0021760740 -0.0115627957
0.0390073872 0.0035950965 -0.0117187867
0.0380330613 -0.0013742996 -0.0102502284
0.0344651176 0.0020324126 -0.0110557004
0.0337341900 0.0011749551 -0.0101967582
0.0381756723 -0.0026945847 -0.0094051258
0.0272244557 -0.0033353736 -0.0102365590
0.0341407180 0.0030904160 -0.0100858013
0.0371288698 0.0029141865 -0.0098724327
0.0360699028 -0.0005499435 -0.0099777116
0.0292734267 0.0011112928 -0.0101637124
0.0278268549 -0.0057049739 -0.0095522519
0.0361788650 -0.0013986478 -0.0086638903
0.0328385337 -0.0017016820 -0.0088130930
0.0286783747 0.0017885530 -0.0089151441
0.0339976533 0.0010112555 -0.0085460246
0.0278802755 -0.0057367476 -0.0061015514
0.0348731803 -0.0007263207 -0.0084490357
0.0270010964 0.0005117024 -0.0067212683
0.0195328513 -0.0313701629 -0.0074567983
0.0180968321 -0.0254424050 -0.0072769207
0.0025650072 0.0313830309 -0.0074083029
0.0074344268 0.0358297032 -0.0058280538
-0.0017046899 0.0283652651 -0.0016274595
0.0278878422 -0.0054621367 -0.0043034009
0.0048816116 -0.0365967199 -0.0072050345
0.0184068078 -0.0318387536 -0.0060219795
0.0281637603 -0.0042355400 -0.0056359940
-0.0009246600 -0.0284291379 -0.0040894978
0.0034819989 0.0335314154 -0.0066973845
0.0276014915 0.0011242348 -0.0064207372
0.0181292415 0.0274673376 -0.0055051509
0.0035392335 -0.0335322072 -0.0063204432
0.0174097810 0.0240966617 -0.0061087048
0.0283140260 -0.0031584039 -0.0028433018
0.0007090744 -0.0285445585 -0.0056893134
0.0284178727 0.0018537564 -0.0027302933
0.0284904018 0.0003483764 -0.0042598273
0.0040619914 0.0327981099 -0.0053498797
0.0061916600 -0.0361659905 -0.0052508177
0.0172909847 -0.0282716640 -0.0047181348
0.0049743320 -0.0346857587 -0.0050310200
0.0164407512 -0.0324962637 -0.0047496482
0.0166136234 -0.0278827343 -0.0044158089
0.0163480178 -0.0237477128 -0.0042695200
0.0158792800 -0.0249659416 -0.0043785668
-0.0131970650 -0.0198893934 -0.0045000049
-0.0110649355 -0.0222707767 -0.0032924047
0.0115100594 -0.0227248176 -0.0030139239
0.0133770120 -0.0213187252 -0.0045000058
-0.0129399996 -0.0197159959 -0.0000045836
-0.0106844679 -0.0213276858 -0.0019957904
0.0108462219 -0.0203438051 -0.0003723435
0.0136040731 -0.0204363307 -0.0033134485
0.0156737750 -0.0185119991 -0.0039512930
0.0159142127 -0.0159952413 -0.0003815206
0.0177023700 -0.0190985492 -0.0045000049
0.0182408451 -0.0183720077 -0.0045000049
0.0189035846 -0.0162183313 -0.0015801839
-0.0246964649 -0.0014880933 -0.0045000012
-0.0233056307 -0.0010552902 -0.0029183008
0.0238681403 -0.0015513329 -0.0032964698
0.0255708531 -0.0012533012 -0.0026010485
-0.0246058959 0.0016756066 -0.0020822597
-0.0229813658 -0.0005043564 -0.0020789383
0.0236943154 0.0013800532 -0.0022283622
0.0258932261 0.0007645429 -0.0014837046
-0.0123386518 0.0196259775 -0.0039523329
0.0113333617 0.0198906110 -0.0005452807
0.0133207849 0.0199547099 -0.0037138320
-0.0135264166 0.0220438062 -0.0044999938
-0.0117548477 0.0227893032 -0.0039833780
-0.0106022740 0.0208668895 -0.0028207941
0.0115023475 0.0226281464 -0.0031872921
0.0138042437 0.0217622663 -0.0031041316
0.0157479834 -0.0322746263 -0.0041570287
0.0156292139 -0.0279513332 -0.0041336641
0.0169124296 0.0311631609 -0.0041040744
0.0153696397 -0.0252030280 -0.0040337944
0.0142079983 0.0325699756 -0.0040533909
0.0122078471 -0.0308037775 -0.0040000080
0.0078589120 -0.0326786162 -0.0040000086
0.0151118386 -0.0309711783 -0.0040000076
0.0113538765 0.0281591415 -0.0039816642
0.0099244748 0.0321716134 -0.0039999915
0.0136032835 0.0295956540 -0.0039999919
0.0079614241 0.0339016574 -0.0039999909
0.0095983495 0.0275270824 -0.0034826463
0.0022712239 -0.0284274292 -0.0034336452
0.0021299937 0.0284006607 -0.0027449399
0.0096076944 -0.0272867878 -0.0032275296
0.0166379886 0.0231266887 -0.0014330817
0.0071473629 0.0276318451 -0.0023811803
-0.0068123350 -0.0040530037 -0.0025000006
-0.0052684174 0.0000273188 -0.0024999996
-0.0045239657 -0.0074368504 -0.0025000027
-0.0059932451 -0.0065790634 -0.0019622850
-0.0021383629 0.0037508429 -0.0024999987
-0.0023617502 -0.0053756771 -0.0025000017
-0.0016339249 0.0038973982 -0.0024999987
-0.0002220575 -0.0017247050 -0.0025000005
0.0042239522 -0.0078250109 -0.0005848350
-0.0024480458 0.0085333857 -0.0024999972
0.0004423694 0.0040019893 -0.0024999987
0.0025782482 0.0016765726 -0.0024999994
0.0033440396 -0.0049964351 -0.0025000017
0.0040978476 -0.0058661491 -0.0025000021
0.0044099502 -0.0004771949 -0.0025000002
0.0066732998 -0.0038627631 -0.0025000006
-0.0087216005 -0.0002962850 -0.0025000008
-0.0064192204 0.0003676599 -0.0025000000
-0.0055496336 0.0023221194 -0.0024999994
-0.0055912615 0.0001016410 -0.0024999995
0.0081244879 -0.0033129474 -0.0025000008
0.0089555777 -0.0002952515 -0.0008741093
0.0087717253 0.0014483802 -0.0013980540
0.0078133001 0.0036092700 -0.0024999996
-0.0074384937 0.0049806491 -0.0015961864
0.0036222715 0.0081310423 -0.0021511529
-0.0027553993 0.0085637770 -0.0018026683
0.0146481262 -0.0244460111 -0.0020009816
0.0089764237 -0.0270226298 -0.0019572266
0.0126421366 0.0254235428 -0.0011230038
-0.0089045119 -0.0269110510 -0.0008716481
0.0012263713 -0.0278665775 -0.0004117671
0.0119259843 -0.0249217497 -0.0001341291
-0.0196227445 -0.0203256601 -0.0008473504
-0.0237898159 -0.0143272801 -0.0002965869
-0.0280609057 -0.0000837351 -0.0005731859
-0.0267011796 0.0085594855 -0.0005867669
-0.0229143600 0.0166089770 -0.0009025400
-0.0158951877 0.0233992384 -0.0008873794
-0.0060432625 0.0275336575 -0.0007671136
0.0007968524 0.0275166644 -0.0000856833
0.0165368388 -0.0220475294 -0.0000842366
0.0108122632 0.0252036523 -0.0000009643
0.0256092803 -0.0103524678 -0.0001448586
0.0284164335 -0.0010583963 -0.0009431799
0.0259270968 0.0093609396 -0.0000859932
0.0221397155 0.0167279282 -0.0002516485
0.0153062814 0.0234366308 -0.0005063100
0.0068935175 -0.0062262139 -0.0001083068
-0.0074528804 0.0052908650 -0.0003430979
0.0089881893 0.0019880792 -0.0001976761
-0.0254127537 -0.0029622271 0.0000000005
-0.0202521339 -0.0027954347 0.0000000005
-0.0267768582 -0.0054835694 0.0000000005
-0.0218471082 0.0052821070 0.0000000005
-0.0254688263 -0.0056217138 0.0000000005
-0.0229700958 0.0064951162 0.0000000005
-0.0229099210 0.0085627279 0.0000000005
-0.0246410135 -0.0101396041 0.0000000005
-0.0230831255 -0.0098655673 0.0000000005
-0.0215164339 0.0106793582 0.0000000005
-0.0218201889 0.0027993576 0.0000000005
-0.0184416562 0.0143234434 0.0000000005
-0.0227239231 0.0140548320 0.0000000005
-0.0184972358 0.0017901849 0.0000000005
-0.0190962908 0.0042226826 0.0000000005
-0.0205958533 -0.0129339123 0.0000000005
-0.0195740711 -0.0144065323 0.0000000005
-0.0187456554 -0.0157369607 0.0000000005
-0.0144315524 -0.0183176478 0.0000000005
-0.0156166716 -0.0193231935 0.0000000005
-0.0139285875 -0.0084098151 0.0000000005
-0.0147887596 -0.0063383758 0.0000000005
-0.0178301147 -0.0067168893 0.0000000005
-0.0159180416 -0.0041586998 0.0000000005
-0.0144268250 0.0022905885 0.0000000005
-0.0147133333 0.0049279681 0.0000000005
-0.0171256321 0.0055223969 0.0000000005
-0.0152025268 0.0101670432 0.0000000005
-0.0170195155 0.0116798762 0.0000000005
-0.0176555777 0.0107491181 0.0000000005
-0.0166353115 0.0189643805 0.0000000005
-0.0173186019 -0.0209633472 0.0000000005
-0.0146974213 0.0223333119 0.0000000005
-0.0131489426 -0.0187388450 0.0000000005
-0.0118934609 -0.0178642229 0.0000000005
-0.0132730936 -0.0100832065 0.0000000005
-0.0113756291 -0.0032086927 0.0000000005
-0.0113231079 0.0007281324 0.0000000005
-0.0127480218 0.0029935743 0.0000000005
-0.0123479737 0.0063981910 0.0000000005
-0.0132253705 0.0080347044 0.0000000005
-0.0125665361 0.0145681545 0.0000000005
-0.0133831669 0.0162979616 0.0000000005
-0.0108896858 -0.0202570209 0.0000000005
-0.0101678985 -0.0053277627 0.0000000005
-0.0104899639 0.0161405733 0.0000000005
-0.0087780928 -0.0209402804 0.0000000005
-0.0096478258 -0.0221792418 0.0000000005
-0.0086695439 -0.0194920097 0.0000000005
0.0050568165 -0.0203887543 0.0000000005
0.0027581694 -0.0213936955 0.0000000005
-0.0027292076 -0.0236944052 0.0000000005
-0.0017231557 -0.0233297896 0.0000000005
-0.0030623838 -0.0238230099 0.0000000005
-0.0016523005 -0.0124341232 0.0000000002
-0.0094250612 -0.0186029066 0.0000000004
-0.0063352010 -0.0139532551 -0.0000000004
-0.0092651170 -0.0181669129 0.0000000004
-0.0099720484 -0.0119950847 0.0000000005
-0.0091055777 -0.0089519963 0.0000000005
0.0041287374 -0.0168281780 0.0000000005
0.0009427677 -0.0186828731 0.0000000005
0.0074038997 -0.0176617468 0.0000000005
0.0064932854 -0.0154958383 0.0000000005
-0.0029500735 -0.0183717524 0.0000000005
0.0030673842 -0.0144025319 0.0000000005
-0.0078505871 -0.0186798181 0.0000000005
-0.0010882924 -0.0169199098 0.0000000005
-0.0088940437 0.0036063266 0.0000000005
-0.0077691161 0.0090600091 0.0000000005
-0.0084328647 0.0130209206 0.0000000005
-0.0027961390 0.0091592223 0.0000000005
-0.0001480259 0.0125837680 0.0000000005
0.0055567088 0.0134120924 0.0000000005
-0.0065401776 0.0136900003 0.0000000005
-0.0003783799 0.0118750246 0.0000000005
-0.0028244825 0.0163079298 0.0000000005
0.0052917310 0.0148705906 0.0000000005
0.0084273361 0.0177147184 0.0000000005
-0.0043672101 0.0168321720 0.0000000005
0.0031637682 0.0189522726 0.0000000005
0.0042711537 0.0193481264 0.0000000005
0.0054329468 0.0193061031 0.0000000005
-0.0057535421 0.0232503226 0.0000000005
-0.0032393771 0.0222737732 0.0000000005
-0.0046741405 0.0237864856 0.0000000005
-0.0029408625 0.0245934676 0.0000000005
0.0007868627 0.0226849790 0.0000000005
-0.0049520254 0.0199832786 0.0000000005
-0.0061203443 0.0207199298 0.0000000005
-0.0093142881 0.0206965049 0.0000000005
-0.0042712691 -0.0267164774 0.0000000005
0.0073899650 -0.0237933564 0.0000000005
0.0053995344 0.0114895590 0.0000000005
0.0079316411 0.0220122363 0.0000000005
0.0055899785 -0.0257980955 0.0000000005
0.0054347239 -0.0085758609 -0.0000000010
0.0084157537 0.0122463277 0.0000000005
0.0065980773 0.0259947918 0.0000000005
0.0065338882 -0.0082674316 -0.0000000007
0.0072798695 -0.0072528729 0.0000000000
0.0099307451 0.0101076301 0.0000000005
0.0092031367 -0.0240078168 0.0000000005
0.0099517897 -0.0128455517 0.0000000005
0.0096095590 -0.0030103166 0.0000000005
0.0117112903 -0.0117104917 0.0000000005
0.0104941369 -0.0170113031 0.0000000005
0.0127521296 -0.0165383162 0.0000000005
0.0130234209 -0.0092335055 0.0000000005
0.0124783620 -0.0022018052 0.0000000005
0.0111311456 -0.0046559582 0.0000000005
0.0131504755 0.0045146013 0.0000000005
0.0121659468 -0.0000238988 0.0000000005
0.0106366396 0.0103629455 0.0000000005
0.0118469731 0.0083155178 0.0000000005
0.0123793837 0.0182354534 0.0000000005
0.0101081432 0.0224459959 0.0000000005
0.0136972264 0.0167138744 0.0000000005
0.0140723122 -0.0190571918 0.0000000005
0.0143054632 0.0110573748 0.0000000005
0.0147477197 -0.0134437316 0.0000000005
0.0152848470 -0.0160376605 0.0000000005
0.0188278656 -0.0018296457 0.0000000005
0.0184412794 -0.0053218859 0.0000000005
0.0180216012 -0.0105275025 0.0000000005
0.0179462807 -0.0059378054 0.0000000005
0.0160826174 -0.0078497133 0.0000000005
0.0186302534 0.0041373846 0.0000000005
0.0199683582 -0.0006080604 0.0000000005
0.0183524347 0.0008870700 0.0000000005
0.0171743809 0.0099528082 0.0000000005
0.0174784171 0.0107289548 0.0000000005
0.0175885550 0.0067624165 0.0000000005
0.0163562054 0.0070214531 0.0000000005
0.0167275162 0.0159995000 0.0000000005
0.0152725151 0.0161077809 0.0000000005
0.0174047048 0.0207588839 0.0000000005
0.0200711689 -0.0082135346 0.0000000005
0.0208451133 -0.0067823450 0.0000000005
0.0211572100 -0.0088981103 0.0000000005
0.0213563590 -0.0018991135 0.0000000005
0.0223257008 -0.0112340489 0.0000000005
0.0228652753 -0.0071252664 0.0000000005
0.0244176162 -0.0060753639 0.0000000005
0.0232981900 0.0016861995 0.0000000005
0.0251717538 0.0087052867 0.0000000005
0.0244389365 0.0118155678 0.0000000005
0.0211354851 0.0131991882 0.0000000005
0.0236620392 0.0138622077 0.0000000005
0.0266712743 -0.0000174828 0.0000000005
