0.0014240098 0.1026113163 0.0348798893
0.0017591703 0.1035000011 0.0342926921
-0.0030000475 0.0926790495 0.0347646417
0.0039729513 0.0941770542 0.0342523574
-0.0036895906 0.0990512932 0.0342842839
-0.0032589328 0.0898980320 0.0343034947
-0.0099826004 0.1032391098 0.0333352164
-0.0118278155 0.1020249159 0.0327252664
-0.0043703888 0.0878429688 0.0335052872
0.0106152372 0.1035000011 0.0303774805
0.0110132507 0.0987778513 0.0326781589
-0.0097645073 0.0993388213 0.0331151137
-0.0114320616 0.0950182027 0.0325316104
-0.0109025648 0.0921344155 0.0330958499
0.0042656410 0.0849219496 0.0320752269
0.0052043297 0.0849445935 0.0319305380
-0.0120227163 0.0847036974 0.0299524600
-0.0206920048 0.1020541818 0.0281449585
0.0010572307 0.0826683465 0.0306477003
-0.0136747190 0.0878322191 0.0309521454
0.0171555375 0.1035000011 0.0299696400
-0.0089957402 0.0815412902 0.0283114565
0.0194642224 0.0949273776 0.0284936023
-0.0186793051 0.0967713013 0.0289868001
0.0091077888 0.0835029919 0.0299621995
-0.0023106626 0.0954602432 0.0308579459
0.0007897026 0.1000999179 0.0307965727
-0.0014629632 0.0935000032 0.0246576016
-0.0045414176 0.0935000032 0.0230481787
-0.0030805819 0.0935000032 0.0209981224
0.0015463497 0.0935000032 0.0249203624
0.0015611442 0.0935000032 0.0269013382
-0.0043145818 0.0967885411 0.0305046007
-0.0166044202 0.0868872201 0.0291045041
0.0066189664 0.1014774122 0.0301590408
0.0033429263 0.0935000032 0.0163698960
0.0099535186 0.0935000032 0.0249969827
0.0108787316 0.0935000032 0.0263469025
0.0187973240 0.0916121966 0.0292925675
-0.0186400525 0.0934614826 0.0295630171
-0.0093979692 0.1028833690 0.0294789442
-0.0054780912 0.0935000032 0.0132512651
-0.0112879628 0.0935000032 0.0263200353
-0.0096709844 0.0942548846 0.0293611771
-0.0157878129 0.0809695766 0.0250201466
-0.0196602249 0.0870850625 0.0272866919
0.0134972874 0.1002687120 0.0277610138
0.0172360136 0.1004016730 0.0256024623
0.0062537324 0.0935000032 0.0098684044
0.0083479250 0.0935000032 0.0122793491
-0.0015652255 0.0793727131 0.0274352073
0.0046563126 0.0783161317 0.0257568813
-0.0242059506 0.1035000011 0.0242968433
-0.0180219282 0.0834599683 0.0258320025
0.0069257523 0.0788191058 0.0259852515
0.0239212094 0.1026625325 0.0252816408
0.0257737932 0.1035000011 0.0229630903
0.0227794873 0.0969946652 0.0259851606
-0.0243834445 0.0985577520 0.0243812034
0.0231910245 0.0938821021 0.0261408124
-0.0176889019 0.1016219989 0.0252172123
-0.0091196142 0.0935000032 0.0116413501
-0.0145779635 0.0935000032 0.0193433074
-0.0184387934 0.0954467715 0.0246589392
0.0225404377 0.0869695043 0.0247946214
-0.0232216508 0.0892418753 0.0253129470
0.0251898968 0.0908272311 0.0237618097
0.0210519103 0.0833422462 0.0235446064
0.0227873444 0.0952768022 0.0208321602
0.0230910615 0.0990879397 0.0205456177
0.0154986133 0.0935000032 0.0133460290
0.0049710426 0.0935000032 0.0065813611
-0.0257017568 0.0902797592 0.0231372953
0.0146317906 0.0772006869 0.0211589186
-0.0016450051 0.0752231716 0.0218763484
0.0001252576 0.0733355639 0.0190088793
0.0245914889 0.0839703565 0.0208020333
0.0065111671 0.0755605525 0.0217414104
-0.0238256504 0.0999140234 0.0195070395
-0.0038922136 0.0935000032 0.0040924207
-0.0146368822 0.0935000032 0.0118229772
-0.0054450624 0.0935000032 0.0042847000
-0.0274603957 0.0891022485 0.0206695217
-0.0274046975 0.1033758983 0.0216186666
-0.0276251132 0.0908881227 0.0209043861
0.0188246503 0.0778426599 0.0194339793
0.0312987504 0.1020363971 0.0155349775
0.0288022608 0.0987259146 0.0189729999
-0.0272467181 0.0982959979 0.0214486232
-0.0287612101 0.0955534654 0.0190383257
0.0120883467 0.0732295858 0.0164766848
-0.0278568191 0.0888685795 0.0199530956
-0.0231932505 0.0783610744 0.0164337645
0.0240255606 0.1004803558 0.0195034589
0.0255497265 0.0991222866 0.0171860758
0.0173700875 0.0935000032 0.0095437081
0.0210720606 0.0935000032 0.0127139415
0.0217685424 0.0795556725 0.0191700606
0.0025202983 0.0727607268 0.0179482927
-0.0293164356 0.0847806587 0.0153092349
0.0279399644 0.0850118422 0.0176865978
-0.0017078009 0.0719831143 0.0166644780
0.0037802246 0.0717216112 0.0160358532
-0.0252199379 0.0788380290 0.0148333874
0.0301795957 0.0887039477 0.0162870657
-0.0271041973 0.1003519883 0.0146372683
-0.0329100776 0.1035000011 0.0094121740
-0.0125833020 0.0935000032 0.0077910560
-0.0257195298 0.0935000032 0.0140335308
-0.0156421974 0.0935000032 0.0079462713
-0.0291229769 0.0935511994 0.0106175469
-0.0136574789 0.0728761302 0.0152717168
0.0119991798 0.0709237455 0.0127596773
0.0221957142 0.0758034298 0.0140186578
0.0306267460 0.1035000011 0.0108714137
0.0316562378 0.1023223149 0.0148821953
0.0317720127 0.0973817266 0.0136028723
0.0328731018 0.0939605087 0.0112862578
-0.0268245247 0.0775952795 0.0112328327
-0.0163780901 0.0707914299 0.0107044046
0.0268238781 0.0793150990 0.0133851499
0.0288689850 0.0944203857 0.0107081892
0.0292074095 0.0989940625 0.0097783774
0.0077140607 0.0935000032 0.0032081345
0.0193176396 0.0935000032 0.0049508727
-0.0236089259 0.0737156191 0.0096390234
-0.0196920022 0.0701635114 0.0077571980
0.0011081320 0.0317528418 0.0129359290
-0.0067145635 0.0332983733 0.0127190161
-0.0132303104 0.0312165614 0.0121219367
-0.0150072943 0.0260616295 0.0129359290
0.0194734117 0.0264720886 0.0129359290
-0.0006267067 0.0299239038 0.0119199946
-0.0060857389 0.0292610558 0.0060718952
0.0021561543 0.0297381935 0.0100940960
0.0095410195 0.0282326320 0.0118102864
0.0033552188 0.0295926003 0.0050630980
-0.0108209904 0.0277472089 0.0081760436
-0.0232373892 0.0218804221 0.0129359290
0.0164560539 0.0248281384 0.0113534595
0.0133939055 0.0267714254 0.0047219242
-0.0146595741 0.0260681694 0.0115034584
-0.0155802299 0.0254326874 0.0108969573
0.0210666318 0.0211313245 0.0128608083
0.0143203791 0.0263022869 0.0031073866
-0.0216168487 0.0205102784 0.0056795460
-0.0236396313 0.0182270265 0.0096676162
-0.0288173736 0.0176288354 0.0129359290
0.0252619719 0.0225055968 0.0119800482
0.0227048866 0.0192821153 0.0075601345
0.0283626357 0.0137514390 0.0129359290
-0.0274093059 0.0118598300 0.0085230873
-0.0304283448 0.0143596207 0.0129359290
0.0280970011 0.0104493884 0.0086395280
0.0250864469 0.0162856324 0.0035659717
-0.0288260765 0.0074914932 0.0078083418
-0.0291943209 0.0059974685 0.0113209809
-0.0314251865 0.0054946372 0.0129359290
0.0332744213 0.0065010000 0.0127142617
0.0297812540 -0.0004065618 0.0090925017
0.0304797363 -0.0022507742 0.0129359290
-0.0297812764 0.0013760952 0.0063040124
-0.0297812764 -0.0010470682 0.0097167702
0.0337195892 -0.0025123589 0.0127889676
0.0295839769 -0.0044164829 0.0095195380
0.0297812540 -0.0015453892 0.0035523880
0.0321326395 -0.0081816726 0.0129359290
-0.0296436370 -0.0041745215 0.0092076743
0.0317372765 -0.0116131432 0.0123466833
0.0280147650 -0.0107061922 0.0039202161
0.0291489510 -0.0061814557 0.0057825440
0.0287239360 -0.0121263086 0.0129359290
-0.0257950252 -0.0149355835 0.0092193172
-0.0265681284 -0.0140113470 0.0129359290
0.0221392536 -0.0199205798 0.0093746212
0.0257333811 -0.0150530009 0.0083384961
0.0251287740 -0.0219199343 0.0129359290
-0.0217125017 -0.0204023046 0.0053990089
-0.0226856312 -0.0209885133 0.0129359290
-0.0243297530 -0.0234870299 0.0115278801
0.0189920748 -0.0230776476 0.0065333230
0.0156185793 -0.0255337308 0.0129359290
-0.0156561613 -0.0253802721 0.0052414061
-0.0144626781 -0.0262040730 0.0044457008
0.0116158513 -0.0274457511 0.0094651401
0.0153600037 -0.0255846828 0.0083916098
0.0090133421 -0.0321553518 0.0129359290
-0.0072373152 -0.0291063202 0.0042638165
-0.0170161793 -0.0286171706 0.0129359290
0.0069437199 -0.0291568799 0.0100311916
0.0088912012 -0.0284790774 0.0036638930
0.0058533213 -0.0305815233 0.0129359290
-0.0028288864 -0.0296565139 0.0129058720
-0.0120866357 -0.0314814630 0.0129359290
0.0014646435 -0.0298221621 0.0104922891
-0.0103391542 -0.0321706155 0.0120854286
-0.0315825998 0.0843441276 0.0102382147
-0.0053255312 0.0677775228 0.0091770511
0.0044993089 0.0682774396 0.0100376794
0.0319300587 0.0858151301 0.0107972395
-0.0331563989 0.0886706740 0.0092168676
-0.0220474402 0.0702722634 0.0061018005
-0.0073716459 0.0328694125 0.0065594573
0.0052930236 0.0331036163 0.0098651602
0.0080954944 0.0326463259 0.0083725397
-0.0113063836 0.0315227943 0.0094499807
0.0095360608 0.0321422501 0.0046036416
0.0161446914 0.0294057998 0.0102154402
-0.0166167108 0.0291092227 0.0065442035
0.0210608136 0.0262985113 0.0061972582
-0.0261986617 0.0211606710 0.0087186707
0.0258470993 0.0215122189 0.0076770802
0.0267558534 0.0203620536 0.0091722574
-0.0280218044 0.0183473295 0.0057641975
0.0270207330 0.0199405006 0.0048775091
-0.0320705123 0.0097411178 0.0102234265
0.0327099548 0.0079136425 0.0096017873
0.0329191998 0.0069297001 0.0081866027
-0.0329531429 0.0066286096 0.0082021320
0.0332986375 0.0035621122 0.0071252393
-0.0331571155 -0.0048183021 0.0113262345
0.0320777095 -0.0101295016 0.0114359334
0.0320329042 -0.0098485427 0.0111417370
-0.0320735552 -0.0097324185 0.0057912856
0.0305768466 -0.0140097244 0.0096789948
-0.0266851537 -0.0204745983 0.0068714901
-0.0293834310 -0.0161803129 0.0060730420
0.0260499840 -0.0213093369 0.0071933879
-0.0260719290 -0.0212874068 0.0084188603
0.0216756590 -0.0256836557 0.0059263815
-0.0154933794 -0.0298150594 0.0069869993
-0.0198474386 -0.0270792160 0.0071475263
0.0138520794 -0.0306320140 0.0083387468
-0.0109337307 -0.0316531928 0.0082459045
0.0086043050 -0.0324682860 0.0075019576
-0.0030367114 -0.0333578488 0.0054871672
-0.0028860404 -0.0333748256 0.0096202788
0.0091566833 0.0660434621 0.0056957458
0.0185875205 0.0696075600 0.0075863415
-0.0255730156 0.0735647524 0.0071365892
0.0252432944 0.0739519359 0.0080726474
-0.0294679568 0.1001896645 0.0091786641
-0.0188364895 0.0935000032 0.0026445351
-0.0300545109 0.0935000032 0.0040237718
-0.0040517062 0.0935000032 0.0014531112
-0.0306249208 0.0963564342 0.0042970542
-0.0152706969 0.0667687730 0.0052033375
-0.0299236949 0.0777955886 0.0061319016
-0.0339201440 0.1010625678 0.0085748495
0.0330545512 0.0865165391 0.0080586368
-0.0274076684 0.0721327554 0.0024223867
0.0003581759 0.0659702175 0.0065464453
0.0272477638 0.0731737609 0.0041713019
0.0343779866 0.0968345724 0.0028579608
0.0338853517 0.0975359393 0.0072302019
-0.0343819810 0.0959495075 0.0028224885
0.0335468528 0.1035000011 0.0025447440
0.0301878225 0.1021782710 0.0069486368
0.0305606063 0.1005296678 0.0037592520
0.0141350264 0.0935000032 0.0014435858
0.0290092015 0.0935000032 0.0023572359
0.0346003936 0.0930950715 0.0047670178
0.0022230946 0.0623813452 0.0011488273
0.0185794906 0.0664892644 0.0031795342
0.0062181001 0.0626689930 0.0014461154
-0.0321717783 0.0805409506 0.0039634935
0.0077832184 0.0625495519 0.0011196884
-0.0273214799 0.0685565006 -0.0028794066
0.0333744981 0.0831556806 0.0026277935
-0.0344318906 0.0873111208 0.0008630501
-0.0046664863 0.0332830755 0.0044359341
-0.0123607172 0.0317885912 0.0044359341
0.0190345834 0.0287102352 0.0030186665
-0.0220774399 0.0263917298 0.0028376647
-0.0304665237 0.0155527438 0.0003033989
0.0299685009 0.0164950294 0.0008689793
0.0310430863 0.0146688350 -0.0015066411
0.0320387395 0.0119340233 -0.0019216501
-0.0335408744 0.0054373767 0.0038343078
-0.0338660594 0.0026274840 0.0038739427
0.0339751348 0.0006372527 0.0012335230
0.0338898202 -0.0016958645 -0.0122651196
0.0338504098 -0.0022693805 -0.0124337870
0.0337804419 -0.0032275764 -0.0022059650
-0.0338355333 -0.0023888698 -0.0000575172
0.0338253589 -0.0031289518 -0.0532141303
0.0322609813 -0.0104569757 -0.0209201591
0.0331285047 -0.0068800711 0.0002335161
0.0327929628 -0.0082954033 -0.0138825271
0.0324589295 -0.0095962750 -0.0077961257
0.0321959169 -0.0106621001 -0.0107427164
0.0331243503 -0.0073367761 -0.0382895050
0.0335554882 -0.0052582550 -0.0052257071
0.0330276096 -0.0076247554 -0.0349815299
0.0333302519 -0.0065480126 -0.0477851923
0.0335409667 -0.0052830546 -0.0479858336
-0.0338581283 -0.0020604490 -0.0016029873
-0.0339992325 -0.0000081774 -0.0251308612
-0.0335395881 -0.0052163705 -0.0253754787
-0.0339767086 -0.0003355899 -0.0234474004
-0.0337387005 -0.0037955853 -0.0355557978
-0.0338563551 -0.0020852058 -0.0140749772
-0.0332262911 -0.0064671219 -0.0419700600
-0.0334084198 -0.0057400220 -0.0129924547
-0.0333759383 -0.0058696948 -0.0188627688
-0.0325488054 -0.0091717959 -0.0093543529
-0.0324430809 -0.0095938719 -0.0093271669
-0.0328882826 -0.0078165270 -0.0068957907
-0.0325724726 -0.0090773099 -0.0011579564
-0.0324433888 -0.0095926489 -0.0437894045
0.0317464716 -0.0121093479 -0.0178356250
0.0320564687 -0.0113047777 -0.0423048096
0.0310497729 -0.0134887006 0.0025010713
0.0294591319 -0.0167784123 -0.0102298896
0.0294945600 -0.0166313732 0.0004136917
0.0289731555 -0.0177054890 -0.0031645670
0.0302273001 -0.0151570954 0.0004989499
0.0312785376 -0.0132252200 -0.0444050880
-0.0320078094 -0.0113315745 -0.0354843951
-0.0316327705 -0.0123023979 0.0025045359
-0.0297169702 -0.0161554210 -0.0416760140
-0.0310877389 -0.0133985557 0.0011071154
-0.0302289226 -0.0151257915 -0.0278708119
-0.0303767359 -0.0148285120 -0.0293731624
-0.0307734534 -0.0140306494 -0.0548733045
-0.0304981451 -0.0145843380 -0.0373816718
-0.0311902856 -0.0131923219 -0.0370748783
0.0285778541 -0.0183725690 -0.0400269955
0.0287634959 -0.0181070935 -0.0356419397
0.0287661811 -0.0181182325 -0.0141277485
0.0299150253 -0.0160502446 -0.0546334209
0.0262574906 -0.0213740622 -0.0181024865
0.0250836079 -0.0228518702 -0.0228706262
0.0255272473 -0.0222063737 0.0014204449
0.0259295574 -0.0217850557 -0.0189579374
0.0244817436 -0.0235159192 -0.0011083263
0.0276230509 -0.0197255429 -0.0249555324
0.0283262257 -0.0187595912 -0.0169641026
0.0276007747 -0.0197871626 -0.0446146948
-0.0287072476 -0.0181861578 -0.0130193063
-0.0266638180 -0.0207817336 -0.0236648869
-0.0258886429 -0.0217454252 -0.0105557156
-0.0248371700 -0.0230526093 -0.0117989480
-0.0244988484 -0.0234732082 -0.0065773607
-0.0271036954 -0.0202348792 0.0010274466
-0.0260324102 -0.0215666980 -0.0553152163
-0.0285006510 -0.0184981934 0.0001132658
-0.0286297900 -0.0183376484 -0.0024256880
0.0243983058 -0.0236587096 -0.0251377014
0.0245844525 -0.0234355261 -0.0175454214
0.0202650813 -0.0271344659 -0.0285389335
0.0199983767 -0.0273470490 -0.0273718870
0.0184325718 -0.0285625164 -0.0010013069
0.0196252223 -0.0276125418 -0.0066125998
0.0196163905 -0.0276309154 -0.0133613102
0.0203695584 -0.0270769750 -0.0425878540
0.0235398331 -0.0244751477 -0.0048907581
0.0230649468 -0.0249268807 -0.0308034239
0.0232276209 -0.0247673391 -0.0435912426
-0.0254228737 -0.0223244685 -0.0486874392
-0.0247501524 -0.0231607895 -0.0494044875
-0.0227581274 -0.0250740435 -0.0519984625
-0.0232976027 -0.0246401007 -0.0181109343
-0.0239553926 -0.0241109881 -0.0312738718
-0.0214857104 -0.0260975539 -0.0346197367
-0.0207026701 -0.0267274174 -0.0432046004
-0.0191276012 -0.0279943704 -0.0109766972
-0.0201547389 -0.0271681628 -0.0285968997
-0.0204842095 -0.0269031439 -0.0367054621
-0.0195101940 -0.0276866210 -0.0177616649
-0.0218107763 -0.0258360769 -0.0096135174
0.0179587069 -0.0288377099 -0.0283541556
0.0187163743 -0.0283778269 -0.0384499145
0.0165010421 -0.0295952818 -0.0187045203
0.0150163079 -0.0302980258 -0.0023275807
0.0153464205 -0.0301885600 -0.0275519908
0.0158136338 -0.0298922172 0.0019916340
0.0136205834 -0.0310839074 -0.0447266978
0.0151218927 -0.0304044283 -0.0517174622
0.0175970287 -0.0290531029 -0.0213455725
-0.0185130917 -0.0284886695 -0.0378918313
-0.0177277174 -0.0289351999 -0.0274313104
-0.0175471212 -0.0290249942 -0.0027327537
-0.0172663801 -0.0291645862 -0.0173472200
-0.0165203211 -0.0295355447 -0.0401227398
-0.0159809696 -0.0298037194 -0.0266284050
-0.0166603068 -0.0294659362 -0.0027888028
0.0116058196 -0.0319378461 -0.0308482124
0.0120432428 -0.0317900493 -0.0499668328
0.0127117413 -0.0314957108 -0.0362187824
0.0086304436 -0.0327833490 -0.0368618663
0.0063174538 -0.0332747871 -0.0001552834
0.0107298780 -0.0321893747 -0.0084381244
0.0060779085 -0.0333924150 -0.0242093264
0.0088493359 -0.0326407599 -0.0002289617
0.0087820457 -0.0327905345 -0.0442137959
0.0114320226 -0.0320011423 -0.0107063427
-0.0143632099 -0.0306080962 -0.0552582392
-0.0125579508 -0.0315057082 -0.0164798529
-0.0129382620 -0.0313166117 -0.0546818827
-0.0135728849 -0.0310010594 -0.0505891568
-0.0115047644 -0.0319644334 -0.0202648974
-0.0089834716 -0.0325959842 -0.0091997396
-0.0095009098 -0.0324663730 -0.0150074119
-0.0079579679 -0.0328528593 -0.0070043178
-0.0084157940 -0.0327381799 -0.0064837413
-0.0094184004 -0.0324870418 -0.0379363750
0.0006802142 -0.0339657145 -0.0071332382
0.0019840245 -0.0338954850 -0.0251413147
0.0030497091 -0.0338078674 -0.0119759686
0.0022692175 -0.0338862337 -0.0515602664
0.0019723318 -0.0339139426 -0.0513702119
0.0048375560 -0.0336467962 -0.0522677239
0.0054983870 -0.0335163862 -0.0222207088
-0.0053962599 -0.0334945377 -0.0472682152
-0.0027398225 -0.0338114225 -0.0043701027
-0.0024419625 -0.0338319200 -0.0000881990
-0.0006399269 -0.0339560041 -0.0457831150
-0.0034100470 -0.0337653026 -0.0466303868
-0.0012095451 -0.0339167992 -0.0537058121
-0.0045413273 -0.0336874160 -0.0220408703
-0.0067443574 -0.0331568543 -0.0286807953
-0.0062738375 -0.0332747124 -0.0142333519
-0.0058357372 -0.0333844541 -0.0362482870
0.0003486609 -0.0339933527 -0.0374682754
-0.0000096954 -0.0339993408 -0.0039144387
-0.0148284728 0.0314422657 0.0009473591
0.0194294188 0.0659440753 0.0019155381
0.0347407398 0.0939605087 0.0021759593
0.0274281043 0.0204697167 0.0020169656
-0.0307903904 0.0983922103 0.0022990716
-0.0337007529 0.1035000011 -0.0010272285
-0.0212642336 0.0935000032 0.0004254746
-0.0155064290 0.0935000032 -0.0010838024
-0.0307903904 0.0954108452 0.0007742976
-0.0093433547 0.0332981555 0.0013338332
0.0155365706 0.0641581276 0.0015911524
-0.0039361983 0.0267627655 0.0029359311
-0.0034738128 0.0187122361 0.0029359311
0.0067739481 0.0288482664 0.0029359311
0.0014984249 0.0128862712 0.0029359311
0.0033365250 0.0179903809 0.0029359311
0.0077907112 0.0233982103 0.0029359311
0.0078540129 0.0282896535 0.0029359311
-0.0026198910 0.0105908072 0.0029359311
-0.0114732412 0.0229292601 0.0029359311
-0.0049853726 0.0113740800 0.0029359311
0.0050165774 0.0070922362 0.0029359311
0.0148254811 0.0247140972 0.0029359311
-0.0157051476 0.0230969122 0.0029359311
-0.0086760011 0.0139821102 0.0029359311
-0.0137877416 0.0187685211 0.0029359311
0.0093304501 0.0092950596 0.0029359311
0.0208378078 0.0199502424 0.0029359311
-0.0064534766 0.0056763178 0.0029359311
-0.0118916334 0.0119612524 0.0029359311
-0.0196637381 0.0145694548 0.0029359311
0.0222975059 0.0122482264 0.0029359311
0.0136870247 0.0093931475 0.0029359311
-0.0244742790 0.0147791693 0.0029359311
-0.0174943061 0.0098786434 0.0029359311
-0.0222865052 0.0086329303 0.0029359311
0.0223517631 0.0068616563 0.0029359311
0.0138876324 0.0051302411 0.0029359311
-0.0098890369 0.0026827394 0.0029359311
-0.0135246751 0.0036147163 0.0029359311
-0.0183664444 0.0058361610 0.0029359311
0.0259054747 -0.0015635372 0.0029359311
0.0287554209 0.0034426686 0.0029359311
-0.0238971397 -0.0013969913 0.0029359311
-0.0117296163 0.0009124387 0.0029359311
0.0133650796 -0.0136518168 0.0029359311
0.0123386049 -0.0086153501 0.0029359311
0.0168361312 -0.0148799507 0.0029359311
0.0100317923 -0.0046388173 0.0029359311
0.0111491942 -0.0075705484 0.0029359311
0.0099742770 -0.0016143988 0.0029359311
0.0251008830 -0.0054784662 0.0029359311
0.0111534465 -0.0026889518 0.0029359311
0.0028144826 -0.0181020997 0.0029359311
0.0005309923 -0.0218471897 0.0029359311
0.0035717111 -0.0114224667 0.0029359311
0.0047220409 -0.0187735456 0.0029359311
0.0112118716 -0.0259838792 0.0029359311
0.0075886597 -0.0136624466 0.0029359311
0.0062282094 -0.0115997135 0.0029359311
-0.0125168818 -0.0186955273 0.0029359311
-0.0088166821 -0.0150791489 0.0029359311
-0.0150810048 -0.0175323310 0.0029359311
-0.0046422846 -0.0155068487 0.0029359311
-0.0131799389 -0.0264251961 0.0029359311
-0.0011214719 -0.0149069462 0.0029359311
-0.0011725087 -0.0207979635 0.0029359311
-0.0014837673 -0.0194709758 0.0029359311
-0.0211790030 -0.0052930306 0.0029359311
-0.0291650678 -0.0047571562 0.0029359311
-0.0091274378 -0.0056161437 0.0029359311
-0.0250372364 -0.0127457300 0.0029359311
-0.0249826739 -0.0102807480 0.0029359311
-0.0073144528 -0.0057313972 0.0029359311
-0.0130993726 -0.0143455635 0.0029359311
-0.0232587575 0.0667628724 0.0001047355
0.0265815584 0.0219976769 -0.0010908171
-0.0288009817 0.0677711840 -0.0073957400
-0.0340532242 0.0838252964 -0.0022785109
0.0331072364 0.0078269866 -0.0006744844
0.0325969225 0.0107213151 -0.0081965754
-0.0322450559 0.0117278983 -0.0064358419
0.0310802831 0.0763271031 0.0007886872
-0.0001312659 0.0345259573 0.0002113104
-0.0044714892 0.0341999011 0.0006659590
0.0348637961 0.0914230373 -0.0013386960
-0.0060611711 0.0605259979 -0.0009648070
-0.0103178210 0.0593777083 -0.0024458157
0.0347991676 0.1012796632 -0.0017989391
0.0301949532 0.0988388047 -0.0068876295
0.0340054534 0.0995800700 -0.0061642738
0.0342845393 0.0953146314 -0.0036873258
-0.0342059300 0.0942419956 -0.0043849864
0.0031499077 0.0935000032 -0.0004431954
0.0183576612 0.0935000032 -0.0019160647
0.0182527780 0.0935000032 -0.0030664807
-0.0209939495 0.0935000032 -0.0179450114
-0.0182466579 0.0935000032 -0.0145519830
-0.0266485744 0.0935000032 -0.0129328076
-0.0231534123 0.0935000032 -0.0151392253
-0.0152916199 0.0935000032 -0.0082798855
-0.0260917759 0.0935000032 -0.0054061935
-0.0270895912 0.0935000032 -0.0034247692
-0.0061546792 0.0935000032 -0.0281903513
-0.0022786600 0.0935000032 -0.0206024259
-0.0033971814 0.0935000032 -0.0181887225
-0.0140607754 0.0935000032 -0.0256083420
-0.0055759523 0.0935000032 -0.0103552478
-0.0196075946 0.0935000032 -0.0228604792
-0.0204399013 0.0935000032 -0.0221444816
-0.0097787022 0.0935000032 -0.0162963042
0.0145532793 0.0935000032 -0.0221141237
0.0070514961 0.0935000032 -0.0140333876
0.0054978777 0.0935000032 -0.0251972021
0.0061300686 0.0935000032 -0.0200229204
0.0062235687 0.0935000032 -0.0144464074
0.0008015621 0.0935000032 -0.0084656587
0.0019236659 0.0935000032 -0.0128493980
0.0019213867 0.0935000032 -0.0282879812
0.0040701103 0.0935000032 -0.0011404917
0.0288612294 0.0935000032 -0.0084871878
0.0184304137 0.0935000032 -0.0113943545
0.0053401732 0.0935000032 -0.0029803552
0.0234405656 0.0935000032 -0.0135398560
0.0133327520 0.0935000032 -0.0121149426
0.0150654300 0.0935000032 -0.0131062380
-0.0185978263 0.0295796721 -0.0004470663
-0.0205733845 0.0630465954 -0.0022021272
0.0241487732 0.0251048093 -0.0023960074
-0.0320949875 0.0121458964 -0.0063963756
0.0192088328 0.0625571623 -0.0019732407
0.0097421674 0.0588239970 -0.0029443158
-0.0046755535 0.0352860175 -0.0021555382
-0.0314083185 0.1035000011 -0.0086623690
-0.0264235742 0.0222898971 -0.0017057084
-0.0293902729 0.0674391955 -0.0099582045
-0.0089627455 0.0580957904 -0.0035277094
-0.0336257603 0.0815434518 -0.0044019706
0.0328590511 0.0786758023 -0.0036213685
0.0314504657 0.0744331866 -0.0047732082
0.0338943005 0.0018666068 -0.0053158464
0.0336316287 0.0054465893 -0.0106592211
-0.0330164680 0.0086512254 -0.0077411407
-0.0340295614 0.0851342963 -0.0063504367
0.0052127804 0.0357177985 -0.0030720578
-0.0296319708 0.0178984460 -0.0052914311
0.0064073955 0.0371202169 -0.0050549061
0.0175257853 0.0580130306 -0.0054343978
0.0263794885 0.0663614098 -0.0043999504
-0.0299491489 0.0995289468 -0.0071483553
-0.0295740815 0.0988570591 -0.0087308882
-0.0018531121 0.0368967434 -0.0042163501
0.0166722598 0.0321513324 -0.0043803158
0.0060592865 0.0378263167 -0.0057278333
0.0224459061 0.0289304801 -0.0081130943
-0.0239376574 0.0270130926 -0.0081105949
-0.0320802845 0.0753032817 -0.0110765920
-0.0317721344 0.0744025264 -0.0067816748
-0.0315663503 0.0139318578 -0.0083613482
0.0145472364 0.0557467062 -0.0061813310
0.0331129659 0.0792686314 -0.0066837553
0.0187434802 0.0586004890 -0.0055380301
-0.0055818602 0.0547846650 -0.0059343160
0.0260572372 0.0240409337 -0.0069192231
-0.0336229474 0.0867370171 -0.0090468198
-0.0152625017 0.0557550281 -0.0063120266
0.0120276169 0.0365419403 -0.0065046817
0.0268144970 0.0649078607 -0.0071991626
0.0010462677 0.0400046667 -0.0067902842
-0.0339879035 0.0004654409 -0.0113427889
0.0339914982 -0.0001549166 -0.0220165974
-0.0246644089 0.0613881035 -0.0080285789
0.0295732620 0.0994071183 -0.0087732078
0.0279836251 0.1008529991 -0.0131406910
0.0246800766 0.0600672126 -0.0093829155
-0.0279901581 0.0218212164 -0.0093148130
0.0099946411 0.0403642798 -0.0081511720
-0.0105093400 0.0392883595 -0.0079049019
-0.0211529427 0.0307120032 -0.0089332041
0.0316745058 0.0952043555 -0.0138815282
0.0336069506 0.0940299064 -0.0083589107
-0.0314019252 0.0947653141 -0.0146605100
0.0204196467 0.0565910849 -0.0081894235
-0.0062787042 0.0422242801 -0.0081211697
0.0202351968 0.0534321758 -0.0101906604
0.0316715398 0.0146524204 -0.0134623932
-0.0332075403 0.0080996921 -0.0107053648
-0.0074066840 0.0481132068 -0.0085587362
0.0058788756 0.0481962737 -0.0084046865
-0.0304795648 0.0687106221 -0.0153763941
0.0224474996 0.0307337430 -0.0109615716
-0.0255246274 0.0274792730 -0.0133158014
-0.0084302792 0.0447464350 -0.0088580080
-0.0319720999 0.0783747795 -0.0139786954
0.0306935781 0.0700882828 -0.0116820312
-0.0333005529 0.1019157624 -0.0102833378
0.0331231676 0.0819089394 -0.0102346522
0.0125866160 0.0470134802 -0.0095526110
-0.0288095382 0.0639369845 -0.0138087231
0.0291179206 0.0663281952 -0.0111093345
0.0125917158 0.0447351791 -0.0098369745
0.0184793809 0.0356414364 -0.0105776684
-0.0306927363 0.0169185109 -0.0110955276
0.0188274731 0.0501091797 -0.0110282536
-0.0191585878 0.0522879420 -0.0101419636
-0.0200807681 0.0532361501 -0.0101823794
0.0237542405 0.0571479048 -0.0109551354
-0.0271782231 0.1015213426 -0.0144898709
-0.0275373074 0.0940445520 -0.0137748750
-0.0207558814 0.0332472708 -0.0113511391
-0.0318638263 0.0896654758 -0.0145296727
0.0192827941 0.0417689187 -0.0132247981
0.0336181676 0.0064328953 -0.0211094301
-0.0330422065 0.0100295089 -0.0181910138
0.0298667031 0.0197531786 -0.0146671486
0.0207409359 0.0500002713 -0.0123997809
-0.0311835624 0.0814581905 -0.0167451962
0.0215862560 0.0343855635 -0.0128795262
0.0302251705 0.0679347708 -0.0158305288
-0.0289497658 0.0638583931 -0.0149739051
-0.0320163604 0.0889072484 -0.0141968724
0.0321291825 0.0931071200 -0.0137959094
0.0242595856 0.0541509985 -0.0138420587
-0.0238139763 0.0348238468 -0.0168624913
0.0267698850 0.0258960908 -0.0142982018
0.0251573899 0.0961618919 -0.0177825973
0.0247408220 0.1010869755 -0.0184159589
0.0217711211 0.0400164886 -0.0153421803
-0.0319908750 0.0145018502 -0.0174412689
0.0291001750 0.0991482462 -0.0184988730
0.0289958180 0.0954073998 -0.0186649562
-0.0274279129 0.0976710722 -0.0211602569
0.0303293027 0.1031742022 -0.0170954600
-0.0302141302 0.0706940906 -0.0193929207
-0.0263077171 0.0314215241 -0.0194991259
0.0315585020 0.0788208980 -0.0157713971
0.0339327880 0.0018616374 -0.0191436183
-0.0339298978 0.0021657905 -0.0204517191
0.0239644301 0.0371532158 -0.0174053634
-0.0284037481 0.0616010605 -0.0164931144
-0.0249192822 0.0486875266 -0.0177879069
-0.0280071466 0.0582799304 -0.0205439272
-0.0281507925 0.1035000011 -0.0186063161
0.0291228356 0.0230470684 -0.0180869018
0.0277671440 0.0573978831 -0.0206067588
0.0268293747 0.0504291186 -0.0212391305
-0.0239932479 0.0440082309 -0.0176904240
-0.0248145889 0.1003644520 -0.0183284666
-0.0212753230 0.0937638067 -0.0225464002
0.0323509932 0.0142388107 -0.0215273313
0.0315682617 0.0173209925 -0.0214561872
-0.0319432555 0.0157125100 -0.0211820979
0.0249802087 0.0423491108 -0.0195679290
0.0271502735 0.0293559848 -0.0197461755
0.0339976343 0.0000600785 -0.0221257223
-0.0278532853 0.0816501586 -0.0223832453
-0.0252066576 0.0477859709 -0.0185899270
0.0294182028 0.0834336799 -0.0198005552
0.0293172757 0.0726385085 -0.0215948230
0.0293926716 0.0678044983 -0.0217783941
-0.0311865265 0.0181968305 -0.0208256970
0.0293400304 0.0643011522 -0.0197462917
0.0267127586 0.0384647459 -0.0230632081
0.0274760227 0.0519985339 -0.0233441452
0.0195487793 0.0943518902 -0.0238875879
0.0203382295 0.1004213657 -0.0231427808
0.0284970512 0.0273521419 -0.0214725078
0.0289970816 0.0271690771 -0.0233292459
-0.0291407480 0.0261096972 -0.0230639452
0.0335288343 0.0084826793 -0.0298842508
-0.0332041140 0.0104467337 -0.0247307572
0.0266327031 0.0337670376 -0.0213651474
-0.0270140428 0.0397155106 -0.0239734554
-0.0260501226 0.0752353769 -0.0265070094
0.0275844802 0.0790439467 -0.0233825856
-0.0267922561 0.0633889698 -0.0294980212
-0.0267790195 0.0915152893 -0.0226334455
0.0258699209 0.0950136856 -0.0228947299
-0.0237558068 0.0985903328 -0.0250088434
0.0212529327 0.1035000011 -0.0239513132
-0.0286393533 0.0630101942 -0.0242220401
0.0277991516 0.0549413056 -0.0232204077
-0.0217093279 0.1009606936 -0.0273724587
-0.0275240713 0.0447975632 -0.0258280800
-0.0187387993 0.0980967572 -0.0244355912
-0.0158940053 0.1020931315 -0.0265534619
-0.0312706692 0.0191071701 -0.0237684323
0.0315266552 0.0214672582 -0.0316418610
0.0278347377 0.0362445121 -0.0262038727
-0.0232280780 0.0823714493 -0.0274760567
0.0259415580 0.0848033010 -0.0243598589
-0.0249056966 0.0904220175 -0.0247599990
-0.0294417971 0.0280492745 -0.0267556496
-0.0337207526 0.0064206182 -0.0282614398
0.0338895317 0.0033349092 -0.0270930385
-0.0277595461 0.0501088550 -0.0277213424
-0.0255087433 0.0645423660 -0.0311211357
-0.0256522493 0.0712030958 -0.0283606764
0.0263078137 0.0648900583 -0.0297985801
0.0271862408 0.0649694978 -0.0280509932
0.0135929417 0.0945803317 -0.0277057900
0.0209130115 0.1035000011 -0.0267372516
-0.0277917644 0.0487742244 -0.0295058042
-0.0277424690 0.0537557293 -0.0269276655
-0.0283373411 0.0394726642 -0.0286958555
0.0324074430 0.0156878368 -0.0284052903
-0.0317436370 0.0197895724 -0.0297007699
-0.0231892512 0.0873819559 -0.0267320462
0.0214653929 0.0877830024 -0.0279341416
-0.0226160708 0.0760947160 -0.0297703220
-0.0129778983 0.0974658745 -0.0279347169
-0.0119379150 0.1035000011 -0.0322383035
-0.0101302958 0.0955329443 -0.0291630528
-0.0299355538 0.0302465061 -0.0323927621
0.0189260404 0.0963868969 -0.0288317643
-0.0206312175 0.0977753570 -0.0277603331
0.0276241504 0.0492081741 -0.0298763226
0.0219430076 0.1026851813 -0.0272503143
-0.0301628940 0.0274963403 -0.0302455554
0.0339898256 0.0011222251 -0.0283430014
0.0284846276 0.0398009100 -0.0313076981
-0.0280689028 0.0430830133 -0.0293680305
-0.0201145208 0.0790528264 -0.0308874242
0.0209862869 0.0794526742 -0.0301678660
0.0094362267 0.0945988284 -0.0293156125
0.0095705040 0.1033209473 -0.0292754125
0.0274312306 0.0522990705 -0.0302810559
-0.0192768973 0.0930568978 -0.0292380938
0.0332608762 0.0108493114 -0.0304609884
-0.0332197328 0.0114316663 -0.0319262126
-0.0231040660 0.0615255289 -0.0354709982
0.0250875751 0.0627834541 -0.0323102768
0.0213494842 0.0643628029 -0.0356300353
-0.0070218363 0.1027721345 -0.0300272416
-0.0064203506 0.1035000011 -0.0339728701
-0.0024034592 0.0997335780 -0.0308415854
-0.0289572509 0.0361296955 -0.0314087914
0.0279026302 0.0443919447 -0.0323270539
-0.0177621760 0.0795469957 -0.0322261064
0.0141039527 0.0882471774 -0.0322236373
0.0041852776 0.0999851135 -0.0305988056
0.0034612996 0.1019282160 -0.0306409725
-0.0200870431 0.0746527052 -0.0323487182
-0.0316988240 0.0214719672 -0.0337150175
-0.0253407808 0.0583353887 -0.0339459050
0.0305398192 0.0279863483 -0.0340579294
-0.0275680688 0.0461490818 -0.0339731889
0.0090806080 0.0944057702 -0.0333544182
-0.0137267774 0.0960771387 -0.0317286527
0.0102662607 0.1030563436 -0.0332773865
0.0139461182 0.0934834594 -0.0320891547
-0.0140709394 0.0784640508 -0.0341975125
0.0152059793 0.0822731716 -0.0327086305
-0.0120583108 0.0922372932 -0.0329424603
-0.0270962160 0.0462860099 -0.0361053000
0.0337528468 0.0070799157 -0.0427137494
-0.0336794939 0.0072825781 -0.0362713527
0.0289349159 0.0365560066 -0.0361929354
-0.0339864531 0.0006804490 -0.0344411347
0.0083112252 0.0906742921 -0.0340744747
-0.0215369032 0.0642742582 -0.0355366831
0.0187501658 0.0717366094 -0.0342015870
-0.0120045876 0.0757791225 -0.0358243600
0.0026982795 0.1001576389 -0.0343959763
-0.0066592726 0.0972736065 -0.0339496798
-0.0025018805 0.0939605087 -0.0346357212
-0.0263588860 0.0511323247 -0.0353531576
-0.0069007377 0.0918620241 -0.0343950661
-0.0256713316 0.0518915065 -0.0365549327
0.0324104788 0.0181045762 -0.0424366165
-0.0316123518 0.0224400831 -0.0363604916
0.0304701203 0.0286755170 -0.0392207853
-0.0060067341 0.0786802584 -0.0365320523
0.0003041042 0.1011965948 -0.0349773826
0.0086767313 0.0794307651 -0.0357301336
-0.0061898453 0.0938748862 -0.0344063964
-0.0051672103 0.0861252041 -0.0351698735
0.0016580670 0.0817156220 -0.0362278748
-0.0173503126 0.0696937515 -0.0359417695
-0.0043894943 0.0829455499 -0.0357078809
0.0279126657 0.0399855656 -0.0390315605
-0.0199006911 0.0617233823 -0.0381798071
-0.0050911501 0.0762040929 -0.0372942351
0.0016809785 0.0788705737 -0.0368122860
0.0339447724 0.0030502047 -0.0421252404
-0.0339063543 0.0040482414 -0.0396726929
0.0208961289 0.0604884505 -0.0379025536
-0.0105960866 0.0728864742 -0.0373195633
-0.0114600903 0.0642892160 -0.0406518848
-0.0193130055 0.0650094469 -0.0369125612
0.0186146194 0.0592547487 -0.0402728355
-0.0259821672 0.0484810431 -0.0376795755
-0.0294978392 0.0335809950 -0.0385505788
0.0329169541 0.0147198048 -0.0452839499
-0.0324778635 0.0176910275 -0.0439940189
-0.0025709028 0.0721457367 -0.0388255900
0.0055097655 0.0714550598 -0.0388727826
0.0018065630 0.0725453552 -0.0387826350
-0.0313320433 0.0243654587 -0.0411525863
-0.0107352633 0.0677978058 -0.0393379594
0.0062648955 0.0687194443 -0.0397689633
-0.0339957362 0.0004487479 -0.0407604285
-0.0238962476 0.0495221838 -0.0406955364
-0.0249976106 0.0485098863 -0.0398022997
-0.0135377865 0.0606829316 -0.0418068684
0.0276323507 0.0379178975 -0.0427992653
0.0029947587 0.0691146412 -0.0398710060
0.0064264933 0.0640882408 -0.0417500820
-0.0266485936 0.0412955190 -0.0420046161
-0.0289381617 0.0345989249 -0.0417266608
0.0334549878 0.0106204596 -0.0410039071
-0.0330813941 0.0134517908 -0.0446094526
-0.0218346907 0.0504924008 -0.0427031914
-0.0179971473 0.0476687217 -0.0472065897
0.0121801783 0.0585045419 -0.0433667586
0.0171537712 0.0489105370 -0.0470264712
0.0303564535 0.0276807540 -0.0449110798
-0.0315332870 0.0230937365 -0.0430884370
0.0240050686 0.0429163309 -0.0449810067
-0.0044314424 0.0588229555 -0.0445632725
0.0065116226 0.0591845639 -0.0441530973
-0.0145742052 0.0501808658 -0.0473955601
0.0148939598 0.0465020852 -0.0493191998
0.0165273740 0.0511761406 -0.0460090775
0.0206694985 0.0489421542 -0.0446325792
-0.0286450309 0.0296113281 -0.0491857845
0.0339624922 0.0024832949 -0.0466663729
-0.0335449879 0.0091503917 -0.0484648114
-0.0110388367 0.0553817032 -0.0454665073
-0.0083469887 0.0548213621 -0.0462317471
0.0077366199 0.0530993709 -0.0472527107
-0.0217533479 0.0448751386 -0.0461283316
0.0325372857 0.0168365879 -0.0480138933
-0.0005717756 0.0512944206 -0.0487049618
-0.0038100866 0.0503210605 -0.0491132660
-0.0105905531 0.0456478766 -0.0510775412
0.0048378236 0.0567088656 -0.0456076968
0.0049873312 0.0456117827 -0.0515986159
0.0290645573 0.0270480178 -0.0509063348
0.0303954686 0.0270240895 -0.0462970965
-0.0226091223 0.0397674032 -0.0486673369
0.0217705958 0.0431390336 -0.0471570287
0.0339977559 0.0002416815 -0.0485519459
-0.0336752460 0.0068585716 -0.0496457180
-0.0261359596 0.0270573013 -0.0543106393
0.0312962625 0.0205667095 -0.0522737563
0.0339897671 -0.0001871732 -0.0547970569
-0.0331420006 0.0125568942 -0.0503496398
0.0191864936 0.0365902805 -0.0531407823
-0.0187397172 0.0357263077 -0.0539281731
-0.0243113363 0.0278542111 -0.0551896369
0.0149651063 0.0437770765 -0.0508826524
-0.0140893563 0.0417198712 -0.0523706476
0.0300999737 0.0243295770 -0.0513613096
0.0153669813 0.0361822252 -0.0550644119
0.0242429597 0.0256725557 -0.0566636483
0.0093436934 0.0431488946 -0.0526115928
-0.0106085001 0.0430356955 -0.0524992255
-0.0073626687 0.0441357448 -0.0522712599
0.0072560663 0.0433091202 -0.0527184506
0.0046718024 0.0435850066 -0.0527102470
-0.0064158383 0.0368004076 -0.0563014192
0.0023169483 0.0382714104 -0.0556244167
-0.0004204710 0.0401252010 -0.0546455518
-0.0290974804 0.0247126186 -0.0528579390
0.0219218239 0.0333186500 -0.0535049123
-0.0313902479 0.0180965532 -0.0542385135
-0.0276127794 0.0243308437 -0.0548556479
-0.0152360627 0.0344557255 -0.0560879621
-0.0337013588 0.0054046013 -0.0556791284
-0.0235170004 0.0268705473 -0.0564188301
0.0222040700 -0.0257077686 -0.0554195351
0.0258135572 -0.0218824031 -0.0571726681
-0.0223109571 -0.0254630241 -0.0567724727
0.0011451554 -0.0339741622 -0.0554865074
-0.0328144696 0.0096179614 -0.0567824477
0.0258022234 0.0239160051 -0.0566446909
0.0011808924 -0.0338590131 -0.0565648705
0.0283529915 -0.0184126391 -0.0570319735
0.0134301050 0.0346450635 -0.0565600573
0.0034511376 -0.0335062024 -0.0577166166
0.0333807314 0.0064039390 -0.0571500099
-0.0249508883 0.0213782731 -0.0586260368
0.0241107408 -0.0232321071 -0.0583478560
-0.0105412372 0.0301948424 -0.0592359354
0.0115225353 0.0314479768 -0.0584835652
-0.0150776850 0.0283468612 -0.0592477921
0.0166837403 0.0261868963 -0.0597895568
-0.0051844689 0.0322539096 -0.0586625544
-0.0293400263 -0.0157017069 -0.0588387864
-0.0067781681 -0.0329109299 -0.0581778370
-0.0281484286 -0.0175523370 -0.0590699564
-0.0007680782 0.0292120558 -0.0600403880
0.0268437190 0.0165779793 -0.0599136144
-0.0191478757 -0.0270948126 -0.0591885493
-0.0224717048 -0.0231984858 -0.0606877746
0.0156365567 0.0255317133 -0.0603539832
0.0305343404 -0.0085222204 -0.0610490008
0.0298733753 0.0116507011 -0.0599853700
0.0146467025 -0.0286430345 -0.0607952889
-0.0246519991 0.0165727023 -0.0609818041
-0.0097178302 0.0248392148 -0.0616651970
-0.0024738573 -0.0313066302 -0.0615228750
-0.0008262034 0.0274465170 -0.0608088758
0.0076113049 0.0241638657 -0.0620690202
-0.0154426863 0.0183747719 -0.0631823894
0.0220401864 0.0187863135 -0.0612272401
-0.0258900270 -0.0184968035 -0.0610882255
-0.0208234651 -0.0237624342 -0.0613506596
-0.0233601058 0.0154127722 -0.0620276004
0.0202625611 0.0181207483 -0.0620815767
-0.0132924571 -0.0274921582 -0.0622818708
0.0304202450 0.0026145206 -0.0617619803
-0.0134908298 0.0221652885 -0.0621783148
0.0131999370 0.0230506222 -0.0619068440
0.0282000669 0.0074878329 -0.0623592029
0.0264192300 -0.0081507854 -0.0636244245
-0.0190778635 -0.0227585997 -0.0628807096
-0.0062186973 0.0222287925 -0.0628259002
-0.0141969350 -0.0256526510 -0.0631378683
-0.0081947848 0.0190612872 -0.0637900002
-0.0062296869 0.0181058766 -0.0641097655
-0.0183476649 0.0164017275 -0.0631791283
0.0174925826 0.0161714734 -0.0633951009
-0.0275156840 0.0014331274 -0.0634079551
-0.0250417029 -0.0075797186 -0.0641995827
-0.0239047910 0.0084360345 -0.0638359220
0.0199410245 -0.0201828713 -0.0636392808
-0.0195954782 -0.0206415394 -0.0635801737
-0.0252294933 0.0057168491 -0.0638937128
-0.0271018171 -0.0016946358 -0.0636808118
0.0131122192 0.0139678133 -0.0647526633
0.0209403137 -0.0125754250 -0.0648539439
-0.0198791240 -0.0131622782 -0.0650171950
-0.0148188805 -0.0229809489 -0.0641365462
-0.0075338374 -0.0259648761 -0.0641970750
-0.0063744000 0.0158214969 -0.0647416644
0.0067465863 0.0169888515 -0.0644653152
-0.0218560884 0.0074369665 -0.0645648148
0.0210807556 0.0011311080 -0.0653046652
-0.0186240274 0.0089483606 -0.0649709812
0.0032071213 0.0138916128 -0.0653378084
0.0233441269 -0.0058934057 -0.0647715778
-0.0219488793 -0.0050391200 -0.0651194864
-0.0034988912 -0.0230239040 -0.0652371186
0.0081201073 -0.0208029094 -0.0654635376
-0.0098547544 0.0103819854 -0.0657852567
0.0114650349 0.0091013884 -0.0658296878
0.0171378344 -0.0127887662 -0.0655410867
-0.0075200676 -0.0203450991 -0.0655886225
0.0094335037 -0.0199264042 -0.0655377718
-0.0181354890 0.0012842855 -0.0658174211
0.0138123805 -0.0124686088 -0.0660399313
-0.0125979541 -0.0155131852 -0.0658488063
-0.0189549735 -0.0024037194 -0.0657418110
-0.0053547651 0.0092811125 -0.0661032554
0.0056582036 0.0093987297 -0.0660818960
0.0025468530 -0.0199410069 -0.0658976481
0.0152224299 -0.0079527237 -0.0661316540
-0.0159215311 -0.0061888826 -0.0661045503
0.0118276413 0.0038985370 -0.0663808032
-0.0053169513 -0.0136562881 -0.0665152413
0.0120629925 -0.0129045288 -0.0662097731
-0.0097179257 -0.0088018414 -0.0665759935
-0.0126181470 -0.0033855947 -0.0665099002
-0.0081530859 0.0028482257 -0.0666508500
0.0086324910 0.0038388977 -0.0665934928
0.0097206543 -0.0039956322 -0.0666674216
0.0026431266 -0.0119554882 -0.0666876602
-0.0054219478 0.0009053835 -0.0668227242
0.0075915599 -0.0086651901 -0.0666963374
0.0014258574 -0.0014201350 -0.0669474145
-0.0051594429 -0.0002328510 -0.0668802988
-0.0019032222 -0.0032623939 -0.0669075651
