0.0001153078 0.0448737738 0.0022704178
-0.0012911051 0.0447707659 0.0052733070
0.0056590103 0.0444647922 0.0052900834
-0.0042894608 0.0443826452 -0.0027834811
0.0067604341 0.0444368547 -0.0024078338
-0.0034359662 0.0444350018 0.0040592071
0.0093804859 0.0440134232 -0.0020856960
0.0021090522 0.0439936808 -0.0075844287
0.0011545045 0.0442254544 -0.0084504552
0.0006703776 0.0437079185 0.0137313206
-0.0043785064 0.0439934225 -0.0078888901
0.0070283985 0.0438198678 0.0071910903
0.0107334231 0.0438097951 0.0004944056
-0.0042456004 0.0439358720 0.0085386036
0.0116029502 0.0433980209 0.0054650525
-0.0110476924 0.0436557697 -0.0005036864
0.0074867013 0.0434278721 0.0122977687
-0.0108927674 0.0435790835 0.0033779302
-0.0096300798 0.0427992704 0.0141162630
0.0106617582 0.0434256038 0.0081270761
0.0117779468 0.0435927891 -0.0007978875
0.0087853637 0.0428272248 -0.0117593469
0.0003640310 0.0428052271 -0.0147361607
0.0127854435 0.0431614474 0.0042702137
0.0049607671 0.0430545910 0.0161940675
-0.0070905573 0.0429306339 0.0158606140
-0.0107229885 0.0432189071 -0.0076249227
-0.0125202615 0.0430867196 0.0061763585
-0.0141974993 0.0421506025 0.0111531857
0.0051227312 0.0425511031 0.0184945187
-0.0090782576 0.0424350983 0.0167472771
-0.0015901650 0.0419517708 -0.0172671447
-0.0060761076 0.0426921477 -0.0138144498
-0.0151182920 0.0411826179 -0.0123641701
-0.0151007854 0.0423804705 -0.0052968486
0.0177708940 0.0418342496 -0.0016130357
0.0176505469 0.0412281007 -0.0084952145
0.0117651269 0.0412651416 -0.0154973191
0.0033543794 0.0424614875 -0.0156199365
0.0130515023 0.0415195314 0.0176486971
0.0113200519 0.0421601380 0.0163803568
-0.0120429603 0.0410129793 0.0208630453
0.0179223860 0.0416979805 0.0005424380
0.0162259733 0.0420803377 0.0071754834
-0.0176723480 0.0405957525 0.0147610491
-0.0032177487 0.0401510394 0.0292185610
0.0001752258 0.0412588535 0.0250906166
-0.0063076877 0.0410956863 0.0247827565
0.0102771658 0.0399510560 0.0273495681
-0.0133774719 0.0398936070 0.0248045217
0.0169550260 0.0410470067 0.0136672552
-0.0160161579 0.0399297715 0.0211098519
-0.0033965880 0.0399569745 -0.0220857797
-0.0081992538 0.0409777764 -0.0182862222
0.0189363741 0.0409804262 -0.0071013366
-0.0107548190 0.0404268244 -0.0183854375
-0.0150334440 0.0396776378 -0.0172651779
0.0128223055 0.0400695870 -0.0181074872
-0.0208882887 0.0394679889 -0.0102487568
0.0069437848 0.0410214800 -0.0188364698
0.0029664964 0.0400473011 -0.0219957850
-0.0228299729 0.0395989734 0.0022561471
0.0208360718 0.0401146509 0.0093895441
-0.0211247694 0.0399077162 0.0092456214
0.0217936712 0.0391960261 0.0128511636
0.0180052544 0.0401210589 0.0171655501
-0.0188696512 0.0385749095 0.0226383053
-0.0014425286 0.0393242890 0.0321752721
0.0002699383 0.0379103281 0.0369659765
0.0043767620 0.0388743202 0.0334629747
-0.0057573039 0.0390874526 0.0323764725
-0.0047858039 0.0380643688 0.0360982805
0.0096720694 0.0390586405 0.0309066695
-0.0129199111 0.0388622750 0.0293201877
0.0104301021 0.0385284052 0.0322977693
-0.0123532154 0.0364750520 0.0381267074
-0.0163403307 0.0364908232 0.0334856928
0.0138451852 0.0385441825 0.0294169123
0.0239215150 0.0385845840 -0.0075864524
0.0226542490 0.0376177628 -0.0141124752
0.0148750178 0.0377624484 -0.0217851650
0.0229006796 0.0385074518 0.0136510949
0.0103749656 0.0372794315 -0.0251251569
0.0037305667 0.0390265650 -0.0240037801
-0.0228567877 0.0384979434 0.0131239871
-0.0031944979 0.0380421337 -0.0256593746
-0.0127267306 0.0380327235 -0.0225112894
0.0156429577 0.0378185534 0.0299005970
-0.0205178734 0.0383523293 -0.0146981515
-0.0240186394 0.0383734253 -0.0077192292
-0.0265732428 0.0372765071 0.0052010347
0.0227642012 0.0383074732 0.0153074497
-0.0007929444 0.0376195164 -0.0265483185
0.0184363583 0.0376805589 0.0267343019
0.0265401874 0.0376989517 0.0001387678
0.0019673084 0.0354111881 0.0452347164
0.0022700514 0.0346624815 0.0476682221
0.0044932558 0.0361290291 0.0425920985
-0.0002853409 0.0363477075 0.0421607907
-0.0064025435 0.0338362133 0.0495510831
-0.0039288598 0.0370948717 0.0395404281
0.0273382289 0.0367998766 0.0046594374
0.0266337914 0.0365269912 -0.0090730678
-0.0278230610 0.0365290841 0.0024749425
0.0226954943 0.0362178735 -0.0171786806
0.0140360390 0.0356473769 -0.0255210499
0.0025695281 0.0370912903 -0.0272952714
-0.0022644815 0.0370546784 -0.0272396662
-0.0100215776 0.0363160438 -0.0264911054
-0.0180867356 0.0355922615 -0.0228652564
-0.0247801429 0.0349451851 -0.0168726506
-0.0242517755 0.0362150546 -0.0147816219
-0.0289541288 0.0357576830 0.0003609399
0.0081858330 0.0358938490 0.0423290215
-0.0103125228 0.0365154753 0.0392533144
0.0182405906 0.0361784009 0.0317284044
-0.0207396888 0.0358557236 0.0283256118
-0.0237065207 0.0351812209 0.0239255211
0.0103503534 0.0334644042 0.0488492572
0.0126639855 0.0338885671 0.0456242927
-0.0133593859 0.0354186679 0.0403380612
-0.0115360757 0.0328082621 0.0498538992
-0.0271337850 0.0346907297 0.0162129870
0.0232699787 0.0345109715 0.0268090967
-0.0204054501 0.0324061479 0.0378227433
-0.0258310092 0.0327948805 0.0245467309
0.0149244134 0.0314841750 0.0500043701
-0.0301202781 0.0347365153 0.0011321399
-0.0041896652 0.0333532552 -0.0310472528
-0.0186443498 0.0340390063 -0.0244443966
-0.0279417655 0.0346383748 -0.0115194956
-0.0289715396 0.0339215374 0.0128082843
0.0046877699 0.0344606838 -0.0300469405
0.0149629562 0.0330565987 -0.0276864580
0.0226532061 0.0339743135 -0.0207523154
0.0289052555 0.0335905010 -0.0112363580
0.0300637727 0.0330067293 0.0111744281
0.0221877601 0.0330345150 0.0325844806
-0.0241966061 0.0327590094 0.0284557943
0.0184006287 0.0333597366 0.0395230023
-0.0002802297 0.0327975831 0.0543139070
0.0274055740 0.0333942124 0.0191426199
-0.0040636146 0.0332937032 0.0519108970
-0.0148231325 0.0328511442 0.0463994499
-0.0053705709 0.0309718495 -0.0323808930
-0.0176243491 0.0324421008 -0.0265529960
-0.0241123767 0.0314476012 -0.0217359974
-0.0315770924 0.0317504450 -0.0066972191
-0.0088615548 0.0321296581 0.0538429404
0.0318748761 0.0318799732 0.0055239619
-0.0324497382 0.0312771389 0.0025850780
0.0130351339 0.0305382537 0.0546680216
0.0247629223 0.0323532223 0.0280228455
-0.0252521689 0.0312445187 0.0285380957
0.0288599117 0.0316402275 0.0184767856
0.0120237568 0.0322205541 -0.0297212690
0.0258459844 0.0313847611 -0.0198048441
-0.0026282501 0.0314538888 -0.0323412732
0.0049866269 0.0318638024 0.0569645079
-0.0025891389 0.0316235058 0.0582506324
0.0325649035 0.0312842133 -0.0010621493
0.0197372735 0.0307962136 0.0426862803
0.0298282265 0.0304761104 0.0171394258
0.0167731072 0.0313182216 0.0475287910
-0.0188435925 0.0303932357 0.0455498152
-0.0016758914 0.0308812029 0.0622946773
-0.0148363658 0.0298022685 0.0546934051
-0.0041433545 0.0309139586 0.0611461923
-0.0326695955 0.0308189430 -0.0029699993
-0.0005074939 0.0285659503 -0.0336188962
-0.0225134535 0.0292856190 -0.0245832077
-0.0274595155 0.0308325042 -0.0179606614
-0.0322713775 0.0291912133 -0.0084232924
0.0105752739 0.0296708540 -0.0315408830
0.0173728044 0.0286214963 -0.0286861428
0.0300202936 0.0305250333 -0.0135033648
0.0331826370 0.0291171507 -0.0039206885
0.0007930967 0.0300605906 0.0667853150
0.0253792954 0.0281364616 0.0320881890
0.0282557717 0.0289879654 0.0234961736
0.0331259940 0.0289209779 0.0053235012
-0.0321531626 0.0285342167 0.0109586159
0.0333021984 0.0285736262 0.0044627462
-0.0005198787 0.0299247060 0.0676975558
-0.0038926794 0.0295287666 0.0693325803
0.0310890037 0.0294639667 0.0142956444
0.0002636460 0.0296017424 0.0711946032
-0.0163231734 0.0264685718 0.0630432153
0.0189338653 0.0276198805 0.0529993444
0.0001913874 0.0294208307 0.0732252133
0.0097198732 0.0282647154 0.0687424000
0.0292920904 0.0290126455 0.0205223528
-0.0035919811 0.0290217426 0.0735240185
0.0222866787 0.0268116192 0.0430539588
-0.0207667275 0.0283544270 0.0450439258
-0.0001873476 0.0289990944 0.0783917383
-0.0006675048 0.0289711603 0.0886853698
0.0009214375 0.0288678387 0.0976144597
0.0008325587 0.0288922547 0.0931833832
-0.0004932719 0.0289064807 0.1266505163
-0.0000750331 0.0266463447 0.1284999996
-0.0040443089 0.0229461243 0.1284999996
-0.0022964965 0.0288621831 0.0806705561
-0.0046008156 0.0285288009 0.0916194282
-0.0050855593 0.0283338090 0.1161918355
-0.0040852616 0.0285575807 0.1082935241
-0.0073564971 0.0279299838 0.1091495520
-0.0034635303 0.0286687035 0.1100862132
0.0026621559 0.0287159057 0.1071683970
0.0022687294 0.0288177675 0.0899388470
0.0041338416 0.0286713429 0.0964365326
0.0018985000 0.0287253476 0.1157942411
0.0077213054 0.0283428930 0.0722641577
-0.0104643404 0.0278213859 0.0701958581
-0.0082734416 0.0277412993 0.1128786294
-0.0066708963 0.0281009773 0.1002241027
0.0040463007 0.0287010599 0.0880501294
-0.0118975869 0.0280864828 0.0658211628
-0.0006815199 0.0284871166 0.1201963677
0.0061538570 0.0278132325 0.1203447890
-0.0028112331 0.0283531202 0.1254060098
0.0071706858 0.0281240738 0.0775108568
0.0227401901 0.0276576433 0.0404443924
0.0093299847 0.0272720189 0.1071143412
0.0067091104 0.0280861628 0.1161053017
0.0103535093 0.0269312876 0.1090761601
0.0094247310 0.0272297780 0.1098660499
0.0067646142 0.0281536634 0.0955598731
0.0055274810 0.0284460609 0.1024750499
0.0048063220 0.0230668754 0.1284999996
-0.0004178811 0.0218247730 0.1284999996
-0.0068164344 0.0281428142 0.0871966502
-0.0115602446 0.0269056031 -0.0317710421
-0.0241530933 0.0271523290 -0.0236898642
-0.0295037405 0.0268757405 -0.0165838644
0.0040926379 0.0261258874 -0.0336383025
0.0111144788 0.0267352878 -0.0319746445
0.0266354442 0.0268368110 -0.0209110787
0.0310054314 0.0258678211 -0.0137928615
-0.0008000897 0.0272850779 -0.0337793900
-0.0068684218 0.0277073176 0.1210396962
-0.0090338633 0.0270037244 0.1235138195
-0.0088306865 0.0275977255 0.1018653574
0.0101335439 0.0271549131 0.0807928187
0.0116131667 0.0265015563 0.1140123795
-0.0338495015 0.0259742696 -0.0022167867
-0.0330235126 0.0266375407 0.0084165813
0.0150917390 0.0267014339 0.0647346542
0.0195440664 0.0262214107 0.0555544813
-0.0088595995 0.0252146105 0.1284999996
-0.0082479998 0.0232789163 0.1284999996
0.0303816016 0.0269945470 0.0184896555
0.0247864148 0.0272314033 0.0346171515
-0.0090055274 0.0275336378 0.0946201429
-0.0103092045 0.0270205894 0.1026887744
-0.0118860926 0.0262539209 0.1082763354
-0.0117092467 0.0263534970 0.1045671619
-0.0097076499 0.0272343993 0.1183924324
-0.0113019590 0.0265101498 0.1125033284
0.0123746979 0.0256455733 0.1242884739
0.0130642126 0.0253532953 0.1194999889
-0.0152397886 0.0249699496 0.0741364895
0.0115183531 0.0265780585 0.0927033492
0.0126348548 0.0261166802 0.0789306920
-0.0118419282 0.0264389017 0.0795682425
-0.0231981492 0.0259043386 0.0409246529
-0.0132577437 0.0257773240 0.0801133968
-0.0148246967 0.0248737261 0.1095683017
0.0284741459 0.0250171956 0.0242512348
-0.0167999803 0.0253668080 0.0662720303
0.0158641632 0.0240496890 0.1092387660
0.0126254179 0.0260897630 0.1130280760
0.0129869231 0.0258849383 0.1069301074
0.0146553042 0.0248087672 0.1112427234
0.0125592361 0.0260914115 0.0809256492
0.0197955811 0.0253802136 0.0574274435
-0.0199638717 0.0250388551 0.0579861652
0.0151882751 0.0234761550 0.1284999996
0.0101392771 0.0226779113 0.1284999996
0.0223304796 0.0258534199 0.0440142950
-0.0148136869 0.0243224404 0.1215475127
0.0017089494 0.0222460336 -0.0338872512
0.0011728838 0.0174097791 -0.0339376146
0.0046433624 0.0243480176 -0.0336447682
-0.0045456031 0.0199338683 -0.0336828833
0.0053657123 0.0136892344 -0.0335278450
0.0082319682 0.0204374432 -0.0329234616
-0.0071332804 0.0226132861 -0.0331727049
0.0088866668 0.0189286432 -0.0327619976
0.0119215552 0.0231798782 -0.0317615048
-0.0116810237 0.0180100503 -0.0318900601
0.0130714882 0.0168079055 -0.0313177158
-0.0131534188 0.0237170025 -0.0312490538
-0.0151657675 0.0174991458 -0.0304281909
0.0163205388 0.0148236686 -0.0297733168
-0.0171858755 0.0147817465 -0.0292816958
0.0190513345 0.0187647595 -0.0280883416
0.0213713583 0.0186805561 -0.0263870296
-0.0207202780 0.0228965988 -0.0269057340
0.0238617577 0.0141096079 -0.0241955000
-0.0229618192 0.0234206733 -0.0249856268
-0.0225972647 0.0184154745 -0.0253401128
-0.0248217612 0.0160388211 -0.0231738622
-0.0266198577 0.0231815757 -0.0211394787
-0.0278373596 0.0214575289 -0.0194425690
-0.0292177608 0.0228542511 -0.0172999653
-0.0297412689 0.0166477008 -0.0163811529
-0.0315864031 0.0233679883 -0.0124675642
0.0265329850 0.0177996949 -0.0212587778
-0.0325775003 0.0156586352 -0.0095638223
-0.0333469717 0.0216038219 -0.0063822373
-0.0336144116 0.0159688335 -0.0049424054
-0.0337447691 0.0226238871 -0.0041377923
-0.0339828688 0.0161928444 -0.0003004592
0.0295722848 0.0248952931 -0.0166708998
0.0305181543 0.0241475477 -0.0149859771
0.0317286998 0.0187946299 -0.0121082319
0.0324991276 0.0155299290 -0.0098573900
0.0329391019 0.0227664691 -0.0082720580
0.0335295494 0.0246157075 -0.0053045501
0.0339577165 0.0235415917 -0.0007300320
-0.0140034374 0.0253700435 0.0881716301
0.0337420601 0.0233958119 0.0039773770
0.0164423128 0.0237139687 0.1023248361
0.0182451569 0.0225187924 0.1157670213
0.0249468949 0.0244509960 0.0350564512
-0.0334251307 0.0249971480 0.0067452022
-0.0319235991 0.0243189578 0.0133665391
0.0304954575 0.0237862512 0.0177340431
0.0239391234 0.0244261147 0.0385443221
-0.0295537096 0.0210533126 0.0196609750
-0.0162262936 0.0201093105 0.1284999996
-0.0114912119 0.0176020871 0.1284999996
0.0199027452 0.0235017346 0.0633222440
0.0173229729 0.0237423791 0.0732992920
-0.0155790740 0.0244112444 0.0821942183
-0.0174163403 0.0229607015 0.1121289801
-0.0173366445 0.0230050147 0.1177631270
-0.0181129006 0.0224214528 0.1024866273
-0.0167649360 0.0234845145 0.1160580064
0.0339733416 0.0199898866 -0.0004633867
-0.0277053004 0.0224717354 0.0254850911
-0.0233716306 0.0194776802 0.0621566119
0.0197668235 0.0206016540 0.1253549645
0.0173557429 0.0225962742 0.1198418698
-0.0298489668 0.0203743454 0.0184677869
0.0162714057 0.0239770065 0.0812599581
0.0292225999 0.0236423923 0.0217320413
-0.0176897506 0.0228809818 0.0835703588
0.0172272120 0.0232846176 0.0848236512
0.0179864751 0.0226927186 0.0880629348
-0.0192567310 0.0225061325 0.0708730638
-0.0244282367 0.0224260161 0.0362208430
0.0000315193 0.0232359562 -0.0075977988
0.0051608688 0.0232359562 -0.0131125184
0.0073612011 0.0232359562 -0.0182250925
0.0020747247 0.0222696204 -0.0200021155
0.0004604281 0.0173449697 -0.0200021155
0.0056438295 0.0197700399 -0.0191911858
-0.0016839214 0.0232359562 -0.0050349047
-0.0048932886 0.0232359562 -0.0115345042
-0.0084505876 0.0178839765 -0.0183254226
0.0063858786 0.0232359562 -0.0123442283
0.0112559327 0.0232359562 -0.0156640148
0.0074016776 0.0167070068 -0.0186489659
0.0117552103 0.0212506371 -0.0161940927
-0.0097258140 0.0232359562 -0.0113402766
-0.0050141636 0.0232359562 -0.0074217916
-0.0124334655 0.0227733843 -0.0157316670
-0.0106253139 0.0147018184 -0.0169644418
0.0119764401 0.0232359562 -0.0108487320
0.0126644259 0.0177544167 -0.0155742011
0.0142448751 0.0173602581 -0.0142184236
-0.0150523527 0.0232359562 -0.0128315823
-0.0083093254 0.0232359562 -0.0079641990
-0.0160902316 0.0178885085 -0.0119044152
-0.0150943902 0.0192741020 -0.0131531626
0.0034516103 0.0232359562 -0.0009587892
0.0079236512 0.0232359562 -0.0021832756
0.0174774760 0.0189260391 -0.0101648724
-0.0151778484 0.0232359562 -0.0052524966
-0.0150853447 0.0232359562 -0.0063008222
-0.0179756951 0.0223566923 -0.0089478718
-0.0183201909 0.0189290086 -0.0080701083
0.0184741668 0.0232359562 0.0003388711
0.0155834710 0.0232359562 -0.0003809427
0.0194548474 0.0198000981 -0.0051790535
0.0199188120 0.0217296573 -0.0018602327
-0.0088443419 0.0232359562 0.0001214094
-0.0200271385 0.0191221145 -0.0004146973
-0.0197265694 0.0162063247 -0.0044254861
0.0086503513 0.0232359562 0.0135000990
0.0014240844 0.0232359562 0.0043666545
0.0029988353 0.0232359562 0.0194084743
0.0021589359 0.0232359562 0.0085765427
-0.0028055287 0.0232359562 0.0160282321
-0.0013131633 0.0232359562 0.0049224929
0.0190833306 0.0232359562 0.0060911529
0.0056347654 0.0232359562 0.0042277746
0.0172159372 0.0232359562 0.0097162477
0.0145197081 0.0232359562 0.0116269316
0.0054453213 0.0232359562 0.0062145737
-0.0114990370 0.0232359562 0.0022246495
-0.0115637167 0.0232359562 0.0028099843
-0.0069181129 0.0232359562 0.0121712209
-0.0061473986 0.0232359562 0.0109486824
-0.0116084941 0.0232359562 0.0146593282
-0.0149452746 0.0232359562 0.0104435853
-0.0127597727 0.0232359562 0.0064049674
0.0201048961 0.0190142997 0.0006228906
0.0197468940 0.0170397726 0.0033719712
-0.0189197967 0.0213685245 0.0069957130
-0.0196216813 0.0137567936 0.0039205539
0.0191302759 0.0187797476 0.0060735682
0.0180433530 0.0172010682 0.0087522740
-0.0175203363 0.0203647610 0.0096581532
0.0160429479 0.0183625340 0.0122170687
0.0151462291 0.0148408211 0.0132324650
-0.0120416339 0.0218696900 0.0161131053
-0.0152357647 0.0135163812 0.0131493851
0.0128279153 0.0188098200 0.0153835439
0.0093777911 0.0214127847 0.0176845844
-0.0096994040 0.0224416035 0.0175297044
-0.0100820361 0.0164347615 0.0173454391
0.0068401044 0.0162308482 0.0189066656
-0.0051300245 0.0219763930 0.0194548311
-0.0023598535 0.0159436752 0.0198723729
0.0048617844 0.0148698785 0.0194952627
0.0230116369 0.0212200529 0.0421284174
0.0306502128 0.0195698214 0.0158207808
0.0231700700 0.0205800550 0.0400856875
-0.0212227650 0.0211328112 0.0671729298
-0.0193116744 0.0219968132 0.0742472105
-0.0228798016 0.0193870292 0.0421025236
0.0191582492 0.0218947631 0.0767833568
-0.0237189061 0.0206454441 0.0371156130
0.0230191333 0.0212304135 0.0565112080
0.0215116827 0.0191510807 0.1158669154
0.0220671617 0.0186446544 0.1051931139
0.0215984541 0.0193268525 0.0822310029
0.0219703892 0.0186993691 0.1112559167
0.0219166657 0.0188372075 0.1011430434
0.0196141830 0.0212633963 0.1018715589
0.0186153161 0.0222299666 0.1140697073
-0.0201684002 0.0207440994 0.1051336101
0.0155044975 0.0164515603 0.1284999996
0.0128689446 0.0175883589 0.1284999996
-0.0217823542 0.0183990778 0.1204577586
-0.0195891526 0.0207345970 0.1252945132
-0.0336656887 0.0195574516 0.0042592487
0.0283087938 0.0191843547 0.0217441751
-0.0230409448 0.0185241591 0.0684039685
-0.0201873040 0.0207556916 0.0845124174
0.0334626084 0.0191067651 0.0056940656
0.0204829391 0.0206395960 0.0771234598
-0.0241726333 0.0201282619 0.0343509967
-0.0104739232 -0.0036323694 0.1185000017
-0.0057186040 0.0084013297 0.1185000017
-0.0008290287 0.0207179977 0.1185000017
0.0010290722 0.0209331892 0.1213406041
0.0235549200 0.0200025312 0.0521762027
0.0214024103 0.0197069021 0.0749788003
-0.0053153439 0.0135260687 0.1185000017
0.0047341725 0.0203851460 0.1234399646
-0.0053598662 0.0202313701 0.1219396450
-0.0004785199 0.0139016499 0.1185000017
-0.0078545073 0.0084045358 0.1185000017
0.0027602187 0.0157792257 0.1185000017
0.0207606205 0.0204224151 0.0761231891
-0.0227644549 0.0178787465 0.0791587226
-0.0209228369 0.0199958819 0.1273184389
-0.0234184508 0.0167530305 0.1269777662
-0.0270858584 0.0192251797 0.0246201197
-0.0250798259 0.0160780546 0.0610369393
-0.0084157880 0.0112260950 0.1185000017
-0.0068815704 0.0197626901 0.1228527243
0.0057120883 0.0178865080 0.1185000017
0.0001579370 0.0081314272 0.1185000017
-0.0220978820 0.0185617995 0.1122103984
-0.0229361604 0.0174138529 0.1107003342
-0.0218127968 0.0190263331 0.0935710361
-0.0217395305 0.0190725066 0.1076948362
-0.0215387221 0.0193999557 0.0945034274
0.0236706240 0.0158625112 0.1251957920
0.0231300076 0.0166066080 0.1223244657
0.0241344212 0.0179530731 0.0295514035
-0.0217719347 0.0164435108 0.0423365563
0.0297902792 0.0162567542 0.0171439402
-0.0234254075 0.0170140459 0.0818584310
-0.0235312574 0.0166724482 0.0970327448
0.0234358909 0.0170729673 0.1156130310
0.0225872682 0.0181163006 0.0861700242
0.0114492819 0.0173572915 0.1268668662
-0.0091947350 0.0188361496 0.1219496227
-0.0113858004 0.0174855401 0.1247370593
-0.0117968559 0.0125402816 0.1185000017
0.0077272360 0.0160187913 0.1185000017
-0.0028104183 0.0012863107 0.1185000017
-0.0214886123 0.0166452503 0.0344320168
-0.0243447805 0.0171292225 0.0647143735
-0.0226484428 0.0161615322 0.0465727599
0.0325249654 0.0159827754 0.0098240953
-0.0242280441 0.0172276489 0.0287715400
-0.0136986308 0.0086613851 0.1185000017
0.0249706153 0.0141862472 0.0545036225
-0.0249915948 0.0157730692 0.0561101182
0.0270895004 0.0155425495 0.0216943989
0.0087090919 0.0111449201 0.1185000017
0.0119810602 0.0172073708 0.1206567254
-0.0242174300 0.0157879113 0.0521860906
-0.0246646363 0.0159364640 0.0680453992
0.0336626105 0.0134902532 0.0043950388
0.0234675190 0.0170181787 0.1055656886
0.0252850646 0.0140610950 0.0911165578
0.0262260806 0.0121248159 0.1102938543
0.0262408296 0.0122057914 0.1010882321
0.0254904328 0.0136332057 0.0957555972
0.0245382373 0.0153439497 0.0876410641
0.0239314052 0.0163251622 0.0970681103
0.0268659000 0.0108248412 0.1256860156
0.0233675754 0.0128697917 0.1284999996
0.0170008924 0.0142390692 0.1284999996
-0.0263273987 0.0112148889 0.1225991068
-0.0326770278 0.0143937837 0.0091365345
0.0200195867 0.0152621307 0.0398997710
-0.0263240200 0.0120838218 0.0716425080
-0.0241763092 0.0151632527 0.0520044348
-0.0188180848 0.0147745692 0.0361772269
-0.0214006060 0.0149761007 0.0439784722
0.0264957509 0.0116813983 0.0731863241
-0.0297786009 0.0154857364 0.0167669789
0.0254459207 0.0136637575 0.0786599408
-0.0253425767 0.0140794718 0.1138445721
0.0152372316 0.0141584642 0.1280122377
0.0171171897 0.0120790203 0.1187418386
-0.0154803219 0.0141637883 0.1192271708
-0.0224466538 0.0107795073 0.1284999996
-0.0260321852 0.0076790359 0.1284999996
-0.0205637919 0.0127597594 0.1284999996
0.0108338724 0.0101872110 0.1185000017
0.0038288848 0.0045726489 0.1185000017
-0.0304567437 0.0144204315 0.0152274551
0.0255968217 0.0143912764 0.0592168045
0.0191932409 0.0150152121 0.0325870364
0.0246572899 0.0135008792 0.0534137741
-0.0240979083 0.0141190654 0.0516707260
0.0178055405 0.0140267169 0.0380253408
0.0209154163 0.0135733837 0.0271260197
0.0227156716 0.0137077364 0.0485223495
-0.0167117999 0.0065074592 0.1185000017
-0.0158881551 0.0137808440 0.0321846271
-0.0263977550 0.0118018872 0.0959747034
-0.0258585060 0.0129097528 0.1147445016
-0.0265588446 0.0110848182 0.1188862836
-0.0268076763 0.0106207359 0.1067439042
-0.0274935488 0.0087444191 0.1173794462
-0.0258219595 0.0131184924 0.0955153775
-0.0256046245 0.0136060337 0.0818841392
0.0166074164 0.0120042392 0.1185000017
0.0259829108 0.0117226307 0.1246633988
0.0260412519 0.0115752783 0.1195458471
0.0266250647 0.0110001205 0.0654766622
-0.0181517799 0.0109583240 0.0433767422
0.0265172822 0.0116291679 0.0773005738
0.0263560084 0.0119936068 0.0955220885
0.0169865368 0.0125079720 0.0402422017
0.0078346259 0.0132366946 0.0245843198
-0.0083846479 0.0132363247 0.0211521812
-0.0128828637 0.0132364634 0.0273016534
-0.0016478473 0.0132350876 0.0257519715
0.0088879882 0.0132368530 0.0298331532
-0.0079599970 0.0132357106 0.0288260341
0.0103397898 0.0132359380 0.0237979586
0.0214945751 0.0132359617 -0.0009502959
0.0290488779 0.0132360905 -0.0006357158
0.0269931023 0.0132360495 0.0091672926
0.0243254428 0.0132359623 0.0107203510
0.0213001005 0.0132360659 0.0226768283
0.0327634452 0.0132360511 0.0085716371
0.0189850212 0.0132359363 0.0069858052
0.0331390342 0.0132359427 0.0028661108
-0.0199189536 0.0132359359 -0.0131928103
-0.0169095694 0.0132359359 -0.0127896022
-0.0063656711 0.0132359359 -0.0270545361
-0.0097329060 0.0132359359 -0.0190290920
-0.0061238442 0.0132359359 -0.0204412341
-0.0078543627 0.0132359359 -0.0268854365
0.0003135071 0.0132359359 -0.0309490136
-0.0002704515 0.0132359359 -0.0264648794
-0.0075552687 0.0132359359 -0.0291754721
-0.0184240991 0.0132359359 -0.0182478173
-0.0079000656 0.0132359359 -0.0317302101
0.0067404502 0.0132359359 -0.0313485941
0.0085142403 0.0132359359 -0.0243125647
0.0092098869 0.0132359359 -0.0243199411
0.0108112986 0.0132359359 -0.0282717625
-0.0167060081 0.0132359359 -0.0275537169
0.0132589711 0.0132359359 -0.0273172679
-0.0204335580 0.0132359359 -0.0229038212
-0.0287073699 0.0132359359 -0.0108717506
0.0123509950 0.0132359359 -0.0208226680
0.0176357983 0.0132359359 -0.0241022800
-0.0277624923 0.0132359359 -0.0141832951
0.0209904330 0.0132359359 -0.0199137892
0.0176846586 0.0132359359 -0.0167657607
-0.0320232126 0.0132359359 -0.0050483353
0.0274637230 0.0132359359 -0.0178682611
0.0195910492 0.0132359359 -0.0111555734
-0.0158918048 0.0132359359 -0.0130330345
0.0221675350 0.0132359359 -0.0068372301
0.0230769376 0.0132359359 -0.0067672212
0.0267599836 0.0132359359 -0.0075206273
-0.0294097286 0.0132359359 -0.0019153267
0.0252597960 0.0132359359 -0.0043107583
-0.0323447956 0.0132359359 0.0008392643
-0.0273993562 0.0132356904 0.0140390095
-0.0243996050 0.0132358928 0.0036010116
-0.0252677592 0.0132356407 0.0167121920
-0.0265672834 0.0132358287 0.0068609641
-0.0209913492 0.0132358508 0.0082700039
0.0245192606 0.0132358978 0.0131611539
0.0189720856 0.0132359359 0.0132377551
-0.0206165700 0.0132357790 0.0152810075
-0.0244370988 0.0132356459 0.0179864245
0.0245437806 0.0132355505 0.0229054059
0.0136831225 0.0132359313 0.0150828764
-0.0178194815 0.0132359359 0.0154980815
-0.0227845055 0.0132359326 0.0224012388
0.0132670830 0.0132358976 0.0203895888
0.0115735157 0.0132359071 0.0240964242
-0.0133667397 0.0132357512 0.0245036707
-0.0133629038 0.0132358038 0.0202843264
-0.0141464333 0.0132358798 0.0188174583
0.0017865687 0.0132357296 0.0227478691
0.0043683411 0.0132354783 0.0257539281
-0.0051900119 0.0132350446 0.0243663854
-0.0015095230 0.0132353433 0.0232725105
0.0117390953 0.0127129246 0.0358710283
0.0003379810 0.0121954292 0.0361190867
-0.0054459865 0.0118082424 0.0368804740
-0.0264568061 0.0092520816 0.0591603312
-0.0270973917 0.0095299912 0.0691486920
0.0149817520 0.0110729083 0.0406139967
0.0040685243 0.0117555999 0.0369696648
-0.0183951038 0.0099352306 0.0445707494
-0.0049554842 0.0099575427 0.0393151504
0.0272416483 0.0090144050 0.0712494365
-0.0270433924 0.0101306507 0.0758286776
0.0179021539 0.0109251549 0.1265615272
0.0195748226 0.0071756044 0.1280971847
0.0182692035 0.0104124897 0.1284999996
-0.0193526788 0.0077017678 0.1275969613
-0.0238653554 0.0047868323 0.1284999996
-0.0044945188 -0.0060155821 0.1185000017
-0.0108233406 -0.0162841689 0.1185000017
0.0018541580 -0.0033788054 0.1185000017
-0.0040722735 -0.0123775166 0.1185000017
-0.0083768093 -0.0160544468 0.1185000017
0.0117095736 0.0013852242 0.1185000017
0.0158247470 0.0026354281 0.1185000017
0.0075671460 -0.0182943989 0.1185000017
0.0143603832 0.0070499586 0.1185000017
-0.0029914664 -0.0134775825 0.1185000017
0.0054489217 -0.0062760714 0.1185000017
0.0001519235 -0.0155259389 0.1185000017
0.0042433149 -0.0162338930 0.1185000017
0.0054674192 -0.0159827953 0.1185000017
-0.0174850040 0.0013319892 0.1185000017
0.0276663735 0.0077184302 0.0743186944
-0.0215640304 0.0094051548 0.0487496109
0.0280381615 0.0065793258 0.1024698649
0.0282733449 0.0056089855 0.1128513642
0.0275113743 0.0085944301 0.1094585730
0.0275673422 0.0083723985 0.1102321919
0.0287270758 0.0038124630 0.1184579636
-0.0268707335 0.0098401673 0.1215766368
0.0281944409 0.0058874652 0.1258920375
0.0261936397 0.0066514376 0.1284999996
0.0235573950 0.0060370258 0.0532021728
-0.0244731148 0.0047761214 0.0551331787
-0.0279495987 0.0070666615 0.0772160066
-0.0276486226 0.0085906003 0.0958724063
0.0273391469 0.0094659855 0.0794696227
0.0275036227 0.0088803398 0.0847168998
0.0277076846 0.0082289739 0.0845811667
-0.0086124874 0.0085040940 0.0411738606
0.0208615380 0.0094559662 0.0478511328
-0.0185305556 0.0078834723 0.1185000017
-0.0023761519 0.0068067739 0.0421844394
-0.0145808143 0.0059790701 0.0450781480
0.0161457201 0.0053794234 0.0462429770
0.0158257444 -0.0016073016 0.1185000017
0.0196652267 0.0061435821 0.0484158595
-0.0285289386 0.0038341854 0.1277082674
-0.0175759571 0.0055620114 0.0471094454
-0.0081647199 0.0042784015 0.0445182817
0.0249102673 0.0048664822 0.0559206737
-0.0281657599 0.0068281038 0.1041803046
-0.0286722025 0.0030164274 0.1020815229
-0.0286435264 0.0030061904 0.1118818140
-0.0282986975 0.0058803591 0.1059089424
-0.0284129386 0.0054603336 0.0859027207
-0.0285348311 0.0037190939 0.1179753302
0.0285643412 0.0010738569 0.1232217645
-0.0280589469 0.0039638116 0.0688334988
-0.0001940779 0.0066794400 0.0422720134
0.0284883810 0.0051569870 0.0991017299
-0.0049934754 0.0064101829 0.0426433227
0.0142543650 0.0036837435 0.0463642750
-0.0210012850 0.0049010575 0.0504920941
0.0208687201 0.0017248609 0.1230967557
0.0206990685 0.0033810907 0.1191824419
-0.0202666734 0.0053955017 0.1261489733
-0.0202787608 0.0052788431 0.1189141175
0.0185895941 0.0009355468 0.1185000017
-0.0179267866 -0.0075956553 0.1185000017
-0.0274173591 0.0049060333 0.0636579913
0.0286526879 0.0042513343 0.0927728598
0.0286868538 0.0040515816 0.0818496098
-0.0286248083 0.0043141098 0.0814166112
-0.0223372790 0.0022689263 0.0533552950
0.0264848182 0.0015055505 0.0613207357
-0.0267579242 0.0008827421 0.0624375143
0.0105950517 0.0029729940 0.0456911134
-0.0077402157 0.0030628262 0.0452795608
-0.0281708777 0.0014819644 0.0695826644
0.0287846730 0.0035197712 0.0842672356
0.0287801020 -0.0019376696 0.1179837836
0.0289351035 0.0008451397 0.0912103411
0.0288232578 -0.0021455881 0.1105294692
0.0288718292 -0.0020085168 0.1021397248
0.0287986080 0.0032217495 0.1094235077
0.0288075707 0.0031328654 0.0940175716
-0.0285214992 0.0027299534 0.1207674901
0.0287763160 0.0011534555 0.1269224474
-0.0287696320 0.0029721047 0.0783824689
0.0155902869 -0.0030058906 0.0509329120
-0.0019653396 0.0012065080 0.0460057263
-0.0284700796 0.0007690388 0.0724416589
0.0209823090 0.0002493892 0.1218656056
0.0264523594 0.0000305729 0.0619732728
-0.0271251370 -0.0013457879 0.0652919005
-0.0288667202 0.0014712842 0.0785446297
-0.0288921953 0.0017525683 0.0806150812
0.0118670378 -0.0016965352 0.0487586761
-0.0244473458 0.0015109626 0.0564593667
-0.0136770334 0.0004022249 0.0482299562
0.0274134682 -0.0014835311 0.0668509410
0.0097229521 -0.0037246838 0.0494151223
-0.0286999997 0.0001543051 0.1266599746
-0.0120307055 -0.0048495841 0.0506310093
-0.0203267412 0.0003509533 0.0522670535
0.0275011763 -0.0050300164 0.0702041128
-0.0284338149 -0.0004169709 0.0727194561
0.0209862343 -0.0004191009 0.1187723014
0.0284078192 -0.0023128472 0.1226905798
-0.0288064900 -0.0032049243 0.0800401696
-0.0289241736 -0.0012558549 0.0850302534
-0.0283965644 -0.0053807429 0.1064011253
-0.0287444310 -0.0021556198 0.1166249110
-0.0282472116 -0.0061810397 0.1146835166
-0.0283705767 -0.0055140368 0.1079715012
-0.0288617151 -0.0019626396 0.1006777706
0.0207785832 -0.0016918876 0.1272899243
0.0249052135 -0.0026394570 0.1284999996
-0.0203959030 -0.0042322005 0.1282961686
-0.0235486459 -0.0016634113 0.1284999996
0.0047392980 -0.0019675015 0.0479441373
0.0028248723 -0.0029707318 0.0484306775
0.0288480064 -0.0020194358 0.0793883101
-0.0288449532 -0.0011311025 0.0780906304
0.0287891798 -0.0033911942 0.0971756524
0.0288446554 -0.0024985203 0.0928011931
-0.0043052223 -0.0062619445 0.0502841670
-0.0039797529 -0.0067247828 0.0505244148
-0.0247954414 -0.0056716753 0.0618400677
-0.0288909981 -0.0015730379 0.1269992692
0.0145865864 -0.0108449378 0.1185000017
0.0258440776 -0.0048059729 0.0635720597
0.0226127854 -0.0061107989 0.0586164340
-0.0224154187 -0.0067849894 0.0588127488
-0.0283509586 -0.0058776180 0.0829054164
-0.0283768883 -0.0057025471 0.0953553291
0.0287340018 -0.0037616669 0.1269050766
-0.0281446598 -0.0048785639 0.1205398853
-0.0271549613 -0.0087331742 0.1238083220
0.0285783309 -0.0046603325 0.0954336900
0.0281199875 -0.0061905872 0.1152388870
0.0272390481 -0.0096112209 0.1175549297
0.0276672350 -0.0080298877 0.0983337445
0.0276412094 -0.0081296265 0.0986952981
0.0272602625 -0.0095960447 0.1025407167
0.0280523388 -0.0072506231 0.0810297874
0.0277019136 -0.0082033369 0.0858205864
-0.0160964434 -0.0054124942 0.0526001025
0.0180434641 -0.0081501584 0.1185000017
0.0257040015 -0.0077467542 0.0663608007
-0.0142140826 -0.0074524934 0.0529619715
0.0270358337 -0.0083375609 0.0736474362
0.0159083616 -0.0075052444 0.0537411345
0.0208623927 -0.0085435758 0.0582284553
0.0125029602 -0.0063625077 0.0517517951
0.0269257598 -0.0091737288 0.0746857834
0.0172573778 -0.0097213334 0.1185000017
0.0194512777 -0.0075132700 0.1269919825
0.0222996590 -0.0147119433 0.1284999996
0.0240536067 -0.0113824341 0.1284999996
-0.0191948539 -0.0080231775 0.1227132087
-0.0280978933 -0.0071751095 0.1149420335
-0.0091487418 -0.0099419638 0.0529077606
0.0139188818 -0.0134994055 0.1185000017
0.0272914929 -0.0084175493 0.1219944308
-0.0275755169 -0.0088144223 0.0846665520
-0.0279984038 -0.0074713961 0.0965410048
-0.0269845250 -0.0105122818 0.0865384415
-0.0277378430 -0.0082402200 0.1103698612
-0.0263790091 -0.0118574463 0.0984217073
-0.0269200322 -0.0103038514 0.1104940194
-0.0276589265 -0.0085199246 0.1051839200
0.0163533442 -0.0101551983 0.0556907825
0.0074360567 -0.0112764819 0.0534017238
-0.0036694991 -0.0101262470 0.0524135802
0.0029715015 -0.0109084479 0.0528323434
-0.0256503324 -0.0106680006 0.1284999996
0.0224447503 -0.0102464075 0.0617722696
-0.0239331450 -0.0105362165 0.0648657509
-0.0192319579 -0.0129037128 0.0598871632
0.0245777890 -0.0111434040 0.0672662892
0.0110187946 -0.0127070243 0.0551866789
-0.0117966531 -0.0106569955 0.0539899206
-0.0265859673 -0.0114399990 0.0878041629
0.0240384367 -0.0160358890 0.1282269339
-0.0251032230 -0.0134416531 0.1236782900
0.0264964250 -0.0113090108 0.0770700496
0.0256042106 -0.0132035751 0.1055094672
0.0256647966 -0.0130986968 0.1041641051
0.0265866961 -0.0113628265 0.1190501981
0.0251610733 -0.0140248331 0.1016719719
0.0258094039 -0.0129636347 0.0973700354
0.0243590301 -0.0155983613 0.0833844710
0.0263101398 -0.0120766203 0.0833273452
0.0258527433 -0.0130844674 0.0800380440
-0.0237627670 -0.0154240159 0.0734721817
0.0167623292 -0.0122749103 0.0574638646
0.0173543486 -0.0118167166 0.1196159370
0.0159160289 -0.0136299265 0.1191880576
0.0173244062 -0.0176730780 0.1284999996
-0.0171173951 -0.0120098298 0.1219181579
-0.0211929091 -0.0149422298 0.1284999996
0.0262348244 -0.0120416432 0.0783531899
-0.0243987324 -0.0151136475 0.0767025608
-0.0257093540 -0.0133473709 0.1051066951
0.0085697316 -0.0156542011 0.0564082017
-0.0055208930 -0.0148236521 0.0554219319
0.0040976266 -0.0133253040 0.0543036250
-0.0184676272 -0.0145927003 0.0607759943
-0.0254242033 -0.0139272948 0.1021757556
0.0247254056 -0.0144107343 0.1222489881
0.0227821280 -0.0170854274 0.1211604267
-0.0247973536 -0.0149623114 0.0995300100
-0.0250271772 -0.0145726217 0.0933672225
-0.0212399873 -0.0197226571 0.1186238310
-0.0250325197 -0.0145139298 0.1174345428
-0.0226322501 -0.0179884013 0.0993760621
-0.0220209101 -0.0186689085 0.1163927512
0.0117580132 -0.0161586824 0.0579161877
-0.0099079671 -0.0168791332 0.0577794285
0.0169696291 -0.0166475478 0.0615652936
-0.0214897168 -0.0192592748 0.1257455060
-0.0222233403 -0.0181819516 0.1284999996
-0.0228008025 -0.0163929159 0.0715006926
0.0129490757 -0.0165037759 0.1190331505
0.0122621049 -0.0243814401 0.1284999996
0.0153563528 -0.0200705649 0.1284999996
-0.0094357338 -0.0186667701 0.1230646181
-0.0118878577 -0.0172790280 0.1194268021
0.0210736297 -0.0174432219 0.0686259733
0.0065126788 -0.0173725780 0.0573750981
-0.0076160302 -0.0190828449 0.0589546118
-0.0224634355 -0.0182219567 0.0962894891
-0.0218584976 -0.0189875057 0.0993070164
-0.0191453628 -0.0212071930 0.1203025770
-0.0192965273 -0.0210462190 0.1242313234
0.0233276992 -0.0171550902 0.1261827857
0.0232997967 -0.0172251045 0.0994922261
0.0209194508 -0.0198581315 0.1002888386
0.0206799333 -0.0201389778 0.0955872020
0.0201311248 -0.0206633127 0.1065430215
0.0207676460 -0.0199775579 0.1079886210
0.0220521275 -0.0186575189 0.1009229825
0.0230073005 -0.0176096759 0.1087197425
0.0062036925 -0.0182610066 0.0580521586
0.0206165558 -0.0177220597 0.0680646636
0.0171358419 -0.0186859309 0.0640178585
-0.0153387786 -0.0199090727 0.0636938578
-0.0123296229 -0.0188608906 0.0604504967
-0.0215816475 -0.0186169939 0.0739412285
-0.0219479056 -0.0189057775 0.0872084965
0.0032199939 -0.0207329083 0.1278224848
0.0062921177 -0.0199742848 0.1209787597
0.0098380564 -0.0240310337 0.1284999996
-0.0066593820 -0.0197805791 0.1252228490
-0.0126277280 -0.0215212047 0.1284999996
-0.0101912926 -0.0231920528 0.1284999996
-0.0076970195 -0.0239630172 0.1284999996
0.0186659241 -0.0194270312 0.0672733599
-0.0170643930 -0.0216118681 0.0695628507
0.0202603222 -0.0201933924 0.1200332452
-0.0211149941 -0.0198506162 0.1008349266
-0.0198457436 -0.0211050486 0.0883266412
-0.0189496980 -0.0218526246 0.0880903132
-0.0198577724 -0.0210610866 0.0968599105
-0.0166643654 -0.0236749982 0.0895508155
-0.0163315783 -0.0239217461 0.0966487475
-0.0192342801 -0.0214739398 0.1082030610
-0.0168488241 -0.0234559259 0.1060733603
0.0095935204 -0.0202114103 0.0604793854
-0.0046128567 -0.0204268977 0.1213880490
0.0155077174 -0.0233545988 0.0708275019
-0.0181748042 -0.0219595881 0.0744476233
0.0131528851 -0.0213360635 0.0637083494
0.0185716533 -0.0222688973 0.1155941696
0.0192250850 -0.0216001624 0.0786815994
-0.0187301042 -0.0220576447 0.0795282794
0.0018497598 -0.0208202247 0.1268444044
-0.0010951250 -0.0225674364 0.1284999996
0.0039852226 -0.0235240629 0.1284999996
-0.0066230013 -0.0261969720 0.1284999996
0.0061143794 -0.0236994733 0.0632662178
0.0188724290 -0.0220041378 0.0911491662
-0.0142988227 -0.0246491947 0.1208219666
-0.0124840148 -0.0258009086 0.1212222889
0.0181235926 -0.0226155504 0.1104496449
0.0181858609 -0.0225432851 0.0928782703
0.0157146595 -0.0241554373 0.1060029709
0.0157662965 -0.0241518783 0.0984584085
0.0150292105 -0.0246352306 0.0944336344
0.0143772551 -0.0250121208 0.1039521067
0.0171967137 -0.0232091535 0.1084420430
0.0174606003 -0.0230466106 0.1088637248
0.0143306718 -0.0228833773 0.0673160271
-0.0063934680 -0.0239623677 0.0636675293
0.0133788335 -0.0250479397 0.0722626886
-0.0104585035 -0.0245746687 0.0666678803
-0.0082855355 -0.0256362390 0.0671870916
0.0088772129 -0.0272913629 0.1234885349
0.0130944173 -0.0252120755 0.0723721311
0.0022376893 -0.0253208661 0.0647040027
-0.0153223460 -0.0245741961 0.0886817510
-0.0136494331 -0.0253954897 0.1157634603
-0.0111194503 -0.0265823185 0.1164258680
-0.0112829437 -0.0265934780 0.1006247195
-0.0110108682 -0.0266194378 0.1189326451
0.0012156479 -0.0266925654 0.0668381317
-0.0118726929 -0.0262137810 0.1274668406
-0.0086326163 -0.0257898940 0.0678904902
-0.0129981848 -0.0258806938 0.0794932090
-0.0111421288 -0.0267021488 0.0883062539
0.0125845337 -0.0260824848 0.0814189920
-0.0078901978 -0.0273753343 0.1208649739
-0.0102710764 -0.0266017415 0.1252249590
0.0068846543 -0.0280539017 0.1279192326
0.0119568918 -0.0263799390 0.0929487214
0.0092199417 -0.0273163169 0.1046167753
0.0095553148 -0.0271958006 0.1074764473
0.0071329895 -0.0280522866 0.0902831375
0.0090505422 -0.0273819224 0.1020004823
0.0086616390 -0.0275893348 0.0853468968
0.0111384070 -0.0266725740 0.1099926704
0.0110929314 -0.0267713217 0.0953367800
-0.0008835275 -0.0267919281 0.0670085652
0.0076374775 -0.0277905658 0.0774337413
-0.0077438854 -0.0279032794 0.0798083883
-0.0095107620 -0.0273584909 0.0827802697
0.0069382817 -0.0280721945 0.0786559363
0.0050786775 -0.0280183227 0.1197077281
-0.0084979171 -0.0276793985 0.0852054693
-0.0070636820 -0.0280910251 0.0879682309
-0.0070626560 -0.0280974025 0.0867392831
-0.0055876206 -0.0282649949 0.1104528923
-0.0067936920 -0.0280647144 0.1038406062
-0.0063288931 -0.0281617628 0.1019796673
-0.0067690628 -0.0280576451 0.1064526685
-0.0064777206 -0.0280866212 0.1281690557
0.0063742097 -0.0282704493 0.0866681289
-0.0045380312 -0.0282444819 0.1208174163
0.0009144278 -0.0285875148 0.1232569971
0.0005078240 -0.0288268365 0.1255451810
0.0025913711 -0.0287909351 0.0758224233
0.0025371513 -0.0287959945 0.0911772717
0.0021423804 -0.0288441909 0.0859843501
0.0032420405 -0.0287204550 0.0981113116
0.0040815954 -0.0286325470 0.1059115095
0.0039503452 -0.0286858536 0.0961005873
0.0047298300 -0.0285676557 0.0839568868
-0.0026200613 -0.0288469401 0.1065848857
-0.0019619270 -0.0289263155 0.1138880942
-0.0018917678 -0.0289291819 0.1128407472
-0.0010390708 -0.0289615152 0.1039251029
-0.0007040629 -0.0289657926 0.0865131466
