0.0041475332 0.0540636397 -0.0000000001
0.0015393798 0.0548204823 0.0047527166
-0.0014959437 0.0545317244 0.0100969822
-0.0032326556 0.0537614416 0.0163419071
0.0090669717 0.0538815420 0.0082186850
-0.0111170788 0.0534778218 0.0081456757
0.0044439323 0.0537207805 0.0160669099
-0.0056038905 0.0534967384 0.0171147878
0.0140611293 0.0527836128 -0.0000000001
-0.0056808291 0.0504466551 -0.0000000001
0.0009333815 0.0528446647 0.0221189040
0.0157668845 0.0524220868 0.0065094428
-0.0176331368 0.0518313292 0.0062106422
-0.0099681188 0.0522022326 0.0207031726
0.0150841496 0.0515874165 0.0174724237
0.0009652745 0.0511667097 0.0278313393
0.0034518476 0.0478280164 -0.0000000001
-0.0039802483 0.0501263773 0.0302792745
-0.0175851984 0.0480409992 -0.0000000001
-0.0172120516 0.0505426616 0.0196447870
0.0214847991 0.0504357010 0.0059815779
-0.0254770170 0.0484912194 0.0059772585
-0.0013121472 0.0500795226 0.0099800210
-0.0156395877 0.0492691165 0.0262425989
0.0257471566 0.0482000593 0.0081839319
-0.0209972527 0.0492919969 0.0162273442
0.0050303592 0.0494445001 0.0319751193
-0.0078798504 0.0494824532 0.0307983757
-0.0021784589 0.0491864241 0.0182760810
0.0022708572 0.0490186664 0.0193461856
0.0031416562 0.0481994848 0.0359110272
0.0134792259 0.0471453332 0.0338895492
0.0223561107 0.0475182044 0.0232757536
-0.0196881756 0.0466184862 0.0281795914
0.0024999972 0.0473012478 0.0312340973
0.0295519206 0.0462316829 0.0023186947
-0.0288084830 0.0467579438 0.0011267432
-0.0056936061 0.0471624567 0.0383922621
0.0100930525 0.0464539970 0.0379952423
0.0224501226 0.0436188402 -0.0000000001
0.0271679286 0.0462029495 -0.0000000001
0.0144965173 0.0404360472 -0.0000000001
-0.0197840753 0.0469673902 -0.0000000001
-0.0124553995 0.0465793041 -0.0000000001
-0.0227182030 0.0439053900 -0.0000000001
0.0268828196 0.0463454899 0.0190913376
0.0212371999 0.0456523975 0.0300245557
0.0282319074 0.0445728365 0.0223075986
0.0158739146 0.0443215672 0.0397113298
0.0023687429 0.0455101487 0.0226685418
0.0023522968 0.0453493567 0.0345778061
0.0076660468 0.0442932213 0.0490198481
-0.0065764487 0.0441918309 0.0507374035
0.0270116071 0.0415562717 -0.0000000001
0.0277550475 0.0439571050 0.0253124230
0.0021397539 0.0447442864 0.0326829853
-0.0017514367 0.0442740585 0.0484930092
0.0095823060 0.0437409212 0.0499438022
-0.0142776003 0.0428446620 0.0479561502
0.0211066626 0.0437503585 0.0350273789
-0.0013213617 0.0438844369 0.0344092721
0.0008866670 0.0437378990 0.0106214905
-0.0051658635 0.0403026602 -0.0000000001
-0.0085848159 0.0429740889 0.0559176585
0.0352590414 0.0420487083 0.0020164208
0.0347535729 0.0424667852 0.0037077519
-0.0001648150 0.0435078575 0.0416600022
0.0015533980 0.0430029545 0.0627285922
0.0143300072 0.0368861691 -0.0000000001
0.0304071239 0.0409763822 0.0282149621
0.0337044089 0.0417284025 0.0186457682
-0.0000438239 0.0421637787 0.0754137315
-0.0037093530 0.0422579905 0.0705190356
-0.0290659424 0.0398743921 -0.0000000001
-0.0315410097 0.0423390120 0.0190397495
0.0172733409 0.0422396478 0.0456475334
-0.0159631126 0.0403302030 0.0602457077
0.0049272467 0.0423448109 0.0680803126
-0.0074101531 0.0412566933 0.0778594706
-0.0101174037 0.0416336000 0.0646920895
-0.0205160282 0.0416960346 0.0074334447
0.0178064949 0.0407600332 0.0518027180
-0.0046917629 0.0409779054 0.0979897905
-0.0009492576 0.0418167729 0.0801110444
-0.0336247923 0.0411119305 0.0212233317
0.0096906931 0.0411792223 0.0724487933
0.0073104089 0.0408081750 0.0903462336
-0.0071264346 0.0409573183 0.0870140713
-0.0183309125 0.0414648233 0.0214922788
-0.0337663066 0.0403896362 0.0231043118
0.0145972180 0.0399486213 0.0688975815
-0.0120062044 0.0411276506 0.0647382742
0.0242348832 0.0399123015 0.0412902826
-0.0003764344 0.0411626196 0.1076058112
-0.0024395386 0.0409918871 0.1116709003
0.0019301565 0.0409987646 0.1147051935
-0.0393691102 0.0383134375 0.0000402279
0.0018612249 0.0408880096 0.1279009664
0.0045437301 0.0389171182 0.1385000050
-0.0095095243 0.0386250889 0.1385000050
0.0058322374 0.0408390323 0.0981373964
0.0072825680 0.0404790713 0.1049754096
-0.0057730892 0.0407531834 0.1079169702
-0.0081855358 0.0402969829 0.1052540618
0.0374705620 0.0399021218 0.0086929840
-0.0289279568 0.0394099458 0.0191994513
0.0099811453 0.0399517335 0.1039126229
0.0028753370 0.0403649482 0.1321486194
-0.0026289032 0.0405705635 0.1308580426
0.0146050237 0.0394928837 0.0751899142
0.0107083059 0.0398557410 0.0984227860
-0.0130222038 0.0396933347 0.0806140304
0.0108654987 0.0392912088 0.1373717000
0.0032710938 0.0364928663 0.1385000050
0.0114888784 0.0388021544 0.1321469932
-0.0294691408 0.0394038315 0.0308857714
0.0133425633 0.0390909647 0.0947232149
0.0111795053 0.0395232226 0.1167651659
-0.0116204754 0.0393131089 0.1233292838
-0.0140011420 0.0387100300 0.1010542230
-0.0287735125 0.0390548717 0.0303688173
-0.0188724625 0.0382397744 0.0646199593
0.0197785353 0.0386111827 0.0597623158
0.0148108898 0.0383833638 0.1066807955
0.0154699009 0.0380567469 0.1178603630
-0.0121167923 0.0387270498 0.1342671296
-0.0253816428 0.0381452623 0.0013571173
-0.0186783083 0.0388095626 0.0260570825
0.0398377971 0.0377987363 0.0009198509
-0.0397478452 0.0379487741 0.0019954123
0.0197860468 0.0367452206 0.0825981190
-0.0169130234 0.0377403741 0.0941049043
0.0391497959 0.0382244908 -0.0000000001
0.0268308170 0.0364091285 0.0476889187
-0.0192451132 0.0377210609 0.0496479992
0.0181400328 0.0372173899 0.0917906024
0.0169712752 0.0373884794 0.1145113045
-0.0160387764 0.0378466358 0.1146862326
-0.0164742596 0.0376172617 0.1161902204
-0.0185479189 0.0366430306 0.1112120425
0.0209175973 0.0341966742 0.1385000050
-0.0220709899 0.0378361039 0.0014324710
0.0170428008 0.0372765664 0.1223967752
0.0359276147 0.0366414904 0.0099999989
0.0227069951 0.0337576280 0.1350546259
-0.0196302761 0.0372025816 0.0501712511
-0.0214531810 0.0358940878 -0.0000000001
0.0245329567 0.0351055816 0.0645733222
-0.0204275229 0.0365964008 0.0343156715
-0.0208542661 0.0363239634 0.0495590500
-0.0268028261 0.0366404386 0.0276033591
-0.0259001164 0.0361978265 0.0158574071
-0.0180974720 0.0348789682 0.1385000050
-0.0262283125 0.0362572961 0.0426319704
0.0252595625 0.0334850688 0.0783629049
0.0341391951 0.0356618177 0.0250320430
-0.0229561682 0.0343816282 0.0931796900
-0.0197909454 0.0354662108 0.1320784030
-0.0288011949 0.0353813858 0.0455904568
0.0250726521 0.0332012574 0.0877741284
0.0214954602 0.0350064367 0.1133509145
-0.0219277178 0.0346644871 0.1184183707
-0.0234757630 0.0337372125 0.1082030119
-0.0225615024 0.0344183764 0.1014998077
-0.0231150022 0.0356214188 0.0153374738
-0.0231663745 0.0354894333 0.0635299784
0.0243161885 0.0331651453 0.1092057325
-0.0397219956 0.0353554449 0.0210680994
0.0431245168 0.0304814383 -0.0000000001
0.0312651537 0.0303506308 -0.0000000001
0.0272277408 0.0292673236 -0.0000000001
0.0182040791 0.0255432856 -0.0000000001
0.0221563162 0.0207083115 -0.0000000001
0.0036871516 0.0162703444 -0.0000000001
0.0022048067 0.0039749291 -0.0000000001
0.0133012231 0.0191559368 -0.0000000001
-0.0005482581 0.0042283146 -0.0000000001
0.0137714964 0.0087333625 -0.0000000001
0.0032663312 0.0084797912 -0.0000000001
0.0082847356 0.0021734489 -0.0000000001
-0.0053350015 0.0127553132 -0.0000000001
-0.0033538425 0.0107698686 -0.0000000001
-0.0046886494 0.0102133541 -0.0000000001
-0.0088364593 0.0332074505 -0.0000000001
-0.0024140717 0.0231506914 -0.0000000001
0.0044475878 0.0270079168 -0.0000000001
-0.0078850594 0.0058336348 -0.0000000001
-0.0310732628 0.0003032668 -0.0000000001
-0.0210500111 0.0045844299 -0.0000000001
-0.0121208502 0.0239934810 -0.0000000001
-0.0266861871 0.0025811420 -0.0000000001
-0.0138282098 0.0241272822 -0.0000000001
-0.0114432727 0.0139709369 -0.0000000001
-0.0334639493 0.0103374988 -0.0000000001
-0.0169256037 0.0282236772 -0.0000000001
-0.0242541582 0.0343173976 -0.0000000001
-0.0197074235 0.0302467282 -0.0000000001
-0.0325821332 0.0196454790 -0.0000000001
-0.0364845779 0.0111599516 -0.0000000001
-0.0347560600 0.0223895841 -0.0000000001
-0.0370555767 0.0267657581 -0.0000000001
0.0325121090 0.0341337934 0.0164787366
0.0301755633 0.0309048701 0.0620632677
-0.0407461322 0.0340915689 0.0087371700
0.0319112144 0.0333793079 0.0234013075
-0.0262514442 0.0337519647 0.0673250923
0.0266918273 0.0277160673 0.1385000050
0.0256084447 0.0313356739 0.1301682611
-0.0270426953 0.0335326836 0.0668316831
-0.0399999991 0.0332344024 0.0051855504
-0.0403000005 0.0260037388 0.0069766874
-0.0403000005 0.0327765221 0.0099138519
-0.0399999991 0.0305724506 0.0081631588
-0.0399999991 0.0221738619 0.0067391485
-0.0399999991 0.0304891802 0.0140068588
-0.0403000005 0.0295515887 0.0289408451
-0.0403000005 0.0314793792 0.0209730668
-0.0399999991 0.0313138550 0.0181615811
-0.0399999991 0.0215898735 0.0165195264
-0.0399999991 0.0214709953 0.0256391052
-0.0399999991 0.0225254779 0.0303825890
-0.0399999991 0.0200930482 0.0165696698
-0.0399999991 0.0232948163 0.0159858443
-0.0399999991 0.0252269598 0.0302590277
-0.0399999991 0.0307292753 0.0296415886
-0.0403000005 0.0264364199 0.0360416741
-0.0423000008 0.0302432490 0.0201916893
-0.0423000008 0.0266400894 0.0359553274
-0.0410586506 0.0335000046 0.0386442469
-0.0403000005 0.0285814884 0.0490191550
-0.0382952079 0.0335000046 0.0607820365
-0.0386379906 0.0335000046 0.0533525468
-0.0399999991 0.0328440179 0.0530930550
-0.0399999991 0.0307338490 0.0414325617
-0.0423000008 0.0286623763 0.0420967157
-0.0423000008 0.0314511694 0.0518524211
-0.0337636967 0.0335000046 0.0531293732
-0.0335680340 0.0335000046 0.0624163527
-0.0353222689 0.0335000046 0.0683116056
-0.0423000008 0.0302661624 0.0532990299
-0.0423000008 0.0302245366 0.0606723351
-0.0403000005 0.0319321080 0.0661626850
-0.0317596774 0.0335000046 0.0718031880
-0.0421367456 0.0328569713 0.0719999969
-0.0399999991 0.0185967414 0.0619236639
-0.0399999991 0.0146935765 0.0648070742
-0.0399999991 0.0186617174 0.0657306274
-0.0399999991 0.0210624149 0.0633797498
-0.0399999991 0.0273782864 0.0544909026
-0.0423000008 0.0258335346 0.0730203705
0.0437258947 0.0330510524 0.0069010837
0.0447545872 0.0300984710 0.0100000016
0.0254242280 0.0329638933 0.0874279081
-0.0280911823 0.0309546422 0.0799476601
-0.0270488451 0.0314850318 0.0886558611
-0.0423000008 0.0290215522 0.0021133521
0.0279747834 0.0304861744 0.0928959637
0.0255394486 0.0323622827 0.0994064486
-0.0257601246 0.0320139296 0.1127602235
-0.0282605785 0.0297987297 0.1146886391
0.0313869165 0.0325184583 0.0290322998
0.0281350046 0.0299424176 0.1117939600
-0.0409764892 0.0250032512 0.0714999959
0.0329817041 0.0310604915 0.0025296248
-0.0007022176 0.0127036526 0.1284999996
0.0029745064 0.0206087153 0.1284999996
0.0003773715 0.0029254353 0.1284999996
0.0107284021 0.0300730781 0.1359856562
0.0019430847 0.0317666866 0.1331169186
-0.0029675039 0.0149711340 0.1284999996
-0.0067760294 0.0225480120 0.1284999996
-0.0050844077 0.0314642003 0.1286405753
-0.0234132404 0.0295444730 0.1385000050
-0.0293490982 0.0282920669 0.1374914835
-0.0391234183 0.0205009721 0.0745000020
-0.0265972397 0.0307575313 0.1315712357
-0.0423000008 0.0275937561 0.0195286128
0.0429364985 0.0285879307 -0.0000000001
0.0309915737 0.0292531905 0.0142298107
0.0391796412 0.0299331603 0.0011293303
0.0088327705 0.0159203876 0.1284999996
0.0102814516 0.0210804988 0.1284999996
0.0139709042 0.0285435739 0.1351609255
-0.0145428694 0.0242599684 0.1284999996
-0.0086989331 0.0129130224 0.1284999996
-0.0179303634 0.0264654873 0.1354553218
-0.0423000008 0.0246042129 0.0187207390
-0.0307561858 0.0282884225 0.0805259656
-0.0302354163 0.0284197856 0.0897300651
0.0434636398 0.0290305267 0.0182175444
0.0314682953 0.0273261947 0.0845888762
0.0309388338 0.0270909301 0.1048260115
-0.0293108338 0.0289661335 0.1034017211
-0.0314589323 0.0264548330 0.1080812383
0.0321986383 0.0255637918 0.1116794509
0.0312323356 0.0280757483 0.0394541545
-0.0423000008 0.0255042167 0.0654618833
0.0338609411 0.0279145812 0.0043381518
0.0418679422 0.0280088198 0.0243186086
0.0299426590 0.0280048483 0.1382903231
0.0243108977 0.0237915981 0.1385000050
0.0297251497 0.0277563559 0.1325994549
0.0325767276 0.0263802045 0.0397197628
0.0315931847 0.0274767366 0.0303430854
0.0477653942 0.0271940758 0.0015417650
0.0372544751 0.0272960567 0.0066775552
0.0487103136 0.0179142928 -0.0000000001
0.0455956174 0.0168299343 -0.0000000001
0.0354107962 0.0271199884 0.0045861593
0.0394429626 0.0262271014 0.0135070358
0.0414930413 0.0169230398 -0.0000000001
0.0283675333 0.0058945684 -0.0000000001
0.0401213807 0.0193768013 -0.0000000001
0.0440486781 0.0024725325 -0.0000000001
0.0482727115 0.0059103200 -0.0000000001
0.0498076343 0.0005449654 -0.0000000001
0.0440583968 0.0119896537 -0.0000000001
0.0464179159 0.0248642305 0.0227818642
0.0117365920 0.0138011114 0.1284999996
0.0179220588 0.0251920275 0.1284999996
0.0226291889 0.0223921377 0.1371338068
-0.0147387519 0.0206025745 0.1284999996
-0.0188021878 0.0257825616 0.1339007210
0.0401075582 0.0257895900 0.0362662125
0.0378590760 0.0253223552 0.0119934283
0.0340122560 0.0254373111 0.0466798180
0.0345416135 0.0253284716 0.0417472193
-0.0403000005 0.0119804864 0.0011242919
-0.0403000005 0.0133422532 0.0056307465
-0.0403000005 0.0200234172 0.0051935387
-0.0403000005 0.0201479445 0.0173818739
-0.0403000005 0.0187890737 0.0120543658
-0.0403000005 0.0229757284 0.0369678828
-0.0403000005 0.0254777131 0.0394476713
-0.0403000005 0.0232302167 0.0666537119
-0.0403000005 0.0089480086 0.0710736518
0.0340825656 0.0240512594 0.0827837730
-0.0341643465 0.0237817197 0.0852513619
-0.0341224025 0.0232587661 0.0950740021
-0.0301424316 0.0236545863 0.1385000050
0.0342218798 0.0250543796 0.0709315599
0.0366071146 0.0251513667 0.0190391333
0.0359232343 0.0211265328 0.0856341195
0.0350747904 0.0215386524 0.1040780647
-0.0328345031 0.0248104010 0.1092456336
-0.0355206686 0.0205149580 0.1267924623
0.0437502139 0.0247003824 0.0305279413
0.0366196533 0.0250193626 0.0414592333
0.0340249506 0.0227691218 0.1257943562
0.0354873123 0.0234848120 0.0686361919
-0.0358283416 0.0189342877 0.1340711144
0.0382528528 0.0230090492 0.0510474072
-0.0423000008 0.0199820598 0.0301453639
0.0439194585 0.0195058399 0.0366007634
-0.0429694379 0.0228082341 0.0449615597
-0.0423000008 0.0103733646 0.0003646862
-0.0423000008 0.0212002140 0.0088852082
-0.0423000008 0.0132798908 0.0047532436
-0.0423000008 0.0172812475 0.0374670230
-0.0423000008 0.0108782809 0.0574922217
-0.0423000008 0.0119176399 0.0702940874
0.0430730302 0.0182074643 0.0411632773
-0.0429210712 0.0225628956 0.0485294371
-0.0423000008 0.0166126090 0.0192824322
0.0390438711 0.0197846184 0.0563940594
-0.0534188597 0.0208525310 0.0806595118
0.0385327820 0.0180799063 0.0683862759
-0.0557144052 0.0206429241 0.0813664363
0.0076815728 0.0063320177 0.1284999996
0.0171778860 0.0102834525 0.1284999996
0.0249815789 0.0197288200 0.1327856930
-0.0170457197 0.0128542034 0.1284999996
-0.0245192046 0.0203986840 0.1343756890
-0.0256987006 0.0186898880 0.1346316020
-0.0533740382 0.0198813965 0.0933184983
0.0522284773 0.0168149514 0.0020238858
0.0363958523 0.0181489723 0.1354999989
0.0379111675 0.0144185086 0.1353042788
0.0391136007 0.0165642287 0.0705780419
-0.0370904534 0.0187325487 0.0873166156
-0.0363727610 0.0197701830 0.0928931779
-0.0566228057 0.0197818642 0.0862693317
-0.0423000008 0.0189397846 0.0312309337
-0.0423000008 0.0159035881 0.0277229173
0.0357605065 0.0201472841 0.1208637503
0.0361492334 0.0194921038 0.1141113549
-0.0359463307 0.0200072077 0.1088516320
-0.0370397278 0.0177336046 0.1117141535
0.0377531975 0.0161624469 0.1180255285
-0.0513000004 0.0199062410 0.0637700185
-0.0436974922 0.0199169044 0.0248855072
-0.0440002244 0.0172697711 0.0181468601
-0.0575485326 0.0195044169 0.0812780131
-0.0438519645 0.0196504253 0.0559383661
-0.0441000015 0.0194093276 0.0442569148
-0.0552435751 0.0166492164 0.0613330814
-0.0569829908 0.0194999967 0.0628188037
-0.0422958157 0.0190159310 0.0659904458
-0.0423000008 0.0172817887 0.0627467731
-0.0465640154 0.0165234531 0.0603062848
-0.0591708681 0.0175057894 0.0735325659
0.0454535234 0.0159595274 0.0361653786
-0.0375220803 0.0161081867 0.1365718361
-0.0362552932 0.0125157453 0.1385000050
0.0445584901 0.0138060131 0.0413594098
-0.0583546108 0.0167670259 0.0732999966
-0.0395573448 0.0093164936 0.1305416344
0.0403278801 0.0154976759 0.0615542824
-0.0399999991 0.0123901488 0.0285460997
-0.0441000015 0.0163649711 0.0486892509
-0.0435303689 0.0137295115 0.0414153604
-0.0576655270 0.0162144716 0.0684204556
0.0420015908 0.0115562548 0.0588135545
-0.0399999991 0.0113187608 0.0614508850
-0.0399999991 0.0067971728 0.0594679463
-0.0584549824 0.0158154690 0.0839434268
0.0394007242 0.0138825156 0.0806303210
-0.0403720556 0.0108697586 0.0820984367
-0.0394562807 0.0121628449 0.0957278170
0.0403347610 0.0109640518 0.0822495407
0.0382521566 0.0151542799 0.1082717799
-0.0383056356 0.0148105222 0.1151383452
-0.0386464924 0.0141912890 0.1009448697
-0.0391943698 0.0122858701 0.1116914162
0.0392273326 0.0121704117 0.1123682432
-0.0519741067 0.0151497056 0.1057005957
-0.0581055236 0.0146250942 0.0833375006
0.0052880377 0.0025921184 0.1284999996
0.0272757357 0.0104211276 0.1284999996
0.0300926299 0.0102355770 0.1362792602
-0.0246150345 0.0085013574 0.1284999996
-0.0076990314 0.0025956748 0.1284999996
0.0322008875 0.0121020840 0.1385000050
-0.0578332762 0.0133972903 0.0770526174
-0.0522524864 0.0138141033 0.0958226369
-0.0423000008 0.0126579710 0.0671232830
-0.0411876649 0.0140736610 0.0534589914
-0.0563844271 0.0137147547 0.0732999966
-0.0535603001 0.0120740642 0.0790068245
-0.0557037216 0.0118613790 0.0753937984
-0.0403000005 0.0122110083 0.0631396124
-0.0417699027 0.0135374840 0.0482387160
-0.0403000005 0.0107268542 0.0376587647
-0.0407528785 0.0133973739 0.0424732734
-0.0403000005 0.0094549910 0.0620144377
-0.0399999991 0.0052940119 0.0079144518
-0.0399999991 0.0057412550 0.0262317308
-0.0403000005 0.0085328696 0.0331467698
0.0390670194 0.0107352571 0.1287397769
0.0398326403 0.0086610819 0.1368256735
0.0501545054 0.0091594954 0.0281750470
-0.0428000018 0.0120020616 0.0294596446
0.0451599890 0.0113649704 0.0418164844
0.0452582854 0.0098049099 0.0425947502
0.0447714743 0.0067085778 0.0474660083
-0.0435869991 0.0106976313 0.0462407175
0.0409642148 0.0099248495 0.0748715253
0.0413780453 0.0081723223 0.0739332278
0.0402112367 0.0107392989 0.0878264678
-0.0407595760 0.0093163814 0.0799721100
0.0406763500 0.0076503532 0.0922469871
0.0398781180 0.0095551829 0.1217289249
-0.0399785830 0.0095146030 0.1113335367
-0.0404071222 0.0079068028 0.0990998314
0.0406096137 0.0064525726 0.1088629851
0.0405059707 0.0068050779 0.1126351168
-0.0427536181 0.0100471207 0.0452637997
-0.0342397103 0.0072427974 0.1385000050
-0.0403135157 0.0091526958 0.0268541857
-0.0405020332 0.0018202713 0.1298830485
-0.0439030717 0.0082023965 0.0228080257
0.0154277799 0.0027577574 0.1284999996
0.0311751175 0.0038141407 0.1284999996
0.0314174923 0.0047973635 0.1360447685
-0.0230307045 0.0048196129 0.1284999996
-0.0310834832 0.0075482064 0.1328527255
-0.0313845792 0.0050684475 0.1356760604
-0.0423000008 0.0071855042 0.0445640253
-0.0403000005 0.0068751272 0.0239759476
0.0546837536 0.0046739155 0.0010733195
0.0543968796 0.0019175023 0.0120630470
0.0526933361 0.0062169308 0.0213344847
0.0481734552 0.0062574554 0.0352936917
-0.0423000008 0.0046453161 0.0264810101
-0.0423000008 0.0032617252 0.0043811355
-0.0423000008 0.0037760286 0.0244395715
-0.0423000008 0.0035511662 0.0557843191
0.0486844085 0.0025819796 0.0345316388
0.0442454082 0.0055414071 0.0513572218
0.0438090326 0.0032604675 0.0550098833
0.0416798954 0.0050072422 0.0777342614
-0.0403000005 -0.0025055997 0.0029179607
-0.0403000005 -0.0056576390 0.0030416524
-0.0403000005 -0.0016546816 0.0115976580
-0.0403000005 -0.0004989449 0.0129545555
-0.0403000005 0.0035256440 0.0330565653
-0.0403000005 0.0015013538 0.0205482333
-0.0403000005 -0.0070590069 0.0305161736
-0.0403000005 -0.0089479914 0.0339427213
-0.0403000005 0.0041787968 0.0557980431
-0.0403000005 0.0046464828 0.0672837141
-0.0412468646 0.0032211919 0.0388000011
-0.0420293004 -0.0016131431 0.0529000014
0.0412228386 0.0040079430 0.0919622041
-0.0417058426 0.0004306333 0.0844761864
-0.0414143157 0.0040110814 0.0861886251
0.0411897041 0.0007354578 0.1018112466
0.0411519027 0.0010894937 0.1034822001
-0.0408573882 0.0053736436 0.1050524063
-0.0411188854 0.0012698448 0.1059087198
0.0407867702 0.0038772791 0.1243637296
-0.0425956436 -0.0027185674 0.0409947983
-0.0425045964 -0.0047905849 0.0391229577
-0.0425956436 -0.0180762155 0.0524951608
-0.0415825145 -0.0014507216 0.0575999990
-0.0417999960 -0.0022212405 0.0580671443
-0.0399999991 -0.0065873972 0.0102541525
-0.0399999991 -0.0051011045 0.0162222753
-0.0399999991 0.0042541645 0.0204920625
-0.0399999991 0.0040120144 0.0346882950
-0.0399999991 0.0017215498 0.0206109247
-0.0399999991 -0.0240328835 0.0379758468
-0.0399999991 -0.0090282841 0.0327253221
-0.0399999991 -0.0179960399 0.0359390995
-0.0413936292 -0.0250213012 0.0391229577
-0.0399999991 -0.0227339910 0.0526822586
-0.0399999991 -0.0098124539 0.0538071820
-0.0412366088 -0.0283447401 0.0719999969
-0.0420493435 0.0005992719 0.0719999969
-0.0399999991 -0.0235671897 0.0696495532
-0.0399999991 -0.0081937974 0.0679992319
0.0404614136 -0.0008881151 0.1304211989
0.0407633707 -0.0031390568 0.1383336662
-0.0406849643 0.0042000064 0.0603140828
-0.0399999991 0.0013570936 0.0627386022
-0.0399999991 -0.0083163172 0.0636478842
-0.0399999991 -0.0034793805 0.0414591415
-0.0405562695 0.0014144312 0.0486229584
-0.0409890069 -0.0001564321 0.0506229587
-0.0423000008 -0.0048161414 0.0184981071
-0.0423000008 -0.0014188167 0.0232549890
-0.0423000008 -0.0051804117 0.0081088451
-0.0423000008 -0.0011096263 0.0336051574
-0.0422057694 -0.0042386468 0.0388000011
-0.0423000008 -0.0092957941 0.0656969993
-0.0422521295 -0.0011783505 0.0714999959
0.0504661480 -0.0133733770 -0.0000000001
0.0374133522 -0.0119496593 -0.0000000001
0.0507565042 -0.0044051085 -0.0000000001
0.0353257125 -0.0179926420 -0.0000000001
0.0428496740 -0.0132591322 -0.0000000001
0.0427678934 -0.0163166590 -0.0000000001
0.0490348030 -0.0032983100 -0.0000000001
0.0389964952 -0.0004256546 -0.0000000001
0.0294025665 -0.0182589541 -0.0000000001
0.0184625091 -0.0280861581 -0.0000000001
0.0236550321 -0.0188682560 -0.0000000001
0.0200207522 -0.0327088923 -0.0000000001
0.0177979750 -0.0237583947 -0.0000000001
0.0085058024 -0.0305130128 -0.0000000001
0.0080885689 -0.0119324793 -0.0000000001
0.0061520517 -0.0319257968 -0.0000000001
0.0125728851 -0.0319326471 -0.0000000001
-0.0014455747 -0.0265936006 -0.0000000001
0.0134270804 -0.0190681811 -0.0000000001
0.0034111685 -0.0232575157 -0.0000000001
-0.0008674841 -0.0210841021 -0.0000000001
-0.0057278873 -0.0085689829 -0.0000000001
-0.0050470639 -0.0182032983 -0.0000000001
-0.0101065990 -0.0129440180 -0.0000000001
0.0107899472 -0.0010227540 -0.0000000001
-0.0046942094 -0.0104718425 -0.0000000001
-0.0093205117 -0.0203523672 -0.0000000001
-0.0200576471 -0.0316225397 -0.0000000001
-0.0157831799 -0.0124678489 -0.0000000001
-0.0228866314 -0.0320497657 -0.0000000001
-0.0235432802 -0.0259812741 -0.0000000001
-0.0160099884 -0.0084573639 -0.0000000001
-0.0139177817 -0.0041869549 -0.0000000001
-0.0339895727 -0.0328721319 -0.0000000001
-0.0315292080 -0.0018533422 -0.0000000001
-0.0278695814 -0.0080934171 -0.0000000001
-0.0337435411 -0.0289411400 -0.0000000001
-0.0173443339 -0.0044279360 -0.0000000001
-0.0367725976 -0.0292953116 -0.0000000001
-0.0376096226 -0.0304980240 -0.0000000001
-0.0365668751 -0.0071872383 -0.0000000001
-0.0399999991 -0.0033441701 0.0037923362
-0.0399999991 -0.0126438522 0.0055013467
-0.0399999991 -0.0085868079 0.0041243308
-0.0399999991 -0.0175497778 0.0018768043
-0.0399999991 -0.0050680711 0.0036754370
0.0548536586 -0.0010000949 0.0047924618
0.0533042114 -0.0041195549 0.0191668563
0.0510171347 -0.0049047864 0.0274502223
0.0472088213 -0.0016696278 0.0391685913
0.0452258338 -0.0059537783 0.0458232958
0.0430628465 -0.0026117570 0.0617937948
0.0419300949 -0.0022608808 0.0767070303
0.0414154062 -0.0014480212 0.0912157687
-0.0414122109 -0.0007034208 0.0927819759
0.0412715365 -0.0028105970 0.0928591854
0.0410436545 -0.0015867541 0.1121430282
-0.0411116693 -0.0009231162 0.1093363037
-0.0408946559 -0.0036979411 0.1133591279
0.0407146909 -0.0044958984 0.1279734765
0.0030176005 -0.0006655788 0.1284999996
0.0275480447 -0.0063649289 0.1284999996
0.0319452917 -0.0004505461 0.1300472716
-0.0247892105 -0.0000888661 0.1284999996
-0.0313176356 -0.0054890557 0.1284999996
0.0193210542 -0.0125323781 0.1284999996
0.0230130104 -0.0057301482 0.1284999996
0.0281964593 -0.0095664797 0.1284999996
0.0104714083 -0.0289866263 0.1284999996
0.0076614484 -0.0228319251 0.1284999996
0.0091391136 -0.0216928276 0.1284999996
0.0162342003 -0.0263469232 0.1284999996
0.0134831867 -0.0158018630 0.1284999996
-0.0098202769 -0.0171912504 0.1284999996
-0.0085440761 -0.0156210088 0.1284999996
-0.0048944155 -0.0263780672 0.1284999996
-0.0063138807 -0.0253942975 0.1284999996
0.0028497175 -0.0240949366 0.1284999996
-0.0289758703 -0.0107095016 0.1284999996
-0.0152709719 -0.0077889224 0.1284999996
-0.0061180824 -0.0053638877 0.1284999996
-0.0239973435 -0.0129220087 0.1284999996
-0.0056984526 -0.0076257343 0.1284999996
-0.0196113056 -0.0218828077 0.1284999996
-0.0401676305 -0.0048950545 0.1285219345
-0.0317253881 -0.0022616233 0.1384755447
-0.0334232896 -0.0022643207 0.1385000050
-0.0400597790 -0.0079959281 0.1379064061
-0.0417530786 -0.0055017161 0.0759161983
0.0397282747 -0.0077311361 0.1287781992
-0.0435324924 -0.0050297537 0.0235133473
0.0399217279 -0.0092477515 0.1237027246
0.0402290087 -0.0085943723 0.1037521111
-0.0401199991 -0.0083800048 0.1208151391
0.0409108876 -0.0082738890 0.0816315671
-0.0405127376 -0.0075738485 0.0975412639
-0.0398654931 -0.0102764304 0.1070076574
0.0421450965 -0.0057297735 0.0698884583
0.0410805574 -0.0094319137 0.0746084285
-0.0401116529 -0.0062217369 0.0279282005
0.0440886138 -0.0081830737 0.0495692621
0.0470140488 -0.0072340245 0.0380269614
-0.0434950910 -0.0062858016 0.0297575661
0.0512333544 -0.0070217830 0.0263235028
0.0529817128 -0.0081965551 0.0184343365
0.0534597679 -0.0116939376 0.0064033437
-0.0443012454 -0.0077154645 0.0292769040
0.0297091143 -0.0112468261 0.1352388330
0.0338971808 -0.0194736639 0.1385000050
-0.0296385673 -0.0114328432 0.1358557303
-0.0443012454 -0.0142405347 0.0243025023
-0.0424083122 -0.0079975436 0.0441060684
-0.0443012454 -0.0107531861 0.0223973005
-0.0380480558 -0.0137959092 0.1336929317
-0.0404938804 -0.0107591099 0.0779291999
0.0521482302 -0.0121589573 -0.0000000001
-0.0351986733 -0.0155864505 0.1385000050
-0.0410227312 -0.0131045319 0.0001999995
-0.0403000005 -0.0181966372 0.0088791427
-0.0403000005 -0.0212740744 0.0021525170
-0.0423000008 -0.0294953437 0.0009091350
-0.0423000008 -0.0201174194 0.0064687329
-0.0423000008 -0.0122374198 0.0132879242
-0.0423000008 -0.0135470745 0.0119867426
-0.0403000005 -0.0194466462 0.0336528945
-0.0403000005 -0.0127807271 0.0385869085
-0.0417915753 -0.0184387972 0.0388000011
-0.0423000008 -0.0209133105 0.0539154806
-0.0423000008 -0.0328841499 0.0572263382
-0.0423000008 -0.0168587015 0.0664783201
-0.0403000005 -0.0126488144 0.0671382249
-0.0403000005 -0.0191218636 0.0688252526
0.0382125131 -0.0153463084 0.1054971240
0.0386493787 -0.0140210021 0.1069109027
0.0386091970 -0.0141114971 0.1079388601
-0.0389541200 -0.0126642888 0.1238358559
0.0398733249 -0.0110162474 0.0949324344
-0.0396247312 -0.0116127923 0.0962499423
-0.0389069981 -0.0131795755 0.1099532549
0.0408011570 -0.0117874350 0.0703038346
-0.0399449159 -0.0124586557 0.0788733235
0.0414784086 -0.0115273820 0.0631639464
-0.0421786472 -0.0251396636 0.0575999990
-0.0423000008 -0.0257115400 0.0663116423
-0.0422999971 -0.0122569002 0.0593676349
0.0447112387 -0.0141909225 0.0403550156
-0.0399999991 -0.0192609733 0.0565337555
-0.0399999991 -0.0227928245 0.0669095478
-0.0423000008 -0.0236758009 0.0740420791
-0.0399999991 -0.0218342393 0.0590043930
-0.0399999991 -0.0189178016 0.0615038132
0.0487939384 -0.0144750080 0.0285229028
0.0351965611 -0.0202860306 0.1315868116
-0.0399999991 -0.0207863974 0.0451359468
-0.0408930997 -0.0177365808 0.0411229581
-0.0442950977 -0.0159881547 0.0300383362
-0.0402348382 -0.0150777987 0.0327312526
0.0515820026 -0.0184277758 0.0054106552
-0.0393224365 -0.0153630735 0.0758162692
0.0282547975 -0.0149867469 0.1355210416
0.0264041346 -0.0194956710 0.1385000050
-0.0267330489 -0.0171913759 0.1375768286
-0.0423870782 -0.0149980362 0.0506229587
-0.0423000008 -0.0237618971 0.0119881653
0.0356595832 -0.0204604313 0.1153588091
0.0358676558 -0.0202864416 0.1027783129
0.0378989239 -0.0158105638 0.1208860520
-0.0365610111 -0.0185882880 0.1176027086
0.0380548368 -0.0166890583 0.0884903863
-0.0381424859 -0.0166444763 0.0867126858
-0.0375575339 -0.0169165971 0.0998917119
0.0385162639 -0.0179139635 0.0696799352
-0.0364642518 -0.0195690844 0.0931011066
-0.0399999991 -0.0248053495 0.0091661011
0.0392582571 -0.0186877387 0.0589184677
-0.0403000005 -0.0231188261 0.0096690703
0.0407008884 -0.0197327528 0.0474048388
-0.0345377830 -0.0210792106 0.1293900610
-0.0403000005 -0.0225568285 0.0333691156
-0.0290152089 -0.0214618154 0.1385000050
0.0438246922 -0.0237483589 0.0315346731
-0.0430867252 -0.0191352210 0.0320066225
0.0454571754 -0.0242918205 0.0266282142
-0.0399999991 -0.0322208325 0.0148733119
-0.0399999991 -0.0334446753 0.0096286503
-0.0399999991 -0.0230625320 0.0315254323
0.0468882119 -0.0259724705 -0.0000000001
0.0477734159 -0.0214946815 0.0238890084
0.0494303816 -0.0215106483 0.0164197750
0.0336433130 -0.0234164803 0.1209379592
0.0339246507 -0.0233393891 0.0990154475
-0.0340160382 -0.0229153264 0.1173260586
0.0343355275 -0.0236716099 0.0828016437
0.0331628697 -0.0248759417 0.0920364030
-0.0346376174 -0.0225589700 0.0938786475
-0.0338210847 -0.0232877223 0.1121872439
0.0483809374 -0.0250379366 0.0109660420
0.0355523986 -0.0222655402 0.0774072701
0.0313376765 -0.0256351131 0.1320156630
0.0348308305 -0.0215067563 0.1357396174
0.0202659163 -0.0244858168 0.1299098378
-0.0230889139 -0.0219848570 0.1322827800
0.0235656673 -0.0293788184 0.1385000050
-0.0283118342 -0.0244019337 0.1385000050
-0.0399999991 -0.0263097017 0.0256855360
0.0361984386 -0.0227564315 0.0659600694
-0.0423000008 -0.0300020569 0.0106649140
-0.0423000008 -0.0245304464 0.0281427128
-0.0423000008 -0.0247781724 0.0235919941
0.0371894851 -0.0232290765 0.0561905883
-0.0425956436 -0.0261950004 0.0514397582
-0.0403000005 -0.0259311448 0.0153841143
-0.0403000005 -0.0275345623 0.0327812358
-0.0403000005 -0.0260519699 0.0188046696
-0.0418961099 -0.0259359806 0.0649999976
-0.0306345440 -0.0264954020 0.1328635024
0.0374281047 -0.0250495601 0.0452312068
0.0314317919 -0.0262951247 0.1225026440
0.0321953808 -0.0256018953 0.1090781205
-0.0326054579 -0.0251565584 0.1073938064
0.0357487357 -0.0250669377 0.0224242014
0.0351971046 -0.0250541241 0.0222921630
0.0428651316 -0.0252423192 0.0319467074
-0.0309873741 -0.0274251822 0.0924599128
-0.0307766671 -0.0272575250 0.1062116169
0.0334573013 -0.0257195354 0.0380697525
0.0383370151 -0.0255703268 0.0270335573
-0.0399999991 -0.0329784084 0.0672779354
-0.0399999991 -0.0325063756 0.0647662006
0.0423821389 -0.0258219892 0.0321724624
0.0333619153 -0.0257414964 0.0392220101
-0.0309153467 -0.0280634987 0.0813904626
0.0396857802 -0.0264087406 0.0310526506
0.0412131967 -0.0275513270 0.0242051489
0.0320277274 -0.0269262328 0.0365539235
0.0436332818 -0.0265236335 0.0282995566
-0.0423000008 -0.0303053650 0.0614185231
-0.0400620920 -0.0261975471 0.0451227661
0.0323581580 -0.0264559473 0.0801506473
0.0162521505 -0.0273462859 0.1358708878
0.0143356553 -0.0328763209 0.1385000050
-0.0156622777 -0.0276558747 0.1374212461
-0.0244626031 -0.0311497585 0.1385000050
-0.0403000005 -0.0283754878 0.0492319987
-0.0423000008 -0.0274629542 0.0462226161
-0.0423000008 -0.0325742828 0.0485644106
0.0312942654 -0.0279015693 0.0187417045
0.0462241810 -0.0282791665 0.0149800914
0.0455667842 -0.0304440219 0.0054166370
0.0308542359 -0.0297141531 0.0535899457
0.0309286098 -0.0296082696 0.0290383557
0.0242671939 -0.0324749404 0.1299768020
0.0234229235 -0.0336240331 0.1369668577
0.0328056023 -0.0300187558 0.0009296610
0.0254761966 -0.0322513524 0.1137583774
0.0277655637 -0.0300774763 0.1280896970
0.0276842387 -0.0303592149 0.1099408952
-0.0261136194 -0.0316016415 0.1215818121
0.0278715724 -0.0304891334 0.0948829793
0.0289868679 -0.0300962597 0.0816018967
-0.0276800379 -0.0307737548 0.0922356237
-0.0252013263 -0.0324677078 0.1158886681
0.0297676032 -0.0306493583 0.0668584630
-0.0266259399 -0.0321694706 0.0815397987
0.0068827603 -0.0310209428 0.1292295707
-0.0099138700 -0.0302738430 0.1307435477
0.0095990723 -0.0363604641 0.1385000050
-0.0115748831 -0.0345640613 0.1385000050
-0.0403000005 -0.0333088275 0.0148084773
-0.0403000005 -0.0301665920 0.0222133310
-0.0403000005 -0.0315609505 0.0548789558
-0.0403000005 -0.0312401965 0.0666553510
-0.0410870102 -0.0305592284 0.0093689037
0.0310314899 -0.0316754714 0.0342294643
0.0268835529 -0.0334558859 0.0640738425
-0.0261478495 -0.0311561229 0.1321638767
-0.0384675353 -0.0315060569 0.0744980461
0.0003710116 -0.0317666829 0.1297391019
-0.0002160198 -0.0362788876 0.1385000050
-0.0031829482 -0.0349621360 0.1385000050
0.0200928098 -0.0350735187 -0.0000000001
0.0291356703 -0.0327194362 0.0566638839
0.0210997447 -0.0352277614 0.1174603233
0.0246327447 -0.0327916300 0.1246578774
-0.0241431727 -0.0332010645 0.1168064215
-0.0211074245 -0.0351204217 0.1272097280
0.0239162583 -0.0338966656 0.0897133927
-0.0211501385 -0.0355060221 0.0954729984
-0.0239422194 -0.0338380318 0.0909856272
-0.0232158850 -0.0338900384 0.1101885688
0.0298888562 -0.0332158473 0.0504638703
0.0231666807 -0.0353551974 0.0726107405
-0.0239689348 -0.0344410712 0.0775977411
0.0391268194 -0.0382576036 0.0086923955
-0.0382772530 -0.0343579486 -0.0000000001
-0.0407045500 -0.0335000008 0.0345840253
-0.0420102566 -0.0335000008 0.0459542755
-0.0386334109 -0.0335000008 0.0394879371
-0.0336071166 -0.0335000008 0.0461270381
-0.0376412370 -0.0335000008 0.0663552878
-0.0341482412 -0.0335000008 0.0655858328
-0.0356212432 -0.0335000008 0.0703955860
0.0319950942 -0.0343233331 0.0380159580
0.0204450820 -0.0349568152 0.1327325212
-0.0372626383 -0.0348247477 -0.0000000001
0.0228392570 -0.0371883306 0.0577570222
0.0357064745 -0.0371336806 0.0156283712
0.0347473317 -0.0362329298 0.0141370825
-0.0337441223 -0.0349593726 0.0351041155
0.0300880365 -0.0362596513 0.0397501318
0.0228936359 -0.0387964359 0.0488031209
0.0388568016 -0.0361474399 -0.0000000001
0.0239122445 -0.0384748790 -0.0000000001
0.0032875163 -0.0433017382 -0.0000000001
0.0078124069 -0.0405732518 -0.0000000001
-0.0111096023 -0.0356516258 -0.0000000001
0.0140724043 -0.0359156621 -0.0000000001
-0.0224004418 -0.0376303052 -0.0000000001
-0.0334778810 -0.0415112209 -0.0000000001
-0.0326929368 -0.0383376788 0.0299948633
0.0168942781 -0.0373856013 0.1187140811
0.0184544878 -0.0367267565 0.1073380574
0.0167449014 -0.0376206848 0.1021057832
-0.0205376181 -0.0356709640 0.1102711246
-0.0266718017 -0.0366404318 0.0406886838
-0.0225637282 -0.0356410727 0.0166683023
-0.0219260801 -0.0357159553 0.0719286175
-0.0212385399 -0.0360601553 0.0352413356
0.0164931459 -0.0381688193 0.0880201267
0.0168979678 -0.0382299292 0.0809611682
-0.0157729435 -0.0379288068 0.1197199178
-0.0171430779 -0.0373097868 0.1138906746
-0.0162463119 -0.0373047358 0.1354999989
-0.0203284778 -0.0365743969 0.0670549244
0.0168117079 -0.0388783443 0.0720671637
0.0232121829 -0.0397373694 0.0439611475
0.0334484979 -0.0372646003 0.0308295130
-0.0270588425 -0.0369031988 0.0140845722
-0.0198092829 -0.0369840314 0.0500017554
-0.0193385146 -0.0377547346 0.0471203538
-0.0334142084 -0.0397710230 0.0255754557
0.0176791475 -0.0394746446 0.0610907643
0.0310419251 -0.0417676914 -0.0000000001
-0.0228811629 -0.0376190165 0.0047030334
0.0283142640 -0.0390997574 0.0359688614
0.0149859410 -0.0378312001 0.1313285051
-0.0362209763 -0.0393206876 0.0193688009
-0.0286509719 -0.0389866942 0.0133832567
0.0118568941 -0.0392042416 0.1264376568
0.0147401185 -0.0382949488 0.1188951215
-0.0131496179 -0.0387636135 0.1266340027
-0.0253420935 -0.0381057092 0.0001897604
0.0108952882 -0.0404119494 0.0807103907
0.0158392680 -0.0386195634 0.0839726466
-0.0125040954 -0.0391222375 0.1114799461
-0.0129812265 -0.0389888405 0.1083765981
0.0196544550 -0.0401537263 0.0502968704
-0.0304485212 -0.0394891984 0.0309286668
0.0125434178 -0.0400612519 0.0770154415
-0.0156613992 -0.0388571090 0.0790392849
-0.0360144883 -0.0413510175 0.0041902870
0.0341517097 -0.0391020705 0.0258408635
-0.0184179588 -0.0403019943 0.0261277556
-0.0205946874 -0.0394168026 0.0078919765
-0.0039822943 -0.0403486830 0.1316973946
0.0076001278 -0.0402264556 0.1262913487
0.0066616890 -0.0406409245 0.1006599139
-0.0086532560 -0.0401512466 0.1111834732
0.0143811107 -0.0404657853 0.0635223391
-0.0140048255 -0.0409072088 0.0609618900
0.0226787866 -0.0400367420 0.0439535870
0.0295626302 -0.0417586822 0.0276913768
0.0058482922 -0.0409283681 0.0953979421
0.0087740299 -0.0406879891 0.0852851994
-0.0093286714 -0.0400823566 0.1038183146
0.0328820386 -0.0422149291 0.0195576892
0.0039508842 -0.0403066298 0.1332988668
0.0012236522 -0.0407713487 0.1381625054
0.0100018777 -0.0409096253 0.0754363419
-0.0068251351 -0.0411398094 0.0833857192
0.0034298162 -0.0408725416 0.1179024107
0.0016367905 -0.0410972148 0.1056361945
-0.0019750003 -0.0409504562 0.1198988720
-0.0044215844 -0.0407887671 0.1200512004
0.0137154094 -0.0433835458 0.0459803742
-0.0115885443 -0.0422805066 0.0564474764
0.0002790895 -0.0413621816 0.0951265958
-0.0046565564 -0.0411710787 0.0922406933
-0.0026217202 -0.0410050649 0.1087951055
-0.0000367931 -0.0416113469 0.0880999614
0.0206522080 -0.0446246823 0.0333782288
0.0070925972 -0.0427430981 0.0603798454
-0.0108892444 -0.0417748806 0.0621807164
-0.0184399810 -0.0418802359 0.0133735027
-0.0168435691 -0.0417119795 0.0488304431
0.0018568667 -0.0425077086 0.0686414141
-0.0010084150 -0.0428097074 0.0650356506
0.0159170891 -0.0444157920 0.0393254528
-0.0252434069 -0.0433993733 0.0077829930
0.0269185556 -0.0466062399 0.0174121191
0.0054064492 -0.0436219522 0.0554092222
-0.0325564225 -0.0429147388 0.0149753714
-0.0102263754 -0.0430605030 0.0529256878
-0.0152255480 -0.0436276486 0.0429370120
-0.0194672987 -0.0443638571 0.0227563572
0.0274914181 -0.0473034742 0.0084076322
0.0257061319 -0.0447200181 0.0267310401
-0.0235528918 -0.0439390264 0.0055565955
-0.0323259808 -0.0443398518 0.0001311215
-0.0026767305 -0.0441507843 0.0528018208
0.0172325432 -0.0445141512 0.0375237162
-0.0108528406 -0.0453588808 0.0414596575
0.0063276267 -0.0465970892 -0.0000000001
0.0213730169 -0.0494265723 -0.0000000001
-0.0153430650 -0.0454951923 -0.0000000001
-0.0247708554 -0.0472711990 -0.0000000001
0.0297299782 -0.0461239409 0.0014850956
0.0001970462 -0.0445158645 0.0274550280
-0.0005868765 -0.0446577700 0.0081895050
0.0017272985 -0.0452275737 0.0431715361
-0.0017737420 -0.0453592346 0.0058128893
0.0039104681 -0.0461782774 0.0426344590
-0.0176830409 -0.0460185613 0.0331218382
-0.0023699524 -0.0465146574 0.0225772525
0.0114666542 -0.0477495282 0.0336266112
0.0246941461 -0.0483411968 0.0133604406
-0.0196217219 -0.0481186768 0.0251989662
0.0024524143 -0.0473116377 0.0226172115
0.0241813883 -0.0491269869 0.0056339976
-0.0041176897 -0.0476313031 0.0373100652
-0.0265476821 -0.0478725574 0.0078720113
-0.0021742047 -0.0481766668 0.0298430626
0.0158416845 -0.0507543797 0.0206657278
0.0016310052 -0.0487729735 0.0117300420
-0.0126058190 -0.0493607760 0.0284812606
-0.0014873834 -0.0489707040 0.0295858356
0.0010365512 -0.0492583472 0.0151735204
-0.0010442247 -0.0492405950 0.0088292925
0.0194712539 -0.0501451398 0.0171570142
-0.0051428785 -0.0500841982 0.0300934705
0.0008099140 -0.0511429619 0.0278610926
0.0208830697 -0.0506982496 0.0062855294
-0.0075590645 -0.0516088628 0.0249429893
-0.0152912935 -0.0522987526 0.0117295525
0.0146625907 -0.0529736598 0.0007939169
0.0135191793 -0.0523511797 0.0154544326
0.0066095656 -0.0522543547 0.0229970528
-0.0119626836 -0.0531905444 0.0102891025
0.0078509826 -0.0541758320 0.0072744008
0.0010225079 -0.0540940412 0.0150118862
-0.0075267773 -0.0540065153 0.0114840841
-0.0012004180 -0.0544199887 0.0125004707
0.0001965501 -0.0546465127 0.0095548102
0.0021494876 -0.0548222587 0.0034737770
