-0.0638588612 -0.0003597293 -0.0220937162
-0.0642765234 -0.0004244508 0.0234840567
-0.1037921194 -0.0014583883 -0.0215222399
-0.1034066307 -0.0015435968 0.0225247489
-0.0135977653 -0.0019091175 0.0340011590
-0.0044287953 -0.0013518061 0.0305030534
-0.0028795920 -0.0009400882 -0.0326104374
-0.0011945546 -0.0015000000 -0.0319997123
-0.0083996654 -0.0015000000 -0.0276812658
-0.0058871252 -0.0015000000 -0.0291094497
-0.0032936721 -0.0015000000 -0.0351873803
-0.0088416522 -0.0015000000 -0.0351653347
-0.0133435757 -0.0015000000 -0.0289904957
-0.0008376780 -0.0015000000 0.0343920775
-0.0136337341 -0.0015000000 0.0275243029
-0.0112587551 -0.0015000000 0.0359526268
-0.0043388786 -0.0015000000 0.0356391035
-0.0024139651 -0.0015000000 0.0297390056
-0.0095024498 -0.0015000000 0.0283115172
-0.0000000003 -0.0016426503 -0.0379250766
-0.0000000003 -0.0003255244 -0.0296881344
-0.0129854222 -0.0000285384 -0.0399999991
-0.0069655621 -0.0020101400 -0.0399999991
-0.0181506890 -0.0004476117 -0.0399999991
-0.0111103828 -0.0015786503 -0.0399999991
-0.0365600838 -0.0005880721 -0.0399999991
-0.0318315461 -0.0029377787 -0.0399999991
-0.0453900156 -0.0023907175 -0.0399999991
-0.0249091469 -0.0022883735 -0.0399999991
-0.0327273083 -0.0020669489 -0.0399999991
-0.0435022181 -0.0005672816 -0.0399999991
-0.1099999994 -0.0013103800 0.0141249624
-0.1099999994 -0.0000766219 0.0085191149
-0.1099999994 -0.0026505078 0.0235805195
-0.1099999994 -0.0029309201 -0.0157719735
-0.1099999994 -0.0016213779 -0.0105748204
-0.1099999994 -0.0026113555 0.0167654581
-0.1099999994 -0.0027632110 0.0203024400
-0.1099999994 -0.0010980483 -0.0088101880
-0.1099999994 -0.0009196054 -0.0178812715
-0.1099999994 -0.0001849897 -0.0197309289
-0.1099999994 -0.0016030751 -0.0191725608
-0.0429790616 -0.0013701370 0.0399999991
-0.0069641494 -0.0028723695 0.0399999991
-0.0370602720 -0.0008648771 0.0399999991
-0.0351664397 -0.0002901901 0.0399999991
-0.0148350691 -0.0024134140 0.0399999991
-0.0335504239 -0.0015435581 0.0399999991
-0.0394706522 -0.0022305590 0.0399999991
-0.0160881393 -0.0015571936 0.0399999991
-0.0108174311 -0.0006707957 0.0399999991
-0.0186412531 -0.0009131430 0.0399999991
-0.0066898942 -0.0015753573 0.0399999991
-0.0000000003 -0.0005126922 0.0294446120
-0.0405646106 0.0000000000 0.0251059944
-0.0534083358 0.0000000000 0.0250606631
-0.0688460623 0.0000000000 0.0263621626
-0.0547438051 0.0000000000 0.0257946126
-0.0613970513 0.0000000000 0.0267084012
-0.0387676873 0.0000000000 0.0253169412
-0.0173508652 0.0000000000 0.0378273643
-0.0086487665 0.0000000000 0.0387156282
-0.0151916520 0.0000000000 0.0378957263
-0.0945030772 0.0000000000 -0.0212791233
-0.1080539223 0.0000000000 -0.0167563344
-0.1094352930 0.0000000000 -0.0050561103
-0.1071470391 0.0000000000 -0.0204773578
-0.0976012251 0.0000000000 0.0236613904
-0.0894129203 0.0000000000 0.0269007166
-0.1081469347 0.0000000000 0.0245902928
-0.1078778938 0.0000000000 0.0149179391
-0.1099727621 0.0000000000 0.0063590062
-0.1090915818 0.0000000000 0.0138649352
-0.0886650818 0.0000000000 0.0070946959
-0.0868696937 0.0000000000 0.0161469191
-0.1020248907 0.0000000000 0.0207190009
-0.0959860014 0.0000000000 0.0157359626
-0.0870649769 0.0000000000 0.0208518772
-0.0951896522 0.0000000000 0.0141181847
-0.0848846779 0.0000000000 0.0043537454
-0.0914824395 0.0000000000 0.0138292220
-0.0875064565 0.0000000000 0.0050636308
-0.0866888192 0.0000000000 0.0028644068
-0.0857432214 0.0000000000 0.0208158877
-0.0955742581 0.0000000000 0.0194467414
-0.0935150311 0.0000000000 0.0157107336
-0.0914242422 0.0000000000 0.0093546660
-0.0864293735 0.0000000000 0.0160974921
-0.0919770645 0.0000000000 0.0223999906
-0.0879650923 0.0000000000 0.0181086579
-0.0981037987 0.0000000000 0.0223801409
-0.1093809798 0.0000000000 0.0036904128
-0.1003322419 0.0000000000 0.0034673504
-0.0912688009 0.0000000000 0.0048411083
-0.0941080690 0.0000000000 0.0091494253
-0.1056274723 0.0000000000 0.0074893813
-0.1022869848 0.0000000000 0.0042074470
-0.0934763228 0.0000000000 0.0004182627
-0.1044556389 0.0000000000 0.0157708606
-0.1064746178 0.0000000000 0.0025425179
-0.0868171038 0.0000000000 0.0004628780
-0.0974687012 0.0000000000 0.0075147156
-0.0915045961 0.0000000000 0.0049493908
-0.0970908074 0.0000000000 0.0046689991
-0.0948700492 0.0000000000 0.0046458287
-0.1002701160 0.0000000000 0.0077902251
-0.1026040004 0.0000000000 0.0171676331
-0.0990907874 0.0000000000 0.0011848875
-0.0928544773 0.0000000000 0.0070404432
-0.1011764011 0.0000000000 0.0057197692
-0.1099159909 0.0000000000 0.0001070000
-0.0950880891 0.0000000000 0.0015631193
-0.1011593772 0.0000000000 0.0173136743
-0.0979748114 0.0000000000 0.0150014663
-0.1098050518 0.0000000000 -0.0230225656
-0.0852727714 0.0000000000 -0.0238335166
-0.0885471035 0.0000000000 -0.0234416872
-0.0868106063 0.0000000000 -0.0250490940
-0.0966841285 0.0000000000 -0.0236853146
-0.0863861793 0.0000000000 -0.0247542521
-0.1010051062 0.0000000000 -0.0218400447
-0.0967008408 0.0000000000 -0.0255856310
-0.0978529465 0.0000000000 -0.0260523363
-0.0912733557 0.0000000000 -0.0273334976
-0.1009501398 0.0000000000 -0.0263123022
-0.0393848542 0.0000000000 -0.0294749873
-0.0392460450 0.0000000000 -0.0299810980
-0.0430466821 0.0000000000 -0.0385062614
-0.0393310141 0.0000000000 -0.0295708399
-0.0431324315 0.0000000000 -0.0358338160
-0.0366115457 0.0000000000 -0.0297603417
-0.0377722947 0.0000000000 -0.0305136075
-0.0147711110 0.0000000000 -0.0330792332
-0.0340195633 0.0000000000 -0.0300886269
-0.0272302609 0.0000000000 -0.0330471712
-0.0240642329 0.0000000000 -0.0315020554
-0.0324619067 0.0000000000 -0.0351518640
-0.0260435081 0.0000000000 -0.0304580557
-0.0273398392 0.0000000000 -0.0313628442
-0.0271317738 0.0000000000 -0.0314584706
-0.0333421352 0.0000000000 -0.0292019628
-0.0158457745 0.0000000000 -0.0332851687
-0.0031762025 0.0000000000 -0.0341531095
-0.0311804571 0.0000000000 -0.0280542601
-0.0122103164 0.0000000000 -0.0266980395
-0.0187072949 0.0000000000 -0.0282122431
-0.0172856334 0.0000000000 -0.0280078962
-0.0288828535 0.0000000000 -0.0286786245
-0.0214292052 0.0000000000 -0.0302915082
-0.0240447983 0.0000000000 -0.0361011923
-0.0210362268 0.0000000000 -0.0360604504
-0.0192321234 0.0000000000 -0.0375120189
-0.0068868342 0.0000000000 -0.0396337124
-0.0176895060 0.0000000000 -0.0398484447
-0.0342042090 0.0000000000 -0.0396893470
-0.0186962547 0.0000000000 -0.0396355089
-0.0214181918 0.0000000000 -0.0390894840
-0.0102256756 0.0000000000 -0.0371178279
-0.0053406640 0.0000000000 -0.0353601770
-0.0029262243 0.0000000000 -0.0316919046
-0.0098541125 0.0000000000 -0.0284449473
-0.0018706014 0.0000000000 -0.0335826770
-0.0004600800 0.0000000000 -0.0355628357
-0.0332170991 0.0000000000 -0.0163708821
-0.0329444331 0.0000000000 -0.0161871209
-0.0266120081 0.0000000000 -0.0133195462
-0.0269241521 0.0000000000 -0.0165565188
-0.0239004938 0.0000000000 -0.0180990302
-0.0324240721 0.0000000000 -0.0184428534
-0.0377757543 0.0000000000 -0.0215972419
-0.0366271469 0.0000000000 -0.0226909350
-0.0334574403 0.0000000000 -0.0248480055
-0.0318551998 0.0000000000 -0.0224771246
-0.0204754751 0.0000000000 -0.0217392229
-0.0268862351 0.0000000000 -0.0226445850
-0.0242103759 0.0000000000 -0.0240253107
-0.0251801664 0.0000000000 -0.0218753439
-0.0287288862 0.0000000000 -0.0265443357
-0.0213439701 0.0000000000 -0.0251863483
-0.0296129783 0.0000000000 -0.0259677961
-0.0338462023 0.0000000000 0.0193810023
-0.0347333695 0.0000000000 0.0195304206
-0.0348213323 0.0000000000 0.0199332574
-0.0261449397 0.0000000000 0.0146132066
-0.0343835057 0.0000000000 0.0113861280
-0.0357087781 0.0000000000 0.0076380929
-0.0374917524 0.0000000000 0.0203847316
-0.0289575716 0.0000000000 0.0107438431
-0.0335332721 0.0000000000 0.0144580569
-0.0376095108 0.0000000000 0.0072438446
-0.0309603094 0.0000000000 0.0120968781
-0.0368300865 0.0000000000 0.0060288124
-0.0379188307 0.0000000000 0.0144530099
-0.0349615304 0.0000000000 0.0024494064
-0.0306485179 0.0000000000 0.0026522550
-0.0291339254 0.0000000000 0.0003087724
-0.0301796724 0.0000000000 -0.0012527947
-0.0021253260 0.0000000000 0.0312435259
-0.0187675041 0.0000000000 0.0306875194
-0.0279377852 0.0000000000 0.0282794511
-0.0248425666 0.0000000000 0.0281778747
-0.0138202749 0.0000000000 0.0276317180
-0.0122858021 0.0000000000 0.0299412016
-0.0136671186 0.0000000000 0.0300252119
-0.0164987885 0.0000000000 0.0251032812
-0.0216595367 0.0000000000 0.0252895539
-0.0187746088 0.0000000000 0.0266120519
-0.0343052168 0.0000000000 0.0246306515
-0.0314238711 0.0000000000 0.0250561661
-0.0183306583 0.0000000000 0.0224824422
-0.0252862443 0.0000000000 0.0235280916
-0.0283958548 0.0000000000 0.0217885629
-0.0217612517 0.0000000000 0.0211761588
-0.0286767984 0.0000000000 0.0202518292
-0.0234904394 0.0000000000 0.0195679575
-0.0255134564 0.0000000000 0.0186438229
-0.0104284838 0.0000000000 0.0295806674
-0.0073990968 0.0000000000 0.0301994132
-0.0064535152 0.0000000000 0.0355753085
-0.0195306613 0.0000000000 0.0360543359
-0.0198569059 0.0000000000 0.0356481536
-0.0198490285 0.0000000000 0.0368842627
-0.0247270637 0.0000000000 0.0372125736
-0.0244718569 0.0000000000 0.0356698246
-0.0011908352 0.0000000000 0.0366064756
-0.0548481870 0.0000000000 0.0316243931
-0.0517943998 0.0000000000 0.0328465079
-0.0449683283 0.0000000000 0.0383980696
-0.0468077126 0.0000000000 0.0337363893
-0.0537495146 0.0000000000 0.0311475258
-0.0541420129 0.0000000000 0.0316906332
-0.0396899619 0.0000000000 0.0388485866
-0.0217914707 0.0000000000 0.0397109052
-0.0206144450 0.0000000000 0.0387809519
-0.0222037767 0.0000000000 0.0389117735
-0.0159511582 0.0000000000 0.0334984811
-0.0287713264 0.0000000000 0.0317213771
-0.0230882127 0.0000000000 0.0343987601
-0.0293091246 0.0000000000 0.0351952706
-0.0316346639 0.0000000000 0.0301182957
-0.0313293112 0.0000000000 0.0307789989
-0.0327044940 0.0000000000 0.0316409223
-0.0236682984 0.0000000000 0.0340326672
-0.0144991809 0.0000000000 0.0322224296
-0.0378767822 0.0000000000 0.0359368095
-0.0305804051 0.0000000000 0.0349399482
-0.0438864060 0.0000000000 0.0327101030
-0.0438964120 0.0000000000 0.0274223676
-0.0385037387 0.0000000000 0.0273841755
-0.0526742220 0.0000000000 0.0279907923
-0.0483494598 0.0000000000 0.0321315697
-0.0401966638 0.0000000000 0.0357081581
-0.0501918014 0.0000000000 0.0316796880
-0.0461113970 0.0000000000 0.0332799215
-0.0492126077 0.0000000000 0.0316640201
-0.0940274055 0.0000000000 0.0266725872
-0.0998233187 0.0000000000 0.0269154733
-0.0822221951 0.0000000000 0.0028133729
-0.0542877388 0.0000000000 0.0063119597
-0.0646822130 0.0000000000 0.0114450059
-0.0682721857 0.0000000000 0.0011757943
-0.0625671715 0.0000000000 0.0118599918
-0.0709257269 0.0000000000 0.0140623085
-0.0627170586 0.0000000000 0.0101414309
-0.0678222530 0.0000000000 0.0127520212
-0.0559035883 0.0000000000 0.0013006062
-0.0805780972 0.0000000000 0.0000610416
-0.0661111802 0.0000000000 0.0159070117
-0.0663034569 0.0000000000 0.0052725619
-0.0590033176 0.0000000000 0.0110511631
-0.0695144811 0.0000000000 0.0055202701
-0.0430409708 0.0000000000 0.0034817202
-0.0485995193 0.0000000000 0.0067622682
-0.0593627661 0.0000000000 0.0044421934
-0.0682248752 0.0000000000 0.0166158033
-0.0517436631 0.0000000000 0.0093233962
-0.0547710696 0.0000000000 0.0130508723
-0.0558191067 0.0000000000 0.0102870292
-0.0535377120 0.0000000000 0.0089054334
-0.0437260537 0.0000000000 0.0023998268
-0.0671975191 0.0000000000 0.0072515872
-0.0577832724 0.0000000000 0.0059328195
-0.0635822021 0.0000000000 0.0059927363
-0.0715283728 0.0000000000 0.0023594433
-0.0735791540 0.0000000000 0.0108971454
-0.0770890481 0.0000000000 0.0064699484
-0.0699203328 0.0000000000 0.0090074262
-0.0515602189 0.0000000000 0.0014928550
-0.0574063070 0.0000000000 0.0065073979
-0.0674861144 0.0000000000 0.0043452820
-0.0737857790 0.0000000000 0.0053920205
-0.0614155917 0.0000000000 0.0107343404
-0.0432217779 0.0000000000 0.0024644461
-0.0625366158 0.0000000000 0.0067542641
-0.0677304798 0.0000000000 0.0119412844
-0.0539173205 0.0000000000 -0.0026062389
-0.0451828292 0.0000000000 -0.0093216050
-0.0582850832 0.0000000000 -0.0000369848
-0.0485974787 0.0000000000 -0.0105721180
-0.0814481724 0.0000000000 -0.0014730123
-0.0466321971 0.0000000000 -0.0050337241
-0.0638427780 0.0000000000 -0.0087327099
-0.0587576402 0.0000000000 -0.0047256687
-0.0475288140 0.0000000000 -0.0149347905
-0.0539939908 0.0000000000 -0.0128666157
-0.0487561965 0.0000000000 -0.0070020544
-0.0487348933 0.0000000000 -0.0057522546
-0.0468296441 0.0000000000 -0.0111432052
-0.0423334231 0.0000000000 -0.0076945413
-0.0757398268 0.0000000000 -0.0040219190
-0.0534452472 0.0000000000 -0.0132284727
-0.0463977594 0.0000000000 -0.0046076915
-0.0496198967 0.0000000000 -0.0151465391
-0.0690339046 0.0000000000 -0.0019327404
-0.0713973178 0.0000000000 -0.0046200043
-0.0779216768 0.0000000000 -0.0004259917
-0.0608944667 0.0000000000 -0.0093721230
-0.0649702380 0.0000000000 -0.0038677496
-0.0580972909 0.0000000000 -0.0070106382
-0.0394634598 0.0000000000 -0.0191868156
-0.0740837541 0.0000000000 -0.0028792611
-0.0405584916 0.0000000000 -0.0155422637
-0.0632658679 0.0000000000 -0.0074150800
-0.0644431239 0.0000000000 -0.0082359552
-0.0803950621 0.0000000000 -0.0001797171
-0.0479399194 0.0000000000 -0.0063422072
-0.0702587963 0.0000000000 -0.0064502939
-0.0404400099 0.0000000000 -0.0054102006
-0.0525802440 0.0000000000 -0.0069551077
-0.0514024210 0.0000000000 -0.0145348029
-0.0700048992 0.0000000000 -0.0002641957
-0.0522239012 0.0000000000 -0.0067169099
-0.0376899000 0.0000000000 -0.0109393600
-0.0352036275 0.0000000000 -0.0145723441
-0.0357537017 0.0000000000 -0.0084824449
-0.0374439871 0.0000000000 -0.0181193398
-0.0333166693 0.0000000000 -0.0054746728
-0.0320997881 0.0000000000 -0.0028735746
-0.0363102339 0.0000000000 -0.0096230633
-0.0314990950 0.0000000000 -0.0039832344
-0.0326429646 0.0000000000 -0.0137524224
-0.0307464395 0.0000000000 -0.0093294276
-0.0704192873 0.0000000000 0.0237870948
-0.0695372412 0.0000000000 0.0232571761
-0.0792568042 0.0000000000 0.0081080256
-0.0673096188 0.0000000000 0.0225540149
-0.0840752648 0.0000000000 0.0016713526
-0.0846936199 0.0000000000 0.0027342556
-0.0831459988 0.0000000000 0.0116993006
-0.0802677450 0.0000000000 0.0084419335
-0.0745856957 0.0000000000 0.0172866485
-0.0749480853 0.0000000000 0.0183520984
-0.0831366378 0.0000000000 0.0237398425
-0.0813942277 0.0000000000 0.0189928013
-0.0792986283 0.0000000000 0.0193297209
-0.0844377794 0.0000000000 0.0187776656
-0.0830300360 0.0000000000 0.0035925536
-0.0817516279 0.0000000000 0.0138583802
-0.0763495894 0.0000000000 0.0185584994
-0.0819753398 0.0000000000 0.0210283028
-0.0751064987 0.0000000000 0.0207881393
-0.0737076331 0.0000000000 0.0129193655
-0.0623281287 0.0000000000 0.0202746192
-0.0388837193 0.0000000000 0.0104292802
-0.0487073173 0.0000000000 0.0173664883
-0.0534753048 0.0000000000 0.0179494894
-0.0546841888 0.0000000000 0.0164395735
-0.0436005608 0.0000000000 0.0102672959
-0.0391511776 0.0000000000 0.0073754986
-0.0504750112 0.0000000000 0.0140581904
-0.0429800115 0.0000000000 0.0179087690
-0.0464810918 0.0000000000 0.0179970387
-0.0413089972 0.0000000000 0.0096022449
-0.0479952555 0.0000000000 0.0228528414
-0.0408860357 0.0000000000 0.0134782827
-0.0518359372 0.0000000000 0.0207838915
-0.0390110672 0.0000000000 0.0153401285
-0.0592914673 0.0000000000 0.0186470014
-0.0533062639 0.0000000000 0.0144022404
-0.0488616957 0.0000000000 0.0228055608
-0.0511905171 0.0000000000 0.0181496482
-0.0470350524 0.0000000000 0.0188328134
-0.0402332191 0.0000000000 0.0208776050
-0.0396780009 0.0000000000 0.0150763192
-0.0400335940 0.0000000000 0.0059390816
-0.0437060699 0.0000000000 0.0110462743
-0.0437357885 0.0000000000 0.0205786776
-0.0599324426 0.0000000000 0.0229709940
-0.0585975093 0.0000000000 0.0242238089
-0.0722511084 0.0000000000 0.0249822338
-0.0842351136 0.0000000000 0.0249052271
-0.0511226166 0.0000000000 0.0245990727
-0.0842454218 0.0000000000 0.0264739846
-0.0612485827 0.0000000000 0.0239849689
-0.0956734696 0.0000000000 0.0250978783
-0.0884426839 0.0000000000 0.0250486859
-0.0992955242 0.0000000000 0.0240041413
-0.0692720597 0.0000000000 -0.0245160160
-0.0480990074 0.0000000000 -0.0261310903
-0.0751150939 0.0000000000 -0.0256193699
-0.0809437979 0.0000000000 -0.0272031992
-0.0524391246 0.0000000000 -0.0263719514
-0.0582994193 0.0000000000 -0.0259834581
-0.0621186589 0.0000000000 -0.0273364056
-0.0450481964 0.0000000000 -0.0311317741
-0.0455418617 0.0000000000 -0.0320464450
-0.0542183270 0.0000000000 -0.0282885946
-0.0545873199 0.0000000000 -0.0285950375
-0.0455046987 0.0000000000 -0.0309569982
-0.0467275441 0.0000000000 -0.0346474923
-0.0522229987 0.0000000000 -0.0282119792
-0.0550435903 0.0000000000 -0.0282873782
-0.0474831210 0.0000000000 -0.0280030848
-0.0481827737 0.0000000000 -0.0343687953
-0.0483084911 0.0000000000 -0.0213301398
-0.0794917658 0.0000000000 -0.0249630189
-0.0771774621 0.0000000000 -0.0248145407
-0.0820148094 0.0000000000 -0.0213471617
-0.0822871666 0.0000000000 -0.0221695869
-0.0692048342 0.0000000000 -0.0224457908
-0.0719040665 0.0000000000 -0.0247092971
-0.0475916033 0.0000000000 -0.0229574040
-0.0400127266 0.0000000000 -0.0226686965
-0.0493356145 0.0000000000 -0.0234600528
-0.0519446852 0.0000000000 -0.0231735134
-0.0412207579 0.0000000000 -0.0214170775
-0.0411964866 0.0000000000 -0.0250471564
-0.0427157796 0.0000000000 -0.0213512727
-0.0617428286 0.0000000000 -0.0220917465
-0.0547000998 0.0000000000 -0.0163947821
-0.0608822254 0.0000000000 -0.0145705114
-0.0769928443 0.0000000000 -0.0192098364
-0.0703224704 0.0000000000 -0.0125518855
-0.0615568431 0.0000000000 -0.0189415491
-0.0753871285 0.0000000000 -0.0082703674
-0.0660402387 0.0000000000 -0.0121220691
-0.0738751950 0.0000000000 -0.0079984738
-0.0591254694 0.0000000000 -0.0134929110
-0.0621443987 0.0000000000 -0.0178305380
-0.0843105893 0.0000000000 -0.0201159051
-0.0583690863 0.0000000000 -0.0162931492
-0.0666929867 0.0000000000 -0.0179463819
-0.0767332989 0.0000000000 -0.0094055342
-0.0839673347 0.0000000000 -0.0028972915
-0.0847648723 0.0000000000 -0.0134369453
-0.0479195617 0.0000000000 -0.0196169163
-0.0709932101 0.0000000000 -0.0185168207
-0.0516224071 0.0000000000 -0.0182920230
-0.0832193501 0.0000000000 -0.0055422268
-0.0641113768 0.0000000000 -0.0106229664
-0.0770920096 0.0000000000 -0.0129209569
-0.0620630545 0.0000000000 -0.0148355045
-0.0586441839 0.0000000000 -0.0141785019
-0.0833226742 0.0000000000 -0.0076262294
-0.0778624628 0.0000000000 -0.0181233135
-0.0784968482 0.0000000000 -0.0120082528
-0.0518065135 0.0000000000 -0.0186674748
-0.0779848767 0.0000000000 -0.0106673983
-0.0638961763 0.0000000000 -0.0095408461
-0.0734647926 0.0000000000 -0.0059865705
-0.0730209669 0.0000000000 -0.0121713904
-0.0485535377 0.0000000000 -0.0205788191
-0.0746934850 0.0000000000 -0.0089885054
-0.0611060805 0.0000000000 -0.0110390735
-0.0783071188 0.0000000000 -0.0167563894
-0.0755792786 0.0000000000 -0.0153269590
-0.0944856367 0.0000000000 -0.0179950150
-0.0890630477 0.0000000000 -0.0183408754
-0.1034016861 0.0000000000 -0.0203867961
-0.0888559290 0.0000000000 -0.0085567631
-0.0910849248 0.0000000000 -0.0195963270
-0.0918021275 0.0000000000 -0.0103953454
-0.0944747758 0.0000000000 -0.0208563496
-0.0895820189 0.0000000000 -0.0132119449
-0.0970186193 0.0000000000 -0.0188099906
-0.0954885572 0.0000000000 -0.0119232974
-0.0976481705 0.0000000000 -0.0199258100
-0.0874915046 0.0000000000 -0.0139973307
-0.0967360214 0.0000000000 -0.0172098823
-0.0922883546 0.0000000000 -0.0163951621
-0.0900487191 0.0000000000 -0.0072513866
-0.1018828394 0.0000000000 -0.0021596881
-0.0939943249 0.0000000000 -0.0002706514
-0.0986982129 0.0000000000 -0.0137275018
-0.0978500147 0.0000000000 -0.0010886601
-0.0992744117 0.0000000000 -0.0003651337
-0.0991557009 0.0000000000 -0.0089063700
-0.1044510852 0.0000000000 -0.0099990332
-0.0914725573 0.0000000000 -0.0009934424
-0.1047065574 0.0000000000 -0.0091047193
-0.0868094007 0.0000000000 -0.0017944206
-0.1040651985 0.0000000000 -0.0072893627
-0.1027873388 0.0000000000 -0.0112897965
-0.1021966002 0.0000000000 -0.0094670553
-0.0988369086 0.0000000000 -0.0079452089
-0.0883572567 0.0000000000 -0.0035497511
-0.1063984300 0.0000000000 -0.0059246708
-0.0944541094 0.0000000000 -0.0089379178
-0.0892956317 0.0000000000 -0.0022165507
-0.1036751127 0.0000000000 -0.0016521222
-0.1054493688 0.0000000000 -0.0128368305
-0.1048254145 0.0000000000 -0.0202582633
-0.1063198404 0.0000000000 -0.0158647035
-0.0067625207 -0.0030000000 0.0371769392
-0.0107614190 -0.0030000000 0.0377339114
-0.0331477933 -0.0030000000 0.0390715190
-0.0041796846 -0.0030000000 0.0396206722
-0.0050930547 -0.0030000000 0.0394252903
-0.0376498643 -0.0030000000 0.0399965420
-0.0168786168 -0.0030000000 0.0381835749
-0.0154567104 -0.0030000000 -0.0369100214
-0.0250240062 -0.0030000000 -0.0381743657
-0.0167354953 -0.0030000000 -0.0398772300
-0.0352059828 -0.0030000000 -0.0397763523
-0.0177345741 -0.0030000000 -0.0377556002
-0.0271869064 -0.0030000000 -0.0382594237
-0.0309287378 -0.0030000000 -0.0393097801
-0.0042452061 -0.0030000000 -0.0381713948
-0.0010553648 -0.0030000000 -0.0389950452
-0.0149025857 -0.0030000000 0.0346030947
-0.0248869510 -0.0030000000 0.0357866243
-0.0278122277 -0.0030000000 0.0371101184
-0.0297690436 -0.0030000000 0.0373100549
-0.0220988492 -0.0030000000 0.0372971106
-0.0550315705 -0.0030000000 0.0319197347
-0.0996011578 -0.0030000000 0.0232057997
-0.0640694165 -0.0030000000 0.0131884855
-0.0645064119 -0.0030000000 -0.0069491166
-0.0623569603 -0.0030000000 -0.0125774420
-0.0631096712 -0.0030000000 -0.0040617365
-0.0585109630 -0.0030000000 0.0216280459
-0.0574688505 -0.0030000000 0.0151469755
-0.0633845138 -0.0030000000 -0.0141592817
-0.0538910731 -0.0030000000 0.0187705171
-0.0638422529 -0.0030000000 -0.0111735698
-0.0638957697 -0.0030000000 -0.0177567772
-0.0575085653 -0.0030000000 0.0272831375
-0.0615816561 -0.0030000000 0.0155674687
-0.0560129312 -0.0030000000 0.0143549923
-0.0615028070 -0.0030000000 -0.0049124532
-0.0587525132 -0.0030000000 0.0139575918
-0.0557466315 -0.0030000000 0.0310745614
-0.0520443973 -0.0030000000 0.0309887428
-0.0543584292 -0.0030000000 0.0305765080
-0.0627270414 -0.0030000000 0.0053341015
-0.0497393293 -0.0030000000 0.0365533313
-0.0634853506 -0.0030000000 0.0130912460
-0.0590982101 -0.0030000000 0.0159512410
-0.0507423348 -0.0030000000 0.0348951353
-0.0619006376 -0.0030000000 0.0149370267
-0.0570415496 -0.0030000000 0.0254269749
-0.0580186361 -0.0030000000 0.0265182756
-0.0511808926 -0.0030000000 0.0316166400
-0.0548387696 -0.0030000000 0.0139371451
-0.0587751617 -0.0030000000 -0.0017336623
-0.0622624797 -0.0030000000 -0.0196640949
-0.0560195374 -0.0030000000 -0.0001177195
-0.0612053794 -0.0030000000 -0.0126261485
-0.0624529559 -0.0030000000 -0.0230393382
-0.0544063341 -0.0030000000 0.0111279821
-0.0611928788 -0.0030000000 -0.0251340941
-0.0552406833 -0.0030000000 0.0087958542
-0.0516035655 -0.0030000000 0.0225075517
-0.0614213502 -0.0030000000 -0.0175644028
-0.0556552453 -0.0030000000 -0.0001602424
-0.0598481460 -0.0030000000 -0.0135536195
-0.0527357289 -0.0030000000 0.0128802001
-0.0591870415 -0.0030000000 -0.0080168273
-0.0761853152 -0.0030000000 0.0223636323
-0.1041271182 -0.0030000000 0.0254899069
-0.0706950795 -0.0030000000 0.0267965379
-0.0955200057 -0.0030000000 0.0258873600
-0.1035342282 -0.0030000000 0.0262924527
-0.1016622080 -0.0030000000 0.0262003447
-0.0762961237 -0.0030000000 0.0268401649
-0.0870533767 -0.0030000000 0.0254295593
-0.0953340336 -0.0030000000 0.0244413265
-0.0946678991 -0.0030000000 0.0232367147
-0.0608974716 -0.0030000000 0.0270356708
-0.1008200287 -0.0030000000 0.0233378291
-0.0669766738 -0.0030000000 0.0240093234
-0.0727561324 -0.0030000000 0.0245907607
-0.0965473684 -0.0030000000 0.0234115843
-0.0662224094 -0.0030000000 0.0264352118
-0.1048126249 -0.0030000000 -0.0040715046
-0.0884533544 -0.0030000000 -0.0218376426
-0.0954735339 -0.0030000000 -0.0223363167
-0.0682360976 -0.0030000000 -0.0229887752
-0.0951287341 -0.0030000000 -0.0230095431
-0.0746327771 -0.0030000000 -0.0234512702
-0.0644224872 -0.0030000000 0.0036598953
-0.0648688810 -0.0030000000 0.0192034989
-0.0654888712 -0.0030000000 -0.0154555917
-0.0657595065 -0.0030000000 -0.0179337395
-0.0225737716 -0.0030000000 -0.0362306965
-0.0320228342 -0.0030000000 -0.0378027400
-0.0170126069 -0.0030000000 -0.0350733034
-0.0204084397 -0.0030000000 -0.0344926145
-0.0219534613 -0.0030000000 -0.0346392516
-0.0348084694 -0.0030000000 -0.0363477774
-0.0183748843 -0.0030000000 -0.0313617353
-0.0214722151 -0.0030000000 -0.0307435522
-0.0291937386 -0.0030000000 -0.0341125371
-0.0197778810 -0.0030000000 -0.0292459557
-0.0205492969 -0.0030000000 -0.0317619639
-0.0415473034 -0.0030000000 -0.0375300756
-0.0442563442 -0.0030000000 -0.0392033873
-0.0178515687 -0.0030000000 -0.0329794924
-0.0645133184 -0.0030000000 -0.0268667680
-0.0648002037 -0.0030000000 -0.0244606828
-0.0928516285 -0.0030000000 -0.0233819657
-0.0810993244 -0.0030000000 -0.0245345551
-0.0920533626 -0.0030000000 -0.0243885049
-0.0891819868 -0.0030000000 -0.0247304450
-0.1015177837 -0.0030000000 -0.0242429140
-0.0997454207 -0.0030000000 -0.0252093130
-0.0774810936 -0.0030000000 -0.0270974893
-0.0950359671 -0.0030000000 -0.0247453781
-0.0888536057 -0.0030000000 -0.0264994505
-0.0878217239 -0.0030000000 -0.0267052979
-0.0917323845 -0.0030000000 -0.0266305888
-0.0712954883 -0.0030000000 0.0050555785
-0.0722595978 -0.0030000000 -0.0043794822
-0.0743361347 -0.0030000000 0.0104529468
-0.0666280145 -0.0030000000 -0.0023638131
-0.0829287392 -0.0030000000 0.0002132553
-0.0937960004 -0.0030000000 -0.0110097563
-0.0715670397 -0.0030000000 -0.0202175733
-0.0921332528 -0.0030000000 -0.0108885395
-0.0684203189 -0.0030000000 -0.0028573085
-0.0824950606 -0.0030000000 -0.0216633227
-0.0925276576 -0.0030000000 -0.0216461967
-0.0943610868 -0.0030000000 -0.0193080038
-0.0728516460 -0.0030000000 0.0042220446
-0.0850452153 -0.0030000000 -0.0194379404
-0.0886939598 -0.0030000000 -0.0067703855
-0.0688960964 -0.0030000000 -0.0118881160
-0.0757254554 -0.0030000000 -0.0149176754
-0.0723459466 -0.0030000000 -0.0123699222
-0.0718179583 -0.0030000000 0.0029038775
-0.0704794476 -0.0030000000 -0.0067856976
-0.0857072656 -0.0030000000 -0.0039985986
-0.0685064884 -0.0030000000 -0.0097018261
-0.0789796187 -0.0030000000 0.0043553886
-0.0761844773 -0.0030000000 -0.0082967392
-0.0736038337 -0.0030000000 -0.0039219093
-0.0856817048 -0.0030000000 -0.0182968654
-0.0657521239 -0.0030000000 0.0134337388
-0.0961519673 -0.0030000000 -0.0142863887
-0.0739635362 -0.0030000000 0.0095913939
-0.0964795243 -0.0030000000 -0.0209016578
-0.0759753303 -0.0030000000 -0.0179340630
-0.0752482569 -0.0030000000 -0.0114248696
-0.0781313941 -0.0030000000 -0.0142128321
-0.0665494205 -0.0030000000 0.0123669352
-0.0836868806 -0.0030000000 -0.0103881529
-0.0732464726 -0.0030000000 0.0018180407
-0.0683606797 -0.0030000000 -0.0047094858
-0.0918221066 -0.0030000000 -0.0139618645
-0.0805284390 -0.0030000000 -0.0068439717
-0.0671920534 -0.0030000000 0.0020820755
-0.0983280255 -0.0030000000 -0.0161561931
-0.0730287002 -0.0030000000 -0.0105974928
-0.0824462352 -0.0030000000 -0.0062129972
-0.0718115021 -0.0030000000 -0.0072365137
-0.0706904954 -0.0030000000 0.0102164714
-0.0714333448 -0.0030000000 -0.0158529830
-0.0697935984 -0.0030000000 -0.0062807597
-0.0792580001 -0.0030000000 -0.0061287199
-0.0837667472 -0.0030000000 -0.0011621366
-0.0660661673 -0.0030000000 -0.0032799119
-0.0704722671 -0.0030000000 -0.0145949095
-0.0832558405 -0.0030000000 -0.0108307206
-0.0827860794 -0.0030000000 -0.0116776241
-0.0660688263 -0.0030000000 -0.0207372778
-0.0863446956 -0.0030000000 -0.0068529922
-0.0778439583 -0.0030000000 0.0014861873
-0.0792873976 -0.0030000000 -0.0040654551
-0.0683722323 -0.0030000000 0.0112803703
-0.0764751852 -0.0030000000 -0.0190652936
-0.0778209419 -0.0030000000 -0.0213234007
-0.0822495688 -0.0030000000 -0.0044684885
-0.0677731055 -0.0030000000 0.0188665844
-0.0972444058 -0.0030000000 -0.0135923413
-0.0894585980 -0.0030000000 -0.0050036739
-0.0714909867 -0.0030000000 0.0153247090
-0.0959767984 -0.0030000000 -0.0110965154
-0.1023181116 -0.0030000000 -0.0180280148
-0.1025488504 -0.0030000000 -0.0158696377
-0.0738026701 -0.0030000000 0.0201664985
-0.1004715728 -0.0030000000 -0.0123753300
-0.0924605922 -0.0030000000 0.0074083137
-0.0961706262 -0.0030000000 0.0087445326
-0.0912508765 -0.0030000000 0.0108355787
-0.0891345305 -0.0030000000 0.0143066463
-0.1028455595 -0.0030000000 -0.0101114968
-0.1021793423 -0.0030000000 0.0022953697
-0.0966560201 -0.0030000000 0.0137622654
-0.0865005311 -0.0030000000 0.0030669117
-0.0837413070 -0.0030000000 0.0137952475
-0.1002626688 -0.0030000000 0.0075053102
-0.1036138225 -0.0030000000 -0.0144336242
-0.0857474689 -0.0030000000 0.0205281259
-0.0958372400 -0.0030000000 -0.0045639067
-0.0917468821 -0.0030000000 -0.0043604109
-0.0779079211 -0.0030000000 0.0212822826
-0.0997624227 -0.0030000000 0.0014383503
-0.1003919718 -0.0030000000 0.0105878629
-0.0690811819 -0.0030000000 0.0219220478
-0.1035916567 -0.0030000000 -0.0044970931
-0.0878813170 -0.0030000000 -0.0012244725
-0.0714485212 -0.0030000000 0.0188189048
-0.0946573861 -0.0030000000 0.0215169630
-0.0817961204 -0.0030000000 0.0063283041
-0.0901086698 -0.0030000000 0.0154842475
-0.0989666121 -0.0030000000 -0.0041044156
-0.1020514758 -0.0030000000 0.0142585043
-0.0916075635 -0.0030000000 0.0082598003
-0.0766694571 -0.0030000000 0.0200187548
-0.1028405240 -0.0030000000 0.0013492926
-0.0988143321 -0.0030000000 0.0055347194
-0.0870579415 -0.0030000000 0.0041156137
-0.0938863739 -0.0030000000 0.0030467876
-0.0995015265 -0.0030000000 -0.0005408316
-0.0999994125 -0.0030000000 -0.0090970628
-0.0843924017 -0.0030000000 0.0117322653
-0.1008248342 -0.0030000000 -0.0118123443
-0.1031633572 -0.0030000000 -0.0099595523
-0.0767145353 -0.0030000000 0.0209394363
-0.0960157232 -0.0030000000 -0.0072236861
-0.0878894678 -0.0030000000 -0.0019290366
-0.0960562668 -0.0030000000 0.0199489099
-0.0968251087 -0.0030000000 0.0028627497
-0.0955405910 -0.0030000000 0.0217210523
-0.0909432377 -0.0030000000 0.0164475269
-0.0945991943 -0.0030000000 0.0053391779
-0.0901247262 -0.0030000000 -0.0039266217
-0.0842150452 -0.0030000000 0.0059674511
-0.0967882629 -0.0030000000 -0.0040653555
-0.0917673984 -0.0030000000 -0.0028547047
-0.0884210425 -0.0030000000 0.0117563104
-0.0866638743 -0.0030000000 0.0155935983
-0.0965802244 -0.0030000000 0.0030327327
-0.1033072985 -0.0030000000 0.0092408622
-0.0981677071 -0.0030000000 0.0006017954
-0.1006658902 -0.0030000000 0.0221791077
-0.0989347486 -0.0030000000 0.0008230109
-0.0984251519 -0.0030000000 0.0059892861
-0.1040767497 -0.0030000000 -0.0055183939
-0.1054677249 -0.0030000000 0.0094026318
-0.0191367062 -0.0030000000 -0.0260765313
-0.0343983509 -0.0030000000 -0.0342303691
-0.0153732562 -0.0030000000 -0.0249266201
-0.0389992671 -0.0030000000 -0.0357703255
-0.0292912660 -0.0030000000 -0.0257558093
-0.0254811625 -0.0030000000 -0.0249972655
-0.0197103148 -0.0030000000 -0.0249018774
-0.0345670537 -0.0030000000 -0.0321484095
-0.0275176831 -0.0030000000 -0.0286102672
-0.0222519400 -0.0030000000 -0.0219735120
-0.0211197106 -0.0030000000 -0.0251535539
-0.0263161241 -0.0030000000 -0.0279444845
-0.0524444315 -0.0030000000 -0.0331196893
-0.0507837925 -0.0030000000 -0.0273906348
-0.0384828513 -0.0030000000 -0.0249700101
-0.0504023179 -0.0030000000 -0.0361489698
-0.0508112646 -0.0030000000 -0.0280877831
-0.0525782655 -0.0030000000 -0.0276060157
-0.0536786905 -0.0030000000 -0.0319443177
-0.0354082149 -0.0030000000 -0.0270848278
-0.0466478396 -0.0030000000 -0.0289654161
-0.0351553805 -0.0030000000 -0.0288488163
-0.0426377826 -0.0030000000 -0.0287484178
-0.0271549262 -0.0030000000 -0.0224262120
-0.0309121587 -0.0030000000 -0.0241176087
-0.0369362369 -0.0030000000 -0.0252876102
-0.0397762799 -0.0030000000 -0.0244633469
-0.0491288640 -0.0030000000 -0.0330277140
-0.0459310420 -0.0030000000 -0.0247002166
-0.0408670831 -0.0030000000 -0.0330554760
-0.0432755748 -0.0030000000 -0.0297868451
-0.0464458396 -0.0030000000 -0.0376305454
-0.0411672585 -0.0030000000 -0.0282390506
-0.0535248531 -0.0030000000 -0.0328617238
-0.0309128229 -0.0030000000 -0.0177408825
-0.0333287497 -0.0030000000 -0.0203977103
-0.0371677647 -0.0030000000 -0.0217508437
-0.0338154998 -0.0030000000 -0.0184147024
-0.0529173940 -0.0030000000 -0.0251675768
-0.0272063893 -0.0030000000 -0.0186192902
-0.0280368091 -0.0030000000 -0.0188716965
-0.0388786680 -0.0030000000 -0.0223051459
-0.0287881086 -0.0030000000 -0.0157005222
-0.0433053089 -0.0030000000 -0.0203271651
-0.0336252041 -0.0030000000 -0.0155280286
-0.0318806829 -0.0030000000 -0.0162690862
-0.0403204439 -0.0030000000 -0.0181633033
-0.0329990971 -0.0030000000 -0.0160644676
-0.0422304083 -0.0030000000 -0.0207250877
-0.0284203907 -0.0030000000 -0.0155681675
-0.0317039748 -0.0030000000 -0.0080438269
-0.0501179684 -0.0030000000 -0.0217579453
-0.0402380932 -0.0030000000 -0.0144112927
-0.0299153450 -0.0030000000 -0.0054742685
-0.0491951945 -0.0030000000 -0.0200586683
-0.0325770447 -0.0030000000 -0.0069574232
-0.0367669898 -0.0030000000 -0.0115133597
-0.0296851729 -0.0030000000 -0.0063161638
-0.0323000556 -0.0030000000 -0.0057210063
-0.0474099825 -0.0030000000 -0.0159062161
-0.0451404119 -0.0030000000 -0.0133819954
-0.0358317736 -0.0030000000 -0.0049788039
-0.0451935122 -0.0030000000 -0.0137079675
-0.0315095996 -0.0030000000 -0.0021221954
-0.0548422233 -0.0030000000 -0.0231185116
-0.0495011640 -0.0030000000 0.0226382936
-0.0458487497 -0.0030000000 -0.0125072909
-0.0437383757 -0.0030000000 0.0115105369
-0.0514779695 -0.0030000000 0.0144413494
-0.0561060638 -0.0030000000 -0.0084279298
-0.0560526359 -0.0030000000 -0.0180620998
-0.0380782665 -0.0030000000 0.0187897656
-0.0556555677 -0.0030000000 -0.0054719561
-0.0492879285 -0.0030000000 0.0132794714
-0.0405268533 -0.0030000000 0.0100908529
-0.0412695984 -0.0030000000 0.0268405876
-0.0332334573 -0.0030000000 -0.0002305371
-0.0494456071 -0.0030000000 0.0236019240
-0.0469689821 -0.0030000000 -0.0079280769
-0.0475334971 -0.0030000000 0.0328751694
-0.0486967267 -0.0030000000 0.0063263309
-0.0318826431 -0.0030000000 0.0050802590
-0.0484469279 -0.0030000000 0.0138620838
-0.0368089360 -0.0030000000 0.0008530072
-0.0417990164 -0.0030000000 0.0220039602
-0.0405679773 -0.0030000000 0.0239606393
-0.0485057333 -0.0030000000 0.0330007331
-0.0404861708 -0.0030000000 0.0157129682
-0.0443026380 -0.0030000000 0.0121781100
-0.0546694017 -0.0030000000 -0.0175425434
-0.0413238944 -0.0030000000 -0.0045457214
-0.0536852892 -0.0030000000 -0.0212591538
-0.0440909735 -0.0030000000 -0.0039069458
-0.0496267603 -0.0030000000 0.0207081818
-0.0554477456 -0.0030000000 -0.0182872096
-0.0358240544 -0.0030000000 -0.0000093269
-0.0410124603 -0.0030000000 0.0070585521
-0.0367840622 -0.0030000000 0.0072166176
-0.0497520753 -0.0030000000 -0.0153800733
-0.0454598638 -0.0030000000 0.0085912991
-0.0502327951 -0.0030000000 -0.0036948651
-0.0375494039 -0.0030000000 0.0061923929
-0.0584219359 -0.0030000000 -0.0213242135
-0.0378528653 -0.0030000000 0.0133683123
-0.0447617294 -0.0030000000 0.0316802798
-0.0487343514 -0.0030000000 0.0021584523
-0.0415783627 -0.0030000000 -0.0053445495
-0.0500983740 -0.0030000000 0.0121396625
-0.0456744959 -0.0030000000 0.0108496469
-0.0432757804 -0.0030000000 -0.0052855699
-0.0442480017 -0.0030000000 0.0109524860
-0.0297030235 -0.0030000000 0.0026924047
-0.0468423599 -0.0030000000 0.0338724529
-0.0451335852 -0.0030000000 -0.0116950127
-0.0341971021 -0.0030000000 0.0063850253
-0.0456975849 -0.0030000000 0.0022892480
-0.0467737911 -0.0030000000 -0.0011052771
-0.0480840372 -0.0030000000 0.0003658134
-0.0559727321 -0.0030000000 -0.0170220306
-0.0549402442 -0.0030000000 -0.0014480826
-0.0350826549 -0.0030000000 -0.0027329044
-0.0548359570 -0.0030000000 -0.0194942180
-0.0342707691 -0.0030000000 0.0021666695
-0.0430209654 -0.0030000000 0.0139342510
-0.0415993695 -0.0030000000 -0.0029962356
-0.0560931330 -0.0030000000 -0.0185510800
-0.0378472316 -0.0030000000 -0.0052028169
-0.0404278657 -0.0030000000 0.0076831764
-0.0443259257 -0.0030000000 0.0054559323
-0.0418649756 -0.0030000000 0.0136316342
-0.0359987872 -0.0030000000 0.0182201010
-0.0442253152 -0.0030000000 0.0338413923
-0.0325299839 -0.0030000000 0.0120555039
-0.0311546559 -0.0030000000 0.0141246722
-0.0375547492 -0.0030000000 0.0235988670
-0.0319776513 -0.0030000000 0.0119735081
-0.0301795103 -0.0030000000 0.0152160242
-0.0360606590 -0.0030000000 0.0242307753
-0.0336475377 -0.0030000000 0.0217873842
-0.0338601896 -0.0030000000 0.0237153677
-0.0298597492 -0.0030000000 0.0193335071
-0.0339751733 -0.0030000000 0.0245158423
-0.0291024460 -0.0030000000 0.0174109468
-0.0160359894 -0.0030000000 0.0247555701
-0.0242675499 -0.0030000000 0.0281200651
-0.0373367351 -0.0030000000 0.0358536789
-0.0287924589 -0.0030000000 0.0352057796
-0.0408085140 -0.0030000000 0.0383174506
-0.0146085161 -0.0030000000 0.0319776626
-0.0223848474 -0.0030000000 0.0341186751
-0.0267709721 -0.0030000000 0.0333555511
-0.0298877298 -0.0030000000 0.0339395699
-0.0305978381 -0.0030000000 0.0350322861
-0.0296010682 -0.0030000000 0.0335460506
-0.0263231384 -0.0030000000 0.0300813145
-0.0447869599 -0.0030000000 0.0393099176
-0.0195109268 -0.0030000000 0.0217182962
-0.0219392189 -0.0030000000 0.0203911034
-0.0351809953 -0.0030000000 0.0303197315
-0.0356841304 -0.0030000000 0.0322123217
-0.0256415618 -0.0030000000 0.0267975057
-0.0212159640 -0.0030000000 0.0229502767
-0.0225951746 -0.0030000000 0.0260204687
-0.0315582017 -0.0030000000 0.0270259038
-0.0264163323 -0.0030000000 0.0185464363
-0.0347594584 -0.0030000000 0.0285337607
-0.0265564958 -0.0030000000 0.0166871023
-0.0295283175 -0.0030000000 0.0221165892
-0.0260909771 -0.0030000000 0.0223532246
-0.0306855748 -0.0030000000 0.0242146798
-0.0287610857 -0.0030000000 0.0193598959
-0.1056264596 -0.0030000000 -0.0175475846
-0.1048678546 -0.0030000000 0.0047692764
-0.1047728177 -0.0030000000 0.0116323416
-0.1062886828 -0.0030000000 -0.0106562739
-0.1073086014 -0.0030000000 -0.0002019499
-0.1087018079 -0.0030000000 0.0239124567
-0.1072392201 -0.0030000000 -0.0075492970
-0.1066741662 -0.0030000000 0.0095324658
-0.1083448649 -0.0030000000 0.0115098376
-0.1068263473 -0.0030000000 -0.0063825752
-0.1075759629 -0.0030000000 -0.0109395444
-0.1073790180 -0.0030000000 -0.0141446536
-0.1088914899 -0.0030000000 -0.0173525508
-0.1094166713 -0.0030000000 -0.0075587681
-0.1099771319 -0.0030000000 0.0016877886
-0.1098525483 -0.0030000000 0.0069942592
-0.1088203881 -0.0030000000 -0.0043846844
-0.1083701839 -0.0030000000 0.0268246280
-0.0124452099 -0.0010960912 0.0261176295
-0.0009213338 -0.0014357868 0.0289031633
-0.0154096642 -0.0000940875 -0.0244171950
-0.0059061669 -0.0011896199 -0.0283823351
-0.0157347850 -0.0012489888 0.0242945253
-0.0205523423 -0.0009637106 0.0203041624
-0.0215558107 -0.0010018612 0.0193984405
-0.0254791133 -0.0023830780 0.0136815981
-0.0259537491 -0.0020953632 0.0126155485
-0.0285640897 -0.0027031698 0.0043347254
-0.0288411360 -0.0007745686 -0.0008925120
-0.0284955261 -0.0019439659 -0.0046572917
-0.0282110593 -0.0015664352 -0.0059956021
-0.0268014378 -0.0029569106 -0.0107116085
-0.0249987469 -0.0013330216 -0.0146596469
-0.0191627327 -0.0003764348 -0.0215553725
-0.0176051763 -0.0016959756 -0.0229578026
-0.0118180062 -0.0013195640 0.0336189471
-0.0119225264 -0.0007601509 -0.0333489419
-0.1065437676 -0.0028922278 0.0222901343
-0.1065700555 -0.0006824869 -0.0226117600
-0.0088050979 -0.0014312308 -0.0303499997
-0.0097805271 -0.0002903873 0.0346500017
-0.0044788993 -0.0026635589 -0.0364999995
-0.0037679025 -0.0023008329 0.0364999995
-0.0083467253 -0.0019565902 0.0364999995
-0.0139999995 -0.0018904993 -0.0318908083
-0.0002593825 -0.0013290765 0.0382593811
-0.0654380436 -0.0013034712 0.0236326253
-0.0660695215 -0.0023632186 -0.0218619915
-0.0480676235 -0.0011648195 0.0394323752
-0.0525517320 -0.0012002550 0.0349482680
-0.0551054602 -0.0014556832 0.0323945406
-0.0518417721 -0.0020944122 0.0356582277
-0.0985620814 -0.0002111604 0.0274999999
-0.1039097820 -0.0009557975 0.0274999999
-0.0972545367 -0.0015051324 0.0274999999
-0.0720484880 -0.0023084181 0.0274999999
-0.0839013700 -0.0011338891 0.0274999999
-0.0839201707 -0.0009430018 0.0274999999
-0.0824833747 -0.0023128787 0.0274999999
-0.0742324963 -0.0018106797 0.0274999999
-0.0710111920 -0.0003940858 0.0274999999
-0.0681999957 -0.0003909214 0.0274999999
-0.0627385990 -0.0004780272 0.0274999999
-0.0756399387 -0.0006035365 -0.0274999999
-0.0764704974 -0.0006587083 -0.0274999999
-0.0630691275 -0.0015075974 -0.0274999999
-0.0724913194 -0.0029548567 -0.0274999999
-0.0651012788 -0.0029704168 -0.0274999999
-0.0714824347 -0.0027281441 -0.0274999999
-0.0652226213 -0.0027346907 -0.0274999999
-0.0804089000 -0.0027929065 -0.0274999999
-0.1071118940 -0.0010320365 -0.0274999999
-0.1014781896 -0.0009329222 -0.0274999999
-0.1017990983 -0.0018967702 -0.0274999999
-0.0515870585 -0.0004393721 -0.0359129412
-0.0492759159 -0.0001727776 -0.0382240831
-0.0477883191 -0.0005057652 -0.0397116795
-0.0550712396 -0.0019000054 -0.0324287612
-0.1083297823 -0.0023334899 -0.0271702197
