-0.0011148960 0.0399592714 0.0007884871
0.0009156856 0.0397523059 0.0043434983
-0.0046505952 0.0395415764 0.0040144028
-0.0024019932 0.0394602349 -0.0035320857
0.0088955692 0.0390542102 -0.0015871968
0.0024872547 0.0394371939 -0.0038145133
-0.0047511677 0.0390743862 -0.0071704043
0.0050827187 0.0393428014 0.0015135374
0.0086246151 0.0390935269 0.0019940720
0.0070498625 0.0388359554 -0.0047292231
-0.0009583858 0.0390849605 0.0089320224
0.0025230024 0.0389888087 0.0074205993
0.0043238393 0.0389404583 0.0087487838
-0.0018829404 0.0387066461 0.0106150922
-0.0082651128 0.0378890539 0.0118171908
0.0085749092 0.0381800126 0.0100148428
0.0127722300 0.0381328347 -0.0024590045
0.0048271846 0.0381339390 -0.0119802736
0.0117041639 0.0382320916 0.0039785439
-0.0099914065 0.0385905979 0.0050187237
0.0099539861 0.0382933178 0.0077861345
-0.0005377213 0.0381472724 -0.0127238955
-0.0078719770 0.0373915509 -0.0130155217
-0.0113509954 0.0379518319 -0.0069709848
-0.0134927595 0.0378852050 -0.0008923954
0.0155334519 0.0371511028 -0.0042628177
0.0093124714 0.0380508005 -0.0094561023
0.0028746077 0.0378378720 -0.0136027731
0.0045369976 0.0372547642 0.0160294963
-0.0044145028 0.0371253758 0.0162844896
-0.0079010130 0.0374813304 0.0139351348
-0.0147432995 0.0375090984 -0.0009587494
0.0127646346 0.0375267005 0.0086825962
-0.0158320102 0.0368254170 0.0067212646
0.0092822317 0.0373456061 0.0138868416
-0.0105059687 0.0366624634 0.0156574776
-0.0055792433 0.0359883878 -0.0179340317
-0.0108371601 0.0356956007 -0.0161654198
-0.0166841327 0.0361580093 -0.0076249495
-0.0170880463 0.0366244200 -0.0019121475
0.0163378593 0.0368353163 -0.0045171654
0.0134519448 0.0360301744 -0.0131519616
0.0043335435 0.0369004281 -0.0161304734
0.0128481751 0.0369422814 0.0123209058
-0.0149090018 0.0359079091 0.0141288423
-0.0192381795 0.0357201297 0.0029808280
0.0177107157 0.0363882548 0.0016859114
-0.0182509930 0.0355748623 0.0084306328
0.0046070664 0.0360133668 0.0204483655
-0.0050450121 0.0355785520 0.0217994529
-0.0060293256 0.0356634637 0.0214223656
0.0088167835 0.0351435798 0.0223617799
0.0156970697 0.0349711055 0.0169334266
-0.0162140904 0.0353077436 0.0145518591
0.0194719526 0.0356003596 -0.0036531202
0.0175993742 0.0351457204 -0.0107000912
0.0122220080 0.0349936008 0.0209221366
0.0052392531 0.0350717719 -0.0199974793
-0.0015454361 0.0347507507 -0.0211919969
-0.0194180782 0.0355363905 0.0045091060
-0.0110189043 0.0346789976 -0.0182395200
-0.0175519730 0.0342717037 -0.0132437057
-0.0197809611 0.0352304582 -0.0045729471
-0.0197343218 0.0347976587 0.0087044022
0.0195479743 0.0344486759 0.0115204814
-0.0188263140 0.0344763899 0.0131613862
0.0058030311 0.0340362079 0.0266027619
-0.0072404419 0.0330117766 0.0294115340
0.0083411925 0.0324823793 0.0305660913
0.0048062811 0.0336887941 0.0279025627
0.0010152570 0.0339327030 0.0273794155
-0.0008016079 0.0338414552 0.0275920269
-0.0157140998 0.0336500255 0.0214198790
-0.0134090354 0.0330029882 0.0257471201
0.0116386217 0.0331740181 0.0266063016
0.0246603987 0.0322730467 -0.0022919522
0.0231649608 0.0323534489 -0.0085100104
0.0171328250 0.0335878329 -0.0155579050
0.0054333250 0.0333376879 -0.0227847335
-0.0037898874 0.0324596256 -0.0242342318
-0.0096606908 0.0326014256 -0.0223402449
-0.0187518667 0.0325380267 -0.0156204691
-0.0190161300 0.0321789105 -0.0160497713
0.0174390605 0.0336640177 0.0188261363
0.0240122734 0.0326906431 0.0040405091
0.0241379825 0.0327772189 -0.0010867512
-0.0185227732 0.0311812850 0.0235388859
-0.0147695145 0.0328777177 0.0248129943
0.0140802913 0.0321558235 0.0273646897
-0.0156392017 0.0314764734 0.0272528202
0.0168946956 0.0310759849 0.0264404571
-0.0209812748 0.0319162115 0.0168888727
-0.0027624657 0.0318566720 0.0342590319
0.0067890039 0.0320467385 0.0324307171
0.0221347320 0.0317879561 0.0144290298
0.0228694214 0.0312508562 -0.0118639623
-0.0224223816 0.0320850580 -0.0110814402
0.0049292164 0.0315935032 -0.0249384413
-0.0081940220 0.0301520405 0.0381981630
0.0048458045 0.0307461917 0.0380784146
0.0249411489 0.0319046323 0.0039362468
-0.0053782339 0.0315153659 -0.0248772176
-0.0155963470 0.0317834917 -0.0198545402
-0.0232369735 0.0313332383 -0.0108268072
-0.0255678000 0.0311647480 -0.0030969474
-0.0162826209 0.0300640950 0.0295576105
-0.0102245097 0.0294517779 0.0387946400
-0.0233635450 0.0302827254 0.0144323182
-0.0110285314 0.0300685236 0.0358271337
0.0011999609 0.0303575086 0.0408379361
0.0236212945 0.0290623013 0.0160523969
-0.0262293497 0.0298092111 0.0057175614
0.0093895859 0.0296671567 -0.0252207512
0.0177184036 0.0296612553 -0.0202714187
0.0255303700 0.0294246854 -0.0090057065
0.0184191113 0.0292321001 0.0277722338
-0.0021272410 0.0300958470 0.0421390774
0.0049536881 0.0295984955 0.0434977965
0.0268261746 0.0291553191 0.0047898577
0.0124509245 0.0290703213 0.0374849573
0.0262379794 0.0294362776 0.0069281510
-0.0060247078 0.0294021461 -0.0263752522
-0.0216016824 0.0292303185 -0.0165257860
-0.0237896657 0.0291897842 0.0153280069
-0.0098792881 0.0287869406 0.0421728612
0.0041486822 0.0291459370 0.0469314139
-0.0006179427 0.0289685487 0.0505801419
-0.0272528701 0.0289248871 -0.0022739675
-0.0005280484 0.0288577648 0.0516766129
0.0035152996 0.0287157199 0.0514314532
0.0217289887 0.0263632016 0.0235256205
0.0121473370 0.0280341288 0.0417781690
-0.0002480163 0.0288349628 0.0522561069
0.0084027798 0.0282934901 0.0471992269
-0.0032570973 0.0284714750 0.0559746290
-0.0057872665 0.0285022252 -0.0269041226
-0.0172535105 0.0275982911 -0.0218576957
-0.0247453010 0.0275857164 -0.0128941717
-0.0277261941 0.0277826061 0.0016523294
0.0031386219 0.0274438938 -0.0277695953
0.0174350854 0.0271156061 -0.0219881792
0.0231961600 0.0283430896 -0.0150682881
0.0276455972 0.0281296575 -0.0024555525
-0.0154157264 0.0279619814 0.0361291606
-0.0025609802 0.0284345272 0.0589700760
0.0022070774 0.0283730766 0.0793972793
0.0024071382 0.0283615441 0.0831951911
-0.0017991589 0.0283939313 0.0652933003
-0.0001123533 0.0283900198 0.0760064047
-0.0061670870 0.0281695425 0.0531316558
-0.0265361025 0.0266801703 0.0096558118
0.0039996169 0.0282420100 0.0609972508
0.0033243196 0.0281918359 0.1123807257
0.0013930712 0.0247693127 0.1149999946
-0.0044292303 0.0199297677 0.1149999946
-0.0012640414 0.0277144247 0.1149999946
-0.0020525594 0.0283208658 0.0914600506
0.0002626434 0.0283222572 0.0894637471
-0.0019584786 0.0283314700 0.0762460114
0.0003981619 0.0283130682 0.1026474975
-0.0017766897 0.0283197632 0.0930419599
0.0040819131 0.0281225796 0.0774142112
0.0040100541 0.0281394341 0.0779396617
-0.0040270165 0.0281349295 0.0689441196
-0.0040415675 0.0281315166 0.0695844090
0.0065881934 0.0275347356 0.0789436894
0.0059413857 0.0276864432 0.0792417414
0.0044521109 0.0280357505 0.0932931054
0.0078561080 0.0272373488 0.0893118831
0.0090515458 0.0269569616 0.1046001414
-0.0069419214 0.0274512422 0.0796383000
-0.0052114619 0.0278571196 0.1034993230
-0.0071325463 0.0274065321 0.0930485302
-0.0066407507 0.0275218824 0.1026061999
-0.0067157092 0.0275043003 0.0695093508
-0.0047128076 0.0279740781 0.0866354122
-0.0100118508 0.0272549544 0.0517919846
0.0096410070 0.0275880744 0.0501481720
-0.0119408703 0.0274616257 0.0449664134
0.0058915600 0.0275365948 0.1093411712
0.0009516615 0.0280931859 0.1105673054
-0.0045384532 0.0276888001 0.1071513532
-0.0088896176 0.0269154015 0.1121961836
-0.0054582969 0.0205426122 0.1149999946
0.0071472552 0.0275706091 0.0608947477
-0.0083870703 0.0275891290 0.0538020608
0.0260101468 0.0260281980 0.0118229757
0.0084391550 0.0271005992 0.0699945575
0.0085449372 0.0270757868 0.0828157361
-0.0082795030 0.0273212839 0.0607626080
-0.0134882258 0.0259261325 0.0507792532
0.0081807844 0.0268268153 0.1065058895
0.0062941256 0.0274869864 0.1092669736
-0.0104966390 0.0260156764 0.1068732212
-0.0077304835 0.0269835977 0.1105970974
-0.0237075418 0.0260015581 0.0180935620
0.0171165254 0.0266870445 0.0360468748
0.0154932596 0.0259163307 0.0435230519
0.0109854920 0.0261014998 0.1142235048
0.0083213702 0.0247531649 0.1149999946
0.0054791347 0.0234190821 0.1149999946
-0.0095444788 0.0268408180 0.0931706060
0.0096320338 0.0268208092 0.0928907314
0.0099373988 0.0266752794 0.0932585889
0.0100019245 0.0267318878 0.0622999410
-0.0100934145 0.0266521072 0.0632579083
0.0120909043 0.0256062717 0.0764649105
0.0112729817 0.0260122902 0.0980509062
0.0123166248 0.0254942217 0.0925374810
0.0106505887 0.0263212508 0.0750898514
-0.0122797122 0.0255114306 0.0661425550
-0.0105310727 0.0263794614 0.0835459825
-0.0119269568 0.0256865387 0.1009589351
-0.0135558742 0.0248779378 0.0892937262
-0.0149244999 0.0241985453 0.1008432768
-0.0132987736 0.0250055630 0.0980965422
-0.0107491307 0.0262712169 0.0968730654
0.0117579241 0.0258647142 0.0621612555
-0.0141777213 0.0256835855 0.0495473132
0.0133616789 0.0260351313 0.0504158464
-0.0113545834 0.0265589199 -0.0257887180
-0.0225660646 0.0254404723 -0.0171738469
-0.0269698756 0.0257906507 -0.0086887557
0.0096913414 0.0259090792 -0.0265873222
0.0199949950 0.0260433480 -0.0200449093
0.0262094767 0.0246163516 -0.0110137198
0.0234942303 0.0252908205 0.0189537400
-0.0284255729 0.0251051925 -0.0001545055
-0.0128477134 0.0247521008 0.1149999946
-0.0095491953 0.0195052473 0.1149999946
0.0278436683 0.0245747073 0.0054932592
0.0133565350 0.0249780065 0.0822425250
0.0125261538 0.0253902123 0.0693480364
-0.0171822817 0.0245688408 0.0442807964
0.0157863755 0.0255768530 0.0442931003
0.0188728884 0.0244624341 0.0374563482
-0.0141721095 0.0247906965 0.0610913188
0.0142439726 0.0247055617 0.0614543948
-0.0171098470 0.0239013728 0.0491949367
-0.0145920672 0.0248906260 0.0553219064
0.0147735987 0.0238135338 0.1065501463
0.0133237446 0.0247245373 0.1087655760
-0.0142925123 0.0241144080 0.1089000205
0.0197247060 0.0249240022 0.0317348206
-0.0152263690 0.0240486962 0.0651386487
-0.0153052058 0.0240095612 0.0764508682
0.0149605269 0.0241817769 0.0864551150
0.0144848772 0.0246206568 0.0606849910
0.0185992564 0.0229030522 0.0473784444
-0.0196678638 0.0241354041 0.0339665479
0.0148274549 0.0242940862 0.1135969553
0.0110576452 0.0182506437 0.1149999946
0.0104658271 0.0221651745 0.1149999946
0.0161801226 0.0236624295 0.0588082438
0.0008686791 0.0236725133 -0.0284352041
0.0021235527 0.0202321669 -0.0283596623
0.0037976357 0.0163922975 -0.0281352269
0.0031853901 0.0231864019 -0.0282721170
-0.0046870552 0.0187460395 -0.0280221373
0.0068785979 0.0179729427 -0.0275969067
0.0085098694 0.0237720282 -0.0271576518
0.0078854004 0.0153014511 -0.0272786400
0.0107923351 0.0164949338 -0.0263077075
0.0113146825 0.0187090754 -0.0261198602
0.0124310025 0.0137431032 -0.0255217276
-0.0117271989 0.0195292543 -0.0259299846
0.0145010471 0.0244015284 -0.0245026774
-0.0156878495 0.0134276221 -0.0237220500
0.0164170223 0.0159182556 -0.0231964447
0.0173432319 0.0164069704 -0.0224936923
-0.0179975369 0.0181544007 -0.0219591125
0.0188795149 0.0224698517 -0.0212529162
-0.0197493687 0.0200946707 -0.0204889770
-0.0206910810 0.0204019227 -0.0195258743
0.0209405434 0.0127172337 -0.0192037433
-0.0224284250 0.0239430633 -0.0174901480
0.0231195760 0.0170660974 -0.0165599263
0.0237695509 0.0186268552 -0.0156894155
-0.0244980631 0.0233475843 -0.0144504313
0.0251079527 0.0230808031 -0.0133720585
0.0258939989 0.0203409865 -0.0117503126
-0.0260351131 0.0212920273 -0.0114029754
0.0265306654 0.0210518668 -0.0103327467
0.0271296511 0.0231036013 -0.0085346739
-0.0273471904 0.0188660182 -0.0077030878
0.0276199437 0.0128711700 -0.0066708688
-0.0276400377 0.0141003264 -0.0066211590
0.0281089354 0.0235929683 -0.0043980871
0.0282155625 0.0179010021 -0.0034945787
-0.0283022666 0.0160414409 -0.0027397676
0.0283376030 0.0213910888 -0.0023987147
-0.0212911003 0.0237881554 0.0259251621
-0.0163818701 0.0238975667 0.0537520804
0.0169624616 0.0237856767 0.0511142200
0.0284447250 0.0203868340 0.0011724649
-0.0204515574 0.0230344104 0.0301196108
0.0164486770 0.0231368897 0.0888894164
0.0179181145 0.0219212674 0.0824479465
0.0167684145 0.0228723791 0.0941767063
0.0202084186 0.0200265604 0.1049393496
0.0166673942 0.0229559525 0.0819878795
-0.0157600229 0.0237047325 0.0815996838
-0.0164569635 0.0231281735 0.0739943819
-0.0164186193 0.0231598940 0.0933711365
-0.0165721847 0.0230328539 0.0894457730
-0.0187864331 0.0212010690 0.0958038636
-0.0190859972 0.0209532481 0.0958220424
-0.0178133314 0.0220060882 0.0974478558
-0.0186832443 0.0212864347 0.1012846328
-0.0260730876 0.0229050819 0.0115029026
-0.0270191982 0.0228065311 0.0085979874
0.0180323155 0.0218267900 0.0722338956
0.0171227435 0.0225792561 0.0749834541
-0.0209684098 0.0203833224 0.0476064129
-0.0199265922 0.0201592497 0.1122251567
-0.0203119570 0.0183914053 0.1149999946
-0.0148944077 0.0184124891 0.1149999946
-0.0232589100 0.0207996904 0.0178549953
-0.0282862264 0.0206936097 0.0023799953
0.0172368980 0.0228982930 0.0592947612
-0.0209956265 0.0201879133 0.0374829054
-0.0185936128 0.0221558535 0.0545332348
0.0187486775 0.0219201978 0.0565137741
0.0247537289 0.0212898734 0.0142434969
-0.0207068749 0.0200451675 0.0250135278
-0.0036186280 0.0175765370 -0.0195236130
-0.0035678447 0.0154966409 -0.0195302985
0.0038475402 0.0224360023 0.0071725722
0.0034680846 0.0224360023 -0.0057163495
0.0016063818 0.0224360023 -0.0188865540
0.0051114870 0.0224360023 -0.0075958628
-0.0003740764 0.0224360023 -0.0077703667
0.0003026935 0.0224360023 0.0005585728
0.0030937888 0.0224360023 0.0055160720
0.0032724666 0.0148471674 -0.0195691838
0.0056234488 0.0139183539 -0.0191333553
0.0060765029 0.0224360023 -0.0071717972
0.0053884782 0.0224360023 -0.0071073791
0.0072539973 0.0224360023 -0.0034179489
0.0055967023 0.0224360023 -0.0112369549
-0.0081740110 0.0209191341 -0.0180768797
-0.0002530427 0.0224360023 0.0080533521
0.0010834016 0.0224360023 0.0173733410
0.0008278587 0.0224360023 0.0189238753
-0.0030347709 0.0224360023 -0.0053305536
-0.0048869943 0.0224360023 0.0193125563
-0.0050112593 0.0224360023 -0.0165048061
-0.0046192348 0.0224360023 -0.0148132938
-0.0030851649 0.0224360023 0.0000582767
-0.0063598257 0.0224360023 -0.0141100105
-0.0078353585 0.0224360023 -0.0103303147
-0.0077412521 0.0224360023 -0.0079397812
0.0056260350 0.0124592568 -0.0191322841
0.0107650493 0.0162345040 -0.0167334820
0.0107524953 0.0224360023 -0.0047411790
0.0130692198 0.0224360023 -0.0141244527
0.0097794309 0.0224360023 -0.0135915562
-0.0124401212 0.0207814276 -0.0154481333
-0.0102181533 0.0224360023 -0.0031715239
-0.0070917920 0.0224360023 0.0100839350
-0.0103494126 0.0224360023 -0.0018502605
0.0124512493 0.0130018657 -0.0154395971
0.0151282123 0.0217692897 -0.0128570474
0.0114960016 0.0224360023 0.0047116746
0.0094395233 0.0224360023 0.0072273214
0.0079593877 0.0224360023 0.0121094820
0.0189872443 0.0224360023 0.0019510558
0.0176922062 0.0224360023 0.0017791213
0.0163280989 0.0224360023 0.0037702117
0.0153215608 0.0224360023 0.0084589442
0.0133397889 0.0224360023 -0.0014046951
0.0127813229 0.0224360023 0.0024061657
-0.0164207831 0.0211424611 -0.0111725440
-0.0141792177 0.0184509302 -0.0140937871
-0.0098458149 0.0224360023 0.0037014636
-0.0111608462 0.0224360023 0.0055422176
-0.0126703386 0.0224360023 -0.0018069838
-0.0135200449 0.0224360023 0.0138286544
-0.0160217155 0.0224360023 -0.0018679488
-0.0154777080 0.0224360023 -0.0120965461
0.0166921333 0.0153600708 -0.0108189210
0.0180195406 0.0206073848 -0.0083124004
-0.0175599472 0.0203583508 -0.0094219499
-0.0162960641 0.0224360023 -0.0008876827
-0.0151132959 0.0224360023 0.0083702118
0.0194695797 0.0172429775 -0.0040289649
-0.0195526639 0.0202079106 -0.0033978605
-0.0194211674 0.0165375416 -0.0043966689
-0.0166607022 0.0224360023 0.0074440895
0.0198171985 0.0156397393 -0.0013885412
0.0195295214 0.0223101595 0.0035736698
-0.0194577186 0.0216684862 0.0041190493
-0.0199915753 0.0201601959 0.0000639860
0.0196612799 0.0126177248 0.0025728546
0.0191627080 0.0188150460 0.0055525653
-0.0176935743 0.0177305706 0.0090993210
-0.0192528011 0.0199046607 0.0053350545
0.0177567642 0.0124569289 0.0089467775
0.0163199782 0.0220874532 0.0113039027
-0.0156479829 0.0125532784 0.0121796653
0.0170458387 0.0132374593 0.0103579363
0.0131253201 0.0207615824 0.0149223672
-0.0117180503 0.0188632192 0.0160021960
-0.0127957987 0.0164871006 0.0151752140
0.0107921732 0.0154529746 0.0167126463
0.0078584450 0.0206105604 0.0182075578
-0.0055044270 0.0201994607 0.0191826239
-0.0065523546 0.0133545813 0.0187485581
0.0062285346 0.0153103777 0.0188826875
0.0037562151 0.0209578989 0.0195054822
-0.0003308790 0.0192713787 0.0199564607
0.0038623984 0.0131069893 0.0194915021
0.0203134568 0.0194261225 0.0259442115
0.0278872040 0.0195835520 0.0049648908
0.0214430085 0.0181884625 0.1092495520
0.0188655918 0.0207658793 0.1080654502
-0.0179189949 0.0217102263 0.1079071239
-0.0220054462 0.0176237784 0.1061485698
0.0201541773 0.0200714325 0.0937071236
0.0202025831 0.0200313861 0.0702664004
0.0208167009 0.0208167013 0.0442904720
0.0196633025 0.0210562202 0.0571371567
-0.0203211708 0.0206382955 0.0540579031
0.0208091489 0.0200833556 0.0550660911
0.0272645483 0.0181272272 0.0072195712
0.0214701302 0.0204900048 0.0226063080
-0.0198927545 0.0191550874 0.0280871545
0.0232329454 0.0163306003 0.1144508856
0.0211700916 0.0177617010 0.1149999946
0.0230657980 0.0177407529 0.0171153917
-0.0221996334 0.0183952349 0.0441923485
0.0263304130 0.0174857802 0.0099250022
0.0218812037 0.0191521397 0.0462171552
0.0046534912 0.0193877934 0.1085368411
0.0010433419 0.0198630778 0.1084291704
-0.0009018739 0.0198814067 0.1085191073
-0.0041266265 0.0169225278 0.1041851491
-0.0104879048 0.0089724729 0.1041851491
-0.0078010544 0.0100763978 0.1041851491
-0.0049396877 0.0193498193 0.1047960012
-0.0209467706 0.0194489254 0.0236463289
0.0212302045 0.0188582783 0.0804977957
0.0209593033 0.0192151778 0.0719300587
-0.0205933146 0.0196943912 0.0697922740
0.0214785335 0.0185311165 0.0795733541
0.0238932918 0.0153497899 0.0992852110
0.0225674504 0.0170965211 0.0816836531
0.0236032653 0.0157318858 0.0986400750
0.0210312601 0.0191203783 0.0958762535
-0.0221486471 0.0176453151 0.0873495227
-0.0228418382 0.0167320697 0.0984263344
-0.0228991495 0.0166565642 0.0856016202
-0.0227068485 0.0169099114 0.0826841826
-0.0219721291 0.0178778697 0.1037431706
-0.0229127012 0.0166387094 0.0706273894
-0.0220600586 0.0177620254 0.0822336797
-0.0209947338 0.0183019526 0.0222363378
-0.0221836965 0.0183763451 0.0567123368
0.0222783123 0.0185945110 0.0509362200
0.0222228422 0.0189862320 0.0194219688
0.0079632748 0.0181648977 0.1077076314
0.0089099761 0.0177727598 0.1147453749
0.0007506107 0.0147230139 0.1041851491
-0.0074759955 0.0095080079 0.1041851491
0.0048412390 0.0153218324 0.1041851491
-0.0077318509 0.0182598266 0.1063182917
-0.0111368676 0.0121801770 0.1041851491
-0.0089437668 0.0177578328 0.1079582265
0.0251280372 0.0188147020 0.0128996674
-0.0227612904 0.0139615313 0.1149999946
-0.0166863874 0.0153892707 0.1149999946
0.0195587402 0.0178118414 0.0264207268
-0.0234913729 0.0159239446 0.0463916687
0.0195324947 0.0176502140 0.0325809915
0.0227110786 0.0169072978 0.0693711016
0.0231204966 0.0163679095 0.0824360391
0.0239870295 0.0169285589 0.0151741798
-0.0233111385 0.0140726094 0.0438290445
0.0229797797 0.0172626724 0.0584638457
0.0241142799 0.0142954591 0.1065845807
0.0222972528 0.0171872425 0.1101378561
-0.0230506098 0.0159847060 0.1057411512
0.0234261520 0.0168537805 0.0505797577
-0.0202823833 0.0147105679 0.0374007239
0.0187402616 0.0168311823 0.0275999958
0.0118209694 0.0159243718 0.1043721718
0.0113828366 0.0162605631 0.1123545909
0.0086233890 0.0138876743 0.1041851491
-0.0115571755 0.0046120387 0.1041851491
0.0084596348 0.0140290452 0.1041851491
-0.0103508974 0.0170506746 0.1139357722
-0.0140982211 0.0108447126 0.1041851491
-0.0128901306 0.0151022514 0.1092173229
0.0283132261 0.0139910310 0.0026790269
0.0216836814 0.0151143993 0.0191023330
0.0251581009 0.0130584574 0.0132479124
0.0185417294 0.0159539269 0.0257838098
0.0243407922 0.0146173783 0.0490739306
-0.0275562835 0.0130295031 0.0070710736
-0.0238803427 0.0153638891 0.0681549928
-0.0186237278 0.0137779941 0.0361868209
-0.0245248851 0.0145978411 0.0620204781
0.0244182738 0.0146581518 0.0747176002
0.0212684271 0.0139206179 0.0395078602
0.0258726009 0.0117397959 0.0631823271
0.0241951301 0.0149387099 0.1131022543
0.0257068824 0.0098511783 0.1149999946
0.0170575424 0.0108957594 0.1149999946
0.0242918826 0.0146675607 0.0146554710
0.0264276528 0.0137529052 0.0102231509
0.0184410436 0.0139910233 0.0231117569
0.0247698575 0.0139743407 0.0858895305
-0.0245475110 0.0144686910 0.0777327300
0.0251146048 0.0132000271 0.0762824689
0.0263746805 0.0103698483 0.0957024980
0.0261247422 0.0109312201 0.0863803576
0.0254024782 0.0125534523 0.0809802260
-0.0254751829 0.0123850994 0.0727629849
-0.0254132349 0.0125242395 0.0823093519
-0.0270209191 0.0089133259 0.1025454265
-0.0260358949 0.0111257247 0.0943045483
-0.0262965756 0.0105402249 0.0878678342
-0.0264226263 0.0102571102 0.0856857630
-0.0262424675 0.0106617547 0.0931002625
0.0256628527 0.0125878437 0.0533305705
0.0216705535 0.0126302323 0.0184779311
0.0159374400 0.0118041923 0.1064318041
0.0151838364 0.0127863075 0.1135405299
0.0156056929 0.0101310502 0.1041851491
0.0056922639 0.0072020177 0.1041851491
-0.0031719079 0.0061479928 0.1041851491
-0.0151786051 0.0127901975 0.1071533599
-0.0196142946 0.0012385287 0.1041851491
-0.0153504982 0.0125661822 0.1114120546
-0.0160312819 0.0125349837 0.0237267346
-0.0144755108 0.0133691071 0.0319557285
0.0209562822 0.0126308960 0.0398277234
-0.0271583677 0.0083312437 0.1130841450
-0.0231917449 0.0095785284 0.1149999946
-0.0188878128 0.0098838298 0.1149999946
-0.0121854694 0.0129704347 0.0294023122
-0.0259594704 0.0121573131 0.0599026971
-0.0156263920 0.0127110459 0.0347826318
0.0259399389 0.0113462958 0.0799503190
0.0266313020 0.0097934664 0.0849601818
-0.0169372461 0.0127693663 0.0359148621
0.0110141747 0.0113301696 0.0352846486
0.0089054788 0.0124147912 0.0294986111
-0.0262173009 0.0124368692 0.0100323202
0.0216472251 0.0124362384 0.0073058399
0.0267008373 0.0124366214 0.0071610905
0.0221984701 0.0124362314 0.0073657198
0.0236251890 0.0124361683 0.0143148614
-0.0187394100 0.0124360258 0.0196793624
0.0177956155 0.0124358183 0.0183076769
-0.0024089904 0.0124358111 0.0269992786
0.0216041448 0.0124359948 0.0154976613
-0.0067160954 0.0124360034 -0.0240399452
-0.0001555616 0.0124360034 -0.0228650451
-0.0060425924 0.0124360034 -0.0199643557
0.0012944735 0.0124360034 -0.0255972024
-0.0169610580 0.0124360034 -0.0143145021
-0.0223730685 0.0124360034 -0.0082688537
0.0059289158 0.0124360034 -0.0212360272
0.0086622643 0.0124360034 -0.0256569120
-0.0119525825 0.0124360034 -0.0226740736
-0.0213171054 0.0124360034 -0.0111991186
-0.0171412904 0.0124360034 -0.0190832779
0.0142195037 0.0124360034 -0.0219705020
0.0118171019 0.0124360034 -0.0163980660
-0.0188587337 0.0124360034 -0.0208183148
0.0179922272 0.0124360034 -0.0164574823
0.0165323388 0.0124360034 -0.0120181964
0.0218586414 0.0124360034 -0.0124711919
0.0225144996 0.0124360034 -0.0116107856
0.0228023695 0.0124360034 -0.0079043483
0.0230417966 0.0124360034 -0.0063082766
0.0197577490 0.0124360034 -0.0041068281
-0.0203168104 0.0124360034 -0.0044531807
0.0279176444 0.0124360034 0.0000129920
0.0198620559 0.0124359999 0.0045219093
-0.0239267340 0.0124360034 0.0016794842
-0.0052093871 0.0124359579 0.0276545434
-0.0257414393 0.0124359812 0.0043708511
-0.0174955465 0.0124360034 0.0105418161
0.0168790079 0.0124359946 0.0148161390
0.0140908799 0.0124356390 0.0165296494
0.0096703563 0.0124359770 0.0189665358
0.0133527325 0.0124357320 0.0206020595
0.0059115203 0.0124359827 0.0224354767
0.0043415301 0.0124359823 0.0235369198
-0.0038366904 0.0124359409 0.0212834190
-0.0036974467 0.0124024576 0.0288869996
-0.0182835264 0.0124359009 0.0147148655
-0.0225752591 0.0124357966 0.0112580036
0.0182607758 0.0117156006 0.0380946977
-0.0033433665 0.0121951109 0.0322908992
-0.0037943844 0.0122293245 0.0319654929
0.0257612646 0.0112275080 0.1078901634
-0.0267016934 0.0085334970 0.1068780511
-0.0268700343 0.0080524065 0.1111109758
-0.0250302605 0.0099439150 0.0478449075
0.0201474613 0.0106858686 0.0404063566
0.0245635982 0.0112068315 0.0468993237
0.0216398882 0.0101488035 0.0422091282
-0.0061188814 0.0112956430 0.0354214873
-0.0033029523 0.0106829005 0.0372042395
0.0117259731 0.0096069103 0.0381574089
-0.0266273501 0.0104420061 0.0552441319
-0.0269632147 0.0090429306 0.0654892977
-0.0271942150 0.0085240974 0.0936957257
0.0267693981 0.0097285820 0.0636366478
0.0269520023 0.0090731614 0.0653190187
0.0271370436 0.0086575517 0.0782954820
-0.0064428663 0.0097356794 0.0382124800
-0.0125143167 0.0082744087 0.0395400487
0.0224716724 0.0070329695 0.0447067575
0.0192634556 0.0053122980 0.1124274993
0.0180748139 0.0081819335 0.1112558311
0.0027217401 0.0049099557 0.1041851491
0.0058646897 0.0056413357 0.1041851491
0.0103847375 0.0047983978 0.1041851491
-0.0181285334 0.0080468237 0.1087139651
0.0244524155 0.0096855854 0.1149999946
-0.0192622885 0.0053097014 0.1101082086
0.0239601736 0.0086715389 0.0459456348
0.0031275165 0.0095000415 0.0388842574
0.0268766441 0.0094022953 0.1145620320
0.0268456967 0.0078296609 0.1149999946
0.0275210406 0.0076669117 0.0566385925
0.0111839722 0.0080233880 0.0397795243
0.0009279869 0.0087615233 0.0397874553
-0.0044023000 0.0082102089 0.0400451974
0.0272509459 0.0082400085 0.0729397761
0.0277404297 0.0056740532 0.1028469604
0.0272768197 0.0081043740 0.0911144913
0.0280611408 0.0039928317 0.0957752067
0.0279210725 0.0047270930 0.0986144377
-0.0281294980 0.0036227015 0.0807421213
-0.0281805059 0.0033553086 0.0947556843
-0.0281970117 0.0032687824 0.0840895250
-0.0277588567 0.0055656712 0.1029104036
-0.0282478266 0.0030024012 0.0792130908
-0.0278778096 0.0049420988 0.0794704213
-0.0277717803 0.0054979262 0.0761533703
-0.0274503999 0.0071826620 0.0735203648
-0.0272601444 0.0081800143 0.0860064738
-0.0278226906 0.0066869714 0.0577381381
0.0272515799 0.0079758997 0.0548550276
0.0277158826 0.0058027292 0.0666363968
0.0274902475 0.0069855491 0.0718356730
-0.0238708149 0.0059869384 0.0467593055
0.0257121731 0.0059863803 0.0496400706
-0.0281621055 0.0031102886 0.1135199001
-0.0211235030 0.0045444350 0.1149999946
-0.0280661855 0.0053344738 0.0584764154
-0.0201815127 0.0025149448 0.0453650986
-0.0164243287 0.0033752036 0.0436300759
0.0092704796 0.0054676062 0.0417967362
0.0277393927 0.0040982787 0.1092608078
-0.0277740055 0.0037711231 0.1089125303
-0.0275887957 0.0054149041 0.1119690082
0.0064316421 0.0043544790 0.0425434997
-0.0053260877 0.0042691943 0.0426241912
-0.0280774219 0.0041907336 0.0642470035
-0.0155126830 0.0028894672 0.0437096422
0.0283230912 0.0026196396 0.0936001887
0.0283269901 0.0025991959 0.0862068686
-0.0198654769 0.0011859057 0.0458996442
0.0196706205 0.0025107030 0.1093582170
0.0196991303 0.0022941519 0.1148702221
-0.0084765077 0.0006308463 0.1041851491
0.0084487627 0.0024067776 0.1041851491
0.0071510174 0.0023390641 0.1041851491
-0.0193353719 0.0050401101 0.1147104150
0.0225030871 0.0039789174 0.1149999946
-0.0197746973 0.0017030967 0.1091559356
-0.0215943886 0.0021077355 0.1149999946
0.0209807453 0.0001841725 0.0470304372
0.0147935526 0.0029359823 0.0436006663
-0.0110039265 0.0011612960 0.0440829686
0.0263765835 0.0024497512 0.0515129910
0.0229097941 0.0030378397 0.0470435624
0.0283126961 0.0013226564 0.1123803759
0.0273487163 0.0004035190 0.1149999946
-0.0067861264 0.0010863188 0.0440280371
0.0280763207 0.0021579046 0.0559500594
0.0285058576 0.0023453174 0.0606789337
0.0038199529 -0.0010650849 0.0448224910
0.0284107358 0.0021601924 0.0667179162
-0.0005051195 -0.0010776384 0.0447967996
0.0284481505 0.0014449746 0.0910717418
0.0284644723 0.0009997835 0.0775836454
0.0284705664 0.0008335501 0.0755817070
-0.0284662153 0.0008909410 0.0806302107
-0.0284797976 0.0005205636 0.0969365604
-0.0284579118 0.0011174309 0.0857221259
-0.0220851442 0.0003519279 0.0476324114
-0.0156722868 -0.0053536427 0.0474089228
0.0135708130 -0.0004458727 0.0450846804
-0.0281988773 0.0004585613 0.1139764122
-0.0203925654 -0.0042838512 0.1149999946
0.0135004007 -0.0032422073 0.0461606710
0.0281725449 -0.0013856033 0.0572872580
-0.0284518794 -0.0012813674 0.0785690026
-0.0076169664 -0.0035398137 0.1041851491
-0.0039903074 -0.0006116188 0.1041851491
0.0054455842 -0.0004775866 0.1041851491
-0.0161609937 -0.0047601630 0.1041851491
-0.0052480849 -0.0034333100 0.1041851491
-0.0176281724 -0.0071868636 0.1041851491
-0.0149172229 -0.0089678365 0.1041851491
0.0191219290 -0.0014093459 0.1041851491
0.0060091326 -0.0067178101 0.1041851491
0.0139158747 -0.0034423749 0.1041851491
-0.0028974166 -0.0068594344 0.1041851491
0.0198419917 -0.0012084526 0.1046637178
0.0197807567 -0.0016735748 0.1112497558
-0.0195093617 -0.0037179549 0.1046915784
0.0284635103 -0.0010254871 0.1035905459
0.0278274921 -0.0033157983 0.1077474129
0.0278788589 -0.0028599039 0.1111350104
-0.0283933873 -0.0005716044 0.1050251573
-0.0284486508 -0.0013694257 0.0838626002
-0.0275989252 -0.0053244270 0.1069411737
0.0241563798 -0.0029455282 0.1149999946
-0.0193910166 -0.0046168766 0.1138877838
-0.0092224081 -0.0008364042 0.0448814357
0.0090129098 -0.0007701624 0.0448588855
0.0284306772 -0.0019209472 0.0922894342
-0.0274326468 -0.0037033817 0.0559064671
0.0269630304 -0.0013375837 0.0537468401
-0.0238857435 -0.0035642330 0.0507587245
-0.0261605085 -0.0020161217 0.1149999946
-0.0280172108 -0.0040674521 0.1145996734
-0.0244749947 -0.0068546557 0.1149999946
-0.0048674819 -0.0045192533 0.0458672865
0.0055884057 -0.0043067953 0.0458681910
-0.0013960634 -0.0032462482 0.0454422141
0.0063707036 -0.0089123670 0.0472531229
0.0019571084 -0.0035438819 0.0455254368
0.0003413785 -0.0068485284 0.0464305865
0.0283871690 -0.0022831666 0.0828510501
0.0280469278 -0.0040667665 0.1044022211
0.0277780496 -0.0054762727 0.0985553958
0.0284031799 -0.0021992337 0.1020836433
0.0277877884 -0.0054252202 0.0993858048
0.0279324890 -0.0046666755 0.0990439407
-0.0283253707 -0.0025953228 0.0792072334
-0.0281987033 -0.0032593371 0.0804911604
-0.0277811879 -0.0054480311 0.0885373309
-0.0283508480 -0.0024617685 0.0900324880
-0.0201977158 -0.0063900221 0.0494835441
0.0276398184 -0.0031262822 0.0561556037
-0.0281017523 -0.0037675739 0.0661143354
-0.0278264825 -0.0052105894 0.0779870096
0.0276677710 -0.0060543690 0.0685188444
0.0274926069 -0.0069726104 0.0872848052
-0.0231750689 -0.0062533370 0.0513535619
0.0272645745 -0.0050901466 0.1149999946
0.0249353845 -0.0039185477 0.0519651339
-0.0190565331 -0.0073021719 0.0493221818
0.0277100128 -0.0064512602 0.0638551866
0.0144857171 -0.0067262517 0.1041851491
0.0134438791 -0.0083058923 0.1041851491
-0.0065559244 -0.0086756365 0.1041851491
0.0186173595 -0.0068715437 0.1061836442
0.0190993109 -0.0057080095 0.1070775938
-0.0192368198 -0.0053706191 0.1083127654
0.0211591286 -0.0122440684 0.1149999946
0.0225336114 -0.0092362325 0.1149999946
-0.0174399910 -0.0097085411 0.1095405712
-0.0158125763 -0.0075120305 0.0482624022
-0.0272370231 -0.0083006467 0.0976126843
-0.0272728386 -0.0081128959 0.0929301212
-0.0252218490 -0.0085243010 0.0548327884
0.0274131446 -0.0073891638 0.0682537138
0.0273869149 -0.0075266646 0.0856877849
0.0230629652 -0.0068671588 0.0515397269
0.0268856850 -0.0080135315 0.1115006018
-0.0266913035 -0.0085626148 0.1071964918
-0.0255487803 -0.0118277591 0.1060185922
-0.0272632979 -0.0083192036 0.0636588300
0.0274079284 -0.0078410969 0.0638396940
-0.0266960087 -0.0093993029 0.1120251268
-0.0207363685 -0.0122197047 0.1149999946
-0.0125284965 -0.0113900632 0.0488477161
-0.0222405021 -0.0094866780 0.0521923841
0.0240371548 -0.0085197746 0.0533053836
0.0265724375 -0.0099251079 0.0696129622
0.0265831055 -0.0099011470 0.0705277350
-0.0267436329 -0.0095355476 0.0821990665
-0.0270882760 -0.0087614679 0.0998440357
0.0254370926 -0.0124751334 0.0913604280
0.0260877724 -0.0110136831 0.0871219839
0.0258888255 -0.0114605259 0.0771134223
0.0257724187 -0.0117219785 0.0939912543
-0.0257292316 -0.0118139303 0.0735340426
-0.0256359210 -0.0120235084 0.0659733141
-0.0246439104 -0.0142516029 0.1013065114
-0.0250170365 -0.0134135476 0.0890462976
-0.0265264270 -0.0100234015 0.0933593749
-0.0257175874 -0.0118400847 0.0909785031
-0.0247620114 -0.0139863435 0.0957802088
-0.0173732500 -0.0099563985 0.0497062102
-0.0252563179 -0.0126880783 0.0597436807
0.0088297272 -0.0122431098 0.0485176506
0.0250870685 -0.0111480311 0.0567348587
0.0025860054 -0.0106153538 0.0475287227
-0.0037117203 -0.0105071239 0.1041851491
-0.0010310500 -0.0103019119 0.1041851491
0.0160002625 -0.0117217524 0.1062549182
0.0156535986 -0.0121735335 0.1111385394
-0.0018043207 -0.0123612101 0.1041851491
0.0089682560 -0.0165678527 0.1041851491
-0.0152843430 -0.0113055728 0.1041851491
-0.0034387681 -0.0154749082 0.1041851491
-0.0161931535 -0.0114674445 0.1066509219
0.0162414882 -0.0118133442 0.1149999946
0.0191363093 -0.0175659101 0.1149999946
-0.0144614280 -0.0137242727 0.1140672957
0.0010025350 -0.0102874205 0.0473941792
-0.0149051180 -0.0135895854 0.0503074762
0.0155424912 -0.0118083497 0.0498183670
0.0252089086 -0.0129876409 0.0720020422
0.0256295607 -0.0120428426 0.0653785320
0.0250945289 -0.0124508059 0.0583695997
-0.0248800142 -0.0128721132 0.0586209030
0.0224624585 -0.0169237455 0.1085815032
0.0252390557 -0.0125048160 0.1059236598
-0.0240937065 -0.0143240539 0.1064081777
0.0167312559 -0.0138363993 0.0510789844
-0.0231934562 -0.0142006720 0.0566117024
0.0118426681 -0.0159496132 0.0504027969
-0.0248157349 -0.0138656782 0.0791927396
-0.0075811288 -0.0152728267 0.0493616214
-0.0245836761 -0.0140754182 0.1149999946
0.0069090422 -0.0143025005 0.0489388238
0.0246885944 -0.0141562846 0.0743403560
-0.0037779860 -0.0180430424 0.0499741940
0.0103500472 -0.0170524809 0.1103019130
0.0108429672 -0.0166742501 0.1149895596
-0.0015497645 -0.0168597640 0.1041851491
-0.0139062046 -0.0143220218 0.1069403186
0.0108637712 -0.0178495223 0.1149999946
0.0184087058 -0.0208347332 0.1149999946
-0.0111948772 -0.0164024964 0.1096623881
0.0034444549 -0.0148999327 0.0488450475
0.0241661886 -0.0149896890 0.0909683950
0.0241729094 -0.0149808347 0.0768893369
-0.0240277867 -0.0151690674 0.0734295560
0.0231857692 -0.0162813430 0.0796006097
0.0209507714 -0.0192258452 0.1043438733
0.0235426833 -0.0158111263 0.0821606442
0.0242122937 -0.0149289482 0.0983143547
0.0225386709 -0.0171338645 0.0959706727
-0.0213465797 -0.0187014277 0.0904533717
-0.0231898356 -0.0162730279 0.0907150384
-0.0226791227 -0.0169458672 0.0939556570
-0.0215175498 -0.0184761829 0.0890209490
-0.0234073359 -0.0159864815 0.0816890388
-0.0219572270 -0.0178969298 0.0653911757
0.0022486633 -0.0149006469 0.0487686496
0.0221637359 -0.0177810010 0.0638490934
-0.0125873736 -0.0186683694 0.0519482441
0.0224783687 -0.0172436771 0.1141506425
0.0216082047 -0.0183597072 0.0822216740
0.0216796924 -0.0182655258 0.0827093464
0.0216256934 -0.0181425771 0.0598769205
-0.0158876469 -0.0176802014 0.0527158487
-0.0206676551 -0.0196180502 0.0645240249
-0.0067419515 -0.0176086225 0.1041851491
0.0055664903 -0.0191571048 0.1127655644
0.0091023617 -0.0176924995 0.1101462550
-0.0073770542 -0.0184062147 0.1078545615
0.0059233096 -0.0198267443 0.1149999946
0.0128018018 -0.0251907293 0.1149999946
-0.0076698448 -0.0201467761 0.1149999946
-0.0158869541 -0.0200405872 0.1149999946
-0.0113532907 -0.0220505601 0.1149999946
-0.0057518379 -0.0190794012 0.1097138468
0.0206700409 -0.0196124165 0.0645987862
0.0184924670 -0.0211384333 0.1065053060
0.0218191912 -0.0178117064 0.1066182483
-0.0198430416 -0.0197856094 0.1058270692
-0.0190265899 -0.0206020611 0.1106953851
-0.0208808498 -0.0193150041 0.0892405938
-0.0049265797 -0.0209273236 0.0514610613
-0.0141718811 -0.0203907833 0.0538202008
0.0211504218 -0.0189628137 0.0802580239
0.0210972389 -0.0188860454 0.0605503193
-0.0193984712 -0.0206315974 0.1120527300
-0.0205000982 -0.0197455108 0.0630211073
0.0034613480 -0.0195441655 0.1051785126
0.0016209424 -0.0197864605 0.1123608892
-0.0045105956 -0.0194057333 0.1062667691
0.0033300804 -0.0239273554 0.1149999946
0.0057379566 -0.0209261716 0.1149999946
-0.0048362984 -0.0279334746 0.1149999946
-0.0012819768 -0.0198307907 0.1071535252
0.0162361025 -0.0209338479 0.0557302427
0.0203200590 -0.0199336300 0.0737382990
-0.0205133579 -0.0197718611 0.0807788969
0.0190664887 -0.0209706737 0.0928063037
0.0177690847 -0.0220439798 0.0991083415
0.0204721932 -0.0198077736 0.1020950224
0.0179619251 -0.0218844483 0.1045916327
-0.0203750209 -0.0198863034 0.1014701426
-0.0179005902 -0.0219333306 0.1045159767
-0.0175417719 -0.0222301713 0.0966902870
-0.0190487831 -0.0209834635 0.0832959758
-0.0199682037 -0.0202228525 0.0850499884
-0.0029682121 -0.0276324598 0.1149999946
-0.0171221488 -0.0225773120 0.0802226709
-0.0190201118 -0.0210071818 0.0691720814
-0.0173922626 -0.0223331771 0.0610336175
0.0193839827 -0.0207080197 0.0674558587
0.0180413425 -0.0218187482 0.0765773334
0.0183861779 -0.0216543274 0.0617779833
0.0101288934 -0.0222716012 0.0535446850
-0.0056132367 -0.0220640471 0.0522175835
0.0156342973 -0.0238211488 0.0647615709
-0.0163979451 -0.0231764263 0.0770126162
-0.0158584812 -0.0236227101 0.0916889687
0.0032006198 -0.0226337942 0.0522972290
0.0164199021 -0.0227785231 0.1102376186
-0.0175538562 -0.0220645989 0.1075034647
-0.0134971391 -0.0246136043 0.1071627742
0.0156921248 -0.0237621906 0.0765190398
0.0166694975 -0.0229536369 0.0763154794
0.0113682012 -0.0236052909 0.0552933783
-0.0146260029 -0.0244212373 0.0629369377
0.0151068582 -0.0241002938 0.0648862170
-0.0156735363 -0.0237757103 0.0706481601
0.0146446159 -0.0243380259 0.0718878275
0.0141534295 -0.0245818531 0.0652941655
-0.0154271681 -0.0239484483 0.0904088008
0.0124751604 -0.0254149530 0.0892804573
0.0140535815 -0.0246314178 0.1029255978
0.0144228481 -0.0244481123 0.0992050858
0.0147677638 -0.0242768946 0.1033128043
0.0114770192 -0.0259104345 0.1025161560
-0.0114270651 -0.0259341150 0.0660988377
-0.0127128444 -0.0252958492 0.0730697569
-0.0110499822 -0.0261213010 0.0778746176
-0.0104566990 -0.0264158093 0.0784350550
-0.0105893421 -0.0263499660 0.1027101586
-0.0102411764 -0.0265227964 0.0929633262
-0.0137692030 -0.0247714692 0.1010674192
0.0136195055 -0.0246129068 0.0597184360
0.0106675722 -0.0262429925 0.1141843289
-0.0017178422 -0.0256950495 0.0547336022
0.0111815477 -0.0260571085 0.0655996615
0.0101080896 -0.0265899774 0.0859495547
-0.0053779298 -0.0258511888 0.0556263474
0.0089057328 -0.0265725726 0.1080678676
0.0119037763 -0.0255235126 0.1062581120
-0.0092945195 -0.0264357451 0.1064971470
0.0065891105 -0.0261014679 0.0563913343
-0.0093902442 -0.0268520567 0.0627528875
-0.0105094965 -0.0263896003 0.0745843572
-0.0056205944 -0.0278198781 0.1121557073
0.0100035504 -0.0266418711 0.0781377822
-0.0046656170 -0.0272638415 0.0581090664
0.0090816764 -0.0269493239 0.0716382376
-0.0094066432 -0.0268725768 0.0946118381
0.0079932819 -0.0272046041 0.0873041276
0.0054845980 -0.0277930102 0.0930601234
0.0082477233 -0.0271449259 0.1038879106
0.0059574489 -0.0276821044 0.1032087597
0.0076450311 -0.0272862856 0.0888596081
-0.0047510857 -0.0279645279 0.0893626177
-0.0050299155 -0.0278991294 0.0789188126
-0.0070448704 -0.0274265262 0.0841304498
-0.0055338563 -0.0277809310 0.0848288246
-0.0075303572 -0.0273126563 0.0835717962
-0.0087830035 -0.0270188501 0.0905326860
0.0032387972 -0.0275811261 0.0583962323
0.0032350892 -0.0282084397 0.1140648927
0.0057831963 -0.0277229743 0.0741867580
0.0057388514 -0.0277333754 0.0808827479
-0.0017836012 -0.0275336443 0.0578823505
0.0033857855 -0.0278183540 0.1073373307
-0.0055817251 -0.0275706785 0.1061405493
-0.0039522320 -0.0277542781 0.1108434365
-0.0047640945 -0.0279614771 0.0738079179
-0.0035521409 -0.0282457372 0.0851264450
0.0006881601 -0.0280971176 0.0596355384
0.0034544071 -0.0282691869 0.0654195794
-0.0038072082 -0.0281815873 0.1141581988
0.0024258532 -0.0283598865 0.0685625949
-0.0004610864 -0.0283259288 0.0833657246
0.0009383463 -0.0283204251 0.0912646638
-0.0004537926 -0.0283195043 0.0925861879
-0.0023125760 -0.0283284587 0.0797348746
-0.0019896401 -0.0283295952 0.0781037290
-0.0000461050 -0.0284751744 0.0673288386
0.0004134102 -0.0284684564 0.0708460523
0.0009250008 -0.0284463933 0.0661305790
0.0011036465 -0.0284360964 0.0739119424
