-0.0762032345 0.0524503624 0.2258975500
-0.0723095785 0.0715762543 0.1768457664
-0.0692296980 0.0181447603 0.2178503264
-0.0899733792 -0.0779474120 0.2044859133
-0.0449879980 -0.0156719797 0.2028256943
-0.0714720001 0.0066384312 0.1798095531
-0.0668158513 -0.0136661855 0.1938785645
-0.0642298120 -0.0654974000 0.2053460285
-0.0541573938 0.0305000003 0.2220546769
-0.0378360774 -0.0278323399 0.1714424419
-0.0453599875 -0.0305000003 0.1676320732
-0.0750032365 -0.0588547595 0.2266945764
-0.0750032365 -0.0605369169 0.1958843397
-0.0754131914 -0.0715212452 0.1846273732
-0.0750032365 0.0457146796 0.1009047938
-0.0750032365 0.0638607128 0.1526612444
-0.0800032392 -0.0321625127 0.1231041660
-0.0800032392 -0.0150076845 0.2019136429
-0.0800032392 -0.0319381657 0.1567408850
-0.0800032392 0.0162364363 0.1596934932
-0.0758090755 0.0414985791 0.1824916829
-0.1005650399 0.0719999969 0.1220420765
-0.0811633261 0.0719999969 0.1894950907
-0.0817586114 0.0844999999 0.0824961997
-0.0873024581 0.0844999999 0.1617433824
-0.0675434284 0.0844999999 0.1012394134
-0.0660032406 0.0831563019 0.1754187252
-0.0630037412 0.0429840497 0.2254452796
-0.0630037412 0.0542090809 0.0895785988
-0.0630037412 0.0619460516 0.1738507885
-0.0305037387 0.0127129078 0.1898431952
-0.0516036146 0.0180868532 0.1882253921
-0.0305037387 -0.0202398803 0.1673679917
-0.0630037412 -0.0725007370 0.2187777458
-0.0630037412 -0.0597211552 0.2176703128
-0.0630037412 -0.0425280877 0.1024478898
-0.0660032406 -0.0817295965 0.2074086801
-0.0987722375 -0.0844999999 0.0886175287
-0.0749826692 -0.0844999999 0.1281675798
-0.1015032381 -0.0818217151 0.1015442201
-0.0780012179 -0.0719999969 0.1807616124
-0.0958776442 -0.0719999969 0.1765690890
-0.0737915179 -0.0334656346 0.0751000047
-0.0614743665 0.0201295769 0.2270999998
-0.0655102994 -0.0341093352 0.2270999998
-0.0775867811 0.0764195395 0.0984144081
-0.0778524240 0.0318130579 0.2046398308
-0.0690032393 -0.0648950232 0.1248034295
-0.0457987847 -0.0248471700 0.1380999982
-0.0795182842 -0.0265014209 0.1240852581
-0.0509038241 0.0599814804 0.1776945627
-0.0471049998 0.0304991920 0.2040631278
-0.0394999422 0.0709728524 0.1898817417
-0.0557874441 0.0723492131 0.1987729596
-0.0395724547 0.0422717107 0.1815018020
-0.0594646660 0.0429450591 0.1592499763
-0.0411573963 0.0434992090 0.2173371165
-0.0422850845 0.0392536922 0.1592499763
-0.0531235327 0.0527552223 0.2229499370
-0.0630000010 0.0337571648 0.1088785481
-0.0394999422 0.0381424919 0.1143460787
-0.0602053605 0.0724991858 0.1261547462
-0.0602677369 0.0501493908 0.1353499442
-0.0584733852 0.0339873062 0.1251881955
-0.0456447316 0.0307491850 0.0842154063
-0.0442093906 0.0710735787 0.1429500133
-0.0523612115 0.0460699193 0.1353499442
-0.0493077927 0.0698257283 0.0772499666
-0.0462857843 0.0621066245 0.1456033014
-0.0513000004 -0.0504183397 0.1139514709
-0.0486559038 -0.0725008100 0.1033058278
-0.0470370043 -0.0640583180 0.0868500099
-0.0626999959 -0.0533522452 0.1194299158
-0.0537952208 -0.0519012212 0.0868500099
-0.0429074048 -0.0669988110 0.0792500600
-0.0394999459 -0.0413125587 0.1426785096
-0.0394999720 -0.0627865046 0.0784380349
-0.0440519343 -0.0318176529 0.1449499875
-0.0513000004 -0.0506611504 0.1712043079
-0.0405688242 -0.0725008100 0.2066639372
-0.0394999422 -0.0350523935 0.1981655074
-0.0441324209 -0.0306507833 0.2084284946
-0.0495219727 -0.0415326858 0.1716610154
-0.0583553121 -0.0313236676 0.1592499763
-0.0446977126 -0.0595007911 0.2186020605
-0.0565487193 -0.0599924133 0.1592499763
-0.0602643508 -0.0482114854 0.2229499370
-0.0154753529 0.0706878452 0.9108156877
-0.0341485651 -0.0495070942 0.3794996697
-0.0144945517 -0.0675466969 0.8554088087
-0.0125580881 -0.0678301399 0.6386813953
-0.0145334487 0.0744961691 0.2426143428
-0.0572765989 0.0815015859 0.5305806396
-0.0571813837 0.0794089779 0.2703483523
-0.0107519196 0.0588330136 0.4583476377
-0.0100343358 0.0606281401 0.3859093530
-0.0110657860 0.0624808469 0.4856483102
-0.0136093918 0.0627344318 0.6723201524
-0.0134419495 0.0748655552 0.7472829910
-0.0118768924 0.0763996357 0.2757231906
-0.0134310891 0.0781315319 0.0792983080
-0.0131482563 -0.0780557543 0.3870148519
-0.0119023497 -0.0766953699 0.9022012257
-0.0130614382 -0.0749675132 0.2628381323
-0.0148311527 -0.0774984907 0.7696674179
-0.0106760159 -0.0620910791 0.6840011469
-0.0100437567 -0.0603366972 0.8082330613
-0.0117775945 -0.0581935705 0.1108041773
-0.0132507020 -0.0581797071 0.9264234707
-0.0426644757 0.0791999996 0.1283058922
-0.0400648468 0.0791999996 0.6680361853
-0.0402668919 -0.0791999996 0.7310487936
-0.0432002249 -0.0793448743 0.2225650910
-0.0045000007 -0.0693217877 0.3765333049
-0.0045000007 -0.0547224805 0.4823616205
-0.0045000007 -0.0528981442 0.4977346063
-0.0045000007 -0.0797934247 0.6169492870
-0.0045000007 -0.0632742575 0.5761959415
-0.0045000007 -0.0474611462 0.6677343358
-0.0045000007 -0.0799621342 0.0653612212
-0.0045000007 -0.0790438257 0.1457088359
-0.0045000007 -0.0756770980 0.3109065910
-0.0045000007 -0.0620947522 0.3111040343
-0.0045000007 -0.0594011142 0.2304897015
-0.0045000007 -0.0522399439 0.1708032010
-0.0045000007 -0.0800705669 0.7331755143
-0.0045000007 -0.0606458157 0.8362456998
-0.0045000007 -0.0536086883 0.7149953832
-0.0045000007 -0.0471677692 0.8803474554
-0.0045000007 0.0774513556 0.8537860912
-0.0045000007 0.0738741410 0.0872991309
-0.0045000007 0.0600621985 0.3921269201
-0.0045000007 0.0655796192 0.4197216837
-0.0045000007 0.0688331150 0.2892454424
-0.0045000007 0.0792607137 0.4917423310
-0.0045000007 0.0716893666 0.6471750881
-0.0045000007 0.0488824357 0.7941750701
-0.0045000007 0.0578746427 0.0726934828
-0.0045000007 0.0635113204 0.1525599764
-0.0045000007 0.0772070913 0.1816604119
-0.0045000007 0.0500499975 0.5336536728
-0.0045000007 0.0458464045 0.4537270169
-0.0045000007 0.0511780448 0.7431955566
-0.0045000007 0.0794872364 0.7502489836
-0.0045000007 0.0726955077 0.8743098532
-0.0045000007 0.0516455067 0.9225247746
-0.0345000029 0.0544058500 0.1222350100
-0.0345000029 0.0500143399 0.6395957718
-0.0345000029 0.0502848514 0.1512179658
-0.0390689335 0.0742339016 0.7588282157
-0.0376343200 -0.0722877592 0.5165055204
-0.0375610976 0.0718983079 0.1595680732
-0.0161779807 -0.0626234794 0.9118500893
-0.0125304304 -0.0629927166 0.5792681259
-0.0161801139 -0.0583752854 0.9208494481
-0.0173910648 -0.0566368312 0.5624232150
-0.0239414576 -0.0565000027 0.3683842559
-0.0187069091 -0.0565000027 0.5048851004
-0.0189405885 -0.0565000027 0.8363258655
-0.0256484279 -0.0566247386 0.6205793363
-0.0278597116 -0.0584856486 0.5206653216
-0.0322953550 -0.0748154086 0.5016418171
-0.0286756717 -0.0613065694 0.3898460682
-0.0289058332 -0.0621655440 0.3374470436
-0.0283292561 -0.0600137285 0.8232483817
-0.0299619860 -0.0661071586 0.3013705658
-0.0307855917 -0.0691808966 0.9253344468
-0.0319050102 -0.0733586249 0.1959475723
-0.0325603569 -0.0762364872 0.7281670509
-0.0297592465 -0.0794752488 0.4399153251
-0.0319259598 -0.0784006828 0.1748639896
-0.0292387458 -0.0794999972 0.3600147510
-0.0230164388 -0.0794999972 0.4946600126
-0.0241655114 -0.0794999972 0.6529349780
-0.0258862820 -0.0794999972 0.6392228219
-0.0184599422 -0.0793290140 0.6878440799
-0.0175403155 -0.0788326800 0.3995583341
-0.0142884304 -0.0779280699 0.4049745494
-0.0154825091 -0.0753553990 0.5195121282
-0.0164999999 -0.0732972763 0.5782684462
-0.0164999999 -0.0745340842 0.4507784689
-0.0164999999 -0.0689494154 0.8741058563
-0.0164999999 -0.0655332378 0.5248929334
-0.0164999999 -0.0719925924 0.1144965655
-0.0195000004 -0.0301253098 0.3423473078
-0.0197521167 -0.0321543260 0.1119739972
-0.0238083478 -0.0374426233 0.2343868951
-0.0205015876 -0.0332101611 0.5063317854
-0.0225929572 -0.0358869934 0.7290879294
-0.0248476753 -0.0390053926 0.4776041689
-0.0212373687 -0.0463838807 0.2899566842
-0.0242459654 -0.0448731252 0.2520190803
-0.0255222080 -0.0425393030 0.6090092527
-0.0255304145 -0.0410366619 0.6808242401
-0.0137878899 -0.0465000011 0.7482399705
-0.0204039422 -0.0465000011 0.4833089570
-0.0195850088 -0.0465000011 0.7705655868
-0.0124514206 -0.0461834727 0.5038845012
-0.0115000000 -0.0285511630 0.0657751441
-0.0115000000 -0.0298608285 0.6021044706
-0.0115000000 -0.0318633196 0.4988555199
-0.0115000000 -0.0396100004 0.1305136143
-0.0115000000 -0.0330054475 0.6820534362
-0.0115000000 -0.0328537064 0.7382172355
-0.0115000000 -0.0431181158 0.5686334856
-0.0115000000 -0.0398188256 0.7310013742
-0.0116626275 -0.0272190873 0.6874329318
-0.0168025754 -0.0259999987 0.5794972572
-0.0150465078 -0.0259999987 0.6651126360
-0.0164999999 0.0692815988 0.6162704239
-0.0164999999 0.0726401345 0.3289754426
-0.0164999999 0.0729468168 0.9372636561
-0.0164999999 0.0641524066 0.6629512098
-0.0164999999 0.0668606549 0.1644911089
-0.0162264939 0.0749258596 0.2119777374
-0.0148768942 0.0774641891 0.5260472609
-0.0158166195 0.0778374983 0.9180045134
-0.0187499326 0.0794067149 0.9018689624
-0.0239685668 0.0794999972 0.9499302324
-0.0241060766 0.0794999972 0.4474365721
-0.0257069433 0.0794999972 0.4164092646
-0.0257453604 0.0794999972 0.3191598082
-0.0304465806 0.0793315015 0.6741329447
-0.0323151280 0.0776464139 0.5751028033
-0.0309443802 0.0791693007 0.4540051393
-0.0313570006 0.0713134246 0.5836756333
-0.0322097807 0.0744960414 0.1316474405
-0.0286533005 0.0612230774 0.7425148132
-0.0320677165 0.0739658515 0.9266362807
-0.0286540691 0.0612259459 0.2941872340
-0.0318919833 0.0733100070 0.3145247681
-0.0313688702 0.0713577231 0.6835066923
-0.0276492229 0.0580813009 0.8725378969
-0.0257422528 0.0566455352 0.1157065864
-0.0190995953 0.0564999953 0.4585590784
-0.0222163861 0.0564999953 0.1960606559
-0.0232478710 0.0564999953 0.6466445889
-0.0172155773 0.0567550059 0.5977073381
-0.0153929170 0.0588297719 0.1054901558
-0.0138490753 0.0584556115 0.8264369956
-0.0159807084 0.0625095851 0.5383812378
-0.0375000015 0.0645788191 0.7339472956
-0.0375000015 0.0697692703 0.3327542689
-0.0375000015 0.0660551416 0.6526541793
-0.0375000015 0.0623639109 0.9031410758
-0.0375000015 0.0621146707 0.3857395618
-0.0402030889 0.0747253876 0.7490651241
-0.0442258132 0.0761895427 0.2971722342
-0.0463137229 0.0769494798 0.2339449643
-0.0448798419 0.0764275893 0.0877258792
-0.0540961983 0.0780000016 0.4892273017
-0.0535392613 0.0780000016 0.9154972780
-0.0514078367 0.0780000016 0.9538865341
-0.0544998759 0.0798314237 0.4335494664
-0.0549285376 0.0816885384 0.1171254516
-0.0570751712 0.0786377501 0.6516082611
-0.0614266252 0.0780000016 0.3597782617
-0.0577675280 0.0780000016 0.8761300593
-0.0634881303 0.0784557193 0.3299944455
-0.0634999946 0.0793782536 0.4799072645
-0.0574320027 0.0848148592 0.3598093467
-0.0605003140 0.0834998660 0.2768739637
-0.0612343232 0.0831852900 0.3675788023
-0.0499199522 0.0850000009 0.3051518831
-0.0515596948 0.0850000009 0.1584396101
-0.0443669257 0.0850000009 0.5981872559
-0.0447814054 0.0850000009 0.9684802126
-0.0546443409 0.0850000009 0.2884084812
-0.0507350036 0.0850000009 0.7448140305
-0.0432652775 0.0847768109 0.8351834947
-0.0444110327 0.0835702456 0.4936983394
-0.0445999987 0.0832662564 0.8216727375
-0.0432499982 0.0797545763 0.6381855689
-0.0388567860 0.0806000009 0.4738615920
-0.0384000018 0.0814233893 0.0804735046
-0.0387308116 0.0835999995 0.5709617597
-0.0372024747 0.0850000009 0.4069388698
-0.0364448563 0.0850000009 0.4367156217
-0.0389216660 0.0850000009 0.5888997367
-0.0224801961 0.0844999999 0.8151610540
-0.0252200133 0.0844999999 0.2704344872
-0.0244752975 0.0844999999 0.4775354072
-0.0285160255 0.0844999999 0.7139058415
-0.0252978147 0.0844999999 0.8698382230
-0.0275550203 0.0844999999 0.5034201504
-0.0164279299 0.0850000009 0.0921726835
-0.0179854181 0.0850000009 0.5845224490
-0.0191175563 0.0850000009 0.9070301517
-0.0075363082 0.0823886133 0.3757861946
-0.0093375511 0.0830640800 0.5687337082
-0.0082868720 0.0826700749 0.4791395504
-0.0095085707 0.0831282123 0.8407852769
-0.0049515341 0.0814193222 0.0760767832
-0.0055000009 -0.0153007915 0.3701440769
-0.0055000009 0.0052031943 0.1749410796
-0.0055000009 0.0029987037 0.1718824344
-0.0055000009 -0.0081149621 0.4624833337
-0.0055000009 0.0054121173 0.0607004767
-0.0055000009 -0.0192182649 0.5165980646
-0.0055000009 -0.0418198033 0.1228431620
-0.0055000009 0.0063782574 0.2769294830
-0.0055000009 -0.0392063897 0.4369994761
-0.0055000009 -0.0141226983 0.2635986885
-0.0055000009 -0.0346918060 0.7053884474
-0.0055000009 -0.0380341429 0.6158902086
-0.0055000009 -0.0052732518 0.3621070530
-0.0055000009 -0.0002536676 0.3080231868
-0.0055000009 -0.0183265247 0.5413113012
-0.0055000009 0.0034762671 0.3920737436
-0.0055000009 -0.0417497926 0.2331446078
-0.0055000009 -0.0384930712 0.6315492141
-0.0055000009 0.0084964356 0.2584933398
-0.0055000009 0.0210875427 0.9416011917
-0.0055000009 -0.0137023562 0.7475058711
-0.0055000009 -0.0179375923 0.9097771513
-0.0055000009 -0.0296292425 0.8552232752
-0.0055000009 0.0008835152 0.9110769921
-0.0055000009 -0.0064202664 0.7521788122
-0.0055000009 0.0058960539 0.7544641973
-0.0055000009 0.0392878761 0.9188365851
-0.0055000009 -0.0227516857 0.8867154897
-0.0055000009 0.0373255792 0.7824271036
-0.0055000009 -0.0033660353 0.8725258435
-0.0055000009 -0.0054756779 0.9309531082
-0.0055000009 -0.0340615486 0.8926881595
-0.0055000009 0.0240980618 0.5279167029
-0.0055000009 -0.0158973619 0.9668300705
-0.0055000009 0.0375378984 0.3416668019
-0.0055000009 0.0157826010 0.6447215154
-0.0055000009 0.0178932595 0.9498096927
-0.0055000009 -0.0154423782 0.6941928972
-0.0075192485 -0.0823822211 0.0637213633
-0.0096058930 -0.0831647119 0.2056904463
-0.0139152851 -0.0847807320 0.3587964470
-0.0105375453 -0.0835140811 0.4708014360
-0.0050507996 -0.0814565538 0.6776178488
-0.0187861535 -0.0850000009 0.5229994003
-0.0187315832 -0.0850000009 0.6448363145
-0.0171897598 -0.0850000009 0.6160911463
-0.0306690717 -0.0844999999 0.7049790702
-0.0313047564 -0.0844999999 0.4043391875
-0.0277263726 -0.0844999999 0.3322431352
-0.0243817817 -0.0844999999 0.3632514841
-0.0233343105 -0.0844999999 0.2490586556
-0.0218087561 -0.0844999999 0.6977113037
-0.0339572900 -0.0850000009 0.0601397313
-0.0338108131 -0.0850000009 0.9342892161
-0.0342519598 -0.0850000009 0.9646493604
-0.0387677958 -0.0835999995 0.5202229439
-0.0384000018 -0.0814888238 0.6359738997
-0.0388530975 -0.0806000009 0.4683681210
-0.0432499982 -0.0798746148 0.7249311203
-0.0445999987 -0.0830818551 0.0612207056
-0.0444931368 -0.0835248253 0.2275449437
-0.0432570057 -0.0847261549 0.4894421734
-0.0566191308 -0.0850000009 0.2541795114
-0.0556075736 -0.0850000009 0.8289058903
-0.0546889524 -0.0850000009 0.4338431071
-0.0481760791 -0.0850000009 0.5549721893
-0.0533556442 -0.0850000009 0.8311866039
-0.0485799189 -0.0850000009 0.4939386267
-0.0599308531 -0.0837439212 0.1107066376
-0.0575012050 -0.0847852010 0.6881567956
-0.0605179273 -0.0834923175 0.9383068684
-0.0634999946 -0.0799021046 0.3756610052
-0.0634999946 -0.0812126390 0.4258377321
-0.0610858131 -0.0780000016 0.1484011971
-0.0600272230 -0.0780000016 0.7726473041
-0.0569815919 -0.0787998351 0.3016757661
-0.0575377886 -0.0799739953 0.4989893228
-0.0563344873 -0.0820658882 0.2357584328
-0.0545037912 -0.0810687213 0.3587194102
-0.0549022857 -0.0792980906 0.4352374013
-0.0512051557 -0.0780000016 0.6076613687
-0.0521703261 -0.0780000016 0.8679837796
-0.0539403897 -0.0780000016 0.4834137447
-0.0396267126 -0.0745156105 0.7698437560
-0.0430106265 -0.0757472563 0.4770057269
-0.0435389752 -0.0759395562 0.3730895540
-0.0416013030 -0.0752343001 0.8713672646
-0.0375000015 -0.0671679918 0.3389116390
-0.0375000015 -0.0708741607 0.9249070219
-0.0375000015 -0.0637285152 0.4826831262
-0.0375000015 -0.0686344402 0.2264823259
-0.0359217831 -0.0615338374 0.8116149134
-0.0345000029 -0.0610089658 0.7689417349
-0.0345000029 -0.0485005301 0.2684848876
-0.0345000029 -0.0503984861 0.5726008951
-0.0345000029 -0.0509034168 0.1247106008
-0.0296149509 -0.0351291193 0.6585929463
-0.0285409163 -0.0337544174 0.9203782068
-0.0258380686 -0.0302949301 0.3185254836
-0.0343464448 -0.0411851528 0.7678930490
-0.0330142962 -0.0394800807 0.5060963675
-0.0277430587 -0.0327332061 0.1459316683
-0.0309065250 -0.0367822576 0.6420148354
-0.0254999995 -0.0284963421 0.7166227617
-0.0254999995 -0.0207946679 0.0888032517
-0.0254999995 -0.0284147386 0.6344632462
-0.0254999995 -0.0080089123 0.1081804723
-0.0254999995 0.0080776833 0.1805241873
-0.0254999995 -0.0229085557 0.5853628972
-0.0254999995 -0.0203958333 0.4407563292
-0.0254999995 -0.0163639328 0.4360441455
-0.0254999995 -0.0219199762 0.3430834417
-0.0254999995 0.0259272426 0.4131351423
-0.0254999995 0.0278799511 0.1450160315
-0.0254999995 0.0194451568 0.1908409139
-0.0254999995 0.0195039627 0.3502074758
-0.0254999995 -0.0093437220 0.7074737137
-0.0254999995 0.0206289502 0.6731515157
-0.0254999995 0.0226590463 0.7788859595
-0.0254999995 0.0175423244 0.4924687159
-0.0254999995 -0.0070410108 0.7504296622
-0.0254999995 0.0172959326 0.7184806497
-0.0254999995 -0.0088356349 0.6970693653
-0.0254999995 -0.0078016991 0.5955141342
-0.0254999995 0.0267237770 0.8077844223
-0.0254999995 0.0187849806 0.8197358809
-0.0254999995 0.0137964557 0.2456628762
-0.0254999995 -0.0054536042 0.8345926859
-0.0294450229 0.0349116197 0.2343811212
-0.0258498886 0.0303100604 0.2773257329
-0.0344753150 0.0413500969 0.7352204441
-0.0332580728 0.0397921018 0.7918202737
-0.0266069062 0.0312789987 0.8231556602
-0.0292004230 0.0345985455 0.8239566847
-0.0349446288 0.0480999984 0.0784241326
-0.0345000029 0.0606395904 0.5604534337
-0.0187701212 0.0264895063 0.1943424512
-0.0142223425 0.0260000024 0.3420572241
-0.0168316561 0.0260000024 0.2968602898
-0.0119774580 0.0267904922 0.6675020135
-0.0115000000 0.0346392917 0.8609461582
-0.0115000000 0.0311528893 0.4210898930
-0.0115000000 0.0308783516 0.5761372814
-0.0115000000 0.0304078182 0.4082918058
-0.0115000000 0.0354537652 0.1539475989
-0.0115000000 0.0365164283 0.3991023726
-0.0115000000 0.0443189276 0.9198071923
-0.0115000000 0.0293408528 0.0749257719
-0.0121821084 0.0459785746 0.4829356749
-0.0186811081 0.0464999974 0.5640846761
-0.0197831015 0.0464999974 0.8457225178
-0.0135091506 0.0464999974 0.3907991832
-0.0255217703 0.0420789851 0.9041380181
-0.0252472050 0.0397782954 0.6125021029
-0.0227472487 0.0459556231 0.2046797908
-0.0240078885 0.0450450838 0.9398604186
-0.0254591176 0.0426686538 0.5680957287
-0.0231311760 0.0365758790 0.1017652674
-0.0235581045 0.0371223234 0.6064825409
-0.0225207265 0.0357945402 0.3775311669
-0.0196190594 0.0319092628 0.3737527788
-0.0198069749 0.0184828621 0.9072344202
-0.0205000006 0.0164261282 0.4521816762
-0.0205000006 -0.0118007532 0.1830082670
-0.0205000006 -0.0066731230 0.5129163241
-0.0205000006 -0.0168214741 0.5456176581
-0.0205000006 -0.0158043394 0.6905936316
-0.0205000006 -0.0076630638 0.4508616753
-0.0205000006 -0.0111902787 0.1065107579
-0.0205000006 0.0086255731 0.7595988239
-0.0205000006 -0.0002908926 0.9165916215
-0.0205000006 0.0090736050 0.3962555212
-0.0205000006 0.0077094707 0.4989953678
-0.0205000006 0.0102718612 0.6422415270
-0.0205000006 0.0094003947 0.4002626039
-0.0205000006 0.0157959014 0.9255907489
-0.0204679508 -0.0171601372 0.2474367983
-0.0190092287 -0.0189005773 0.5955324243
-0.0177051650 -0.0189999994 0.5570964026
-0.0155561474 -0.0189999994 0.2579052408
-0.0118735569 -0.0188321447 0.7439164984
-0.0106977454 -0.0177379969 0.2613175752
-0.0104999999 0.0165120843 0.1594887786
-0.0104999999 -0.0151040044 0.1899912597
-0.0104999999 -0.0055729583 0.1455056838
-0.0104999999 0.0101764980 0.3536326801
-0.0104999999 -0.0094256253 0.3523957708
-0.0104999999 0.0053185599 0.4104096381
-0.0104999999 0.0135223012 0.5331303503
-0.0104999999 0.0045159964 0.6039619281
-0.0104999999 -0.0068291507 0.4877126501
-0.0104999999 0.0152469548 0.6934320242
-0.0104999999 -0.0026500575 0.7855457144
-0.0104999999 -0.0056584281 0.7117607886
-0.0104999999 0.0008987708 0.8644186454
-0.0104999999 0.0076536137 0.9625179509
-0.0104999999 -0.0132287024 0.8924473024
-0.0106890865 0.0178205102 0.5883511380
-0.0180011372 -0.0260996814 0.7980136355
-0.0194185973 -0.0275907594 0.7919570072
-0.0195000004 0.0294525108 0.3730077587
-0.0143618314 0.0189999549 0.1352555095
-0.0135742452 0.0189999997 0.6320830301
-0.0180295110 0.0190000011 0.2966867747
-0.0076165501 -0.0122617234 0.0590999946
-0.0066705162 0.0372745127 0.9710999727
-0.0580150879 0.0809620398 0.9710999727
-0.0350000039 -0.0579930708 0.3795230645
-0.0350000039 -0.0598084825 0.5714322265
-0.0350000039 -0.0458044490 0.1825393494
-0.0350000039 -0.0440906383 0.7365312926
-0.0350000039 -0.0441645631 0.7213709872
-0.0350000039 0.0475116420 0.6408868945
-0.0350000039 0.0426804301 0.1842524927
-0.0350000039 0.0559343552 0.0947669064
-0.0350000039 0.0588903132 0.7735059150
-0.0350000039 0.0575403327 0.7474155851
-0.0372900138 -0.0615000017 0.3104216107
-0.0107593153 0.0692956728 0.2543887192
-0.0326436805 0.0684147676 0.6353661189
-0.0431317000 -0.0761165034 0.8883585787
-0.0233284080 0.0290979746 0.0790999755
-0.0220538536 -0.0519894254 0.4372079446
-0.0068664659 -0.0706780909 0.9108183016
-0.0407975525 -0.0106435819 0.9576802318
-0.0832936276 -0.0415000021 0.9616536301
-0.0498991466 0.0614999980 0.9519257439
-0.0409069774 0.0266956644 0.9710999727
-0.0768305066 0.0092478802 0.9710999727
-0.0749593389 -0.0259939867 0.9510999918
-0.0307211701 0.0337914164 0.9510999918
-0.0756062286 0.0132645633 0.9510999918
-0.0845416095 -0.0414583925 0.9689530240
-0.0240000021 0.0113982160 0.9623899308
-0.0485171527 0.0559557737 0.6780019069
-0.0425378802 0.0539287892 0.0774306866
-0.0474261963 0.0421855638 0.6746546600
-0.0513000004 0.0539794047 0.2252006373
-0.0513000004 0.0529756931 0.2973429904
-0.0513000004 0.0538908018 0.5069198695
-0.0513000004 0.0483500459 0.6143005234
-0.0513000004 0.0504126643 0.7887036400
-0.0513000004 0.0434980009 0.1663386345
-0.0504692909 0.0601617350 0.4430603044
-0.0482432721 0.0614999384 0.1887776287
-0.0474282888 0.0608249037 0.8312910624
-0.0439038609 0.0594991744 0.2091431102
-0.0436881461 0.0594991744 0.6607477096
-0.0388021053 0.0614971599 0.4975479310
-0.0404384888 0.0598607489 0.8603154026
-0.0377552807 0.0614992157 0.9026381954
-0.0350000039 0.0576690847 0.1337945475
-0.0350000039 0.0557165035 0.8236418167
-0.0350000039 0.0568196499 0.7468372338
-0.0355000012 0.0515160591 0.2408767244
-0.0355000012 0.0482744075 0.5345691070
-0.0355000012 0.0480319555 0.9024550908
-0.0349999815 0.0466568184 0.8566480306
-0.0351994746 0.0443126762 0.1079319444
-0.0358978350 0.0416014153 0.7482243579
-0.0376242158 0.0414992161 0.5608903195
-0.0401026536 0.0428018672 0.3530880944
-0.0419304036 0.0434991904 0.2378826228
-0.0425433000 0.0434991904 0.7506206128
-0.0453466413 0.0434532715 0.2414325584
-0.0479467902 0.0415036753 0.3622394988
-0.0508621280 0.0430005051 0.4635691522
-0.0379008968 0.0509952011 0.3219647362
-0.0461631243 0.0493615329 0.8032769778
-0.0442812889 -0.0512639235 0.4437867522
-0.0461899012 -0.0599471352 0.8627954865
-0.0513000004 -0.0536857178 0.0936801974
-0.0513000004 -0.0533842489 0.2678166563
-0.0513000004 -0.0540483801 0.4174933828
-0.0513000004 -0.0535181721 0.5698282860
-0.0513000004 -0.0574844297 0.6879559974
-0.0513000004 -0.0453704390 0.8494602037
-0.0513000004 -0.0582864634 0.5873693157
-0.0501875278 -0.0425789586 0.6842023189
-0.0485541687 -0.0415000618 0.6315583666
-0.0469234538 -0.0427491927 0.4956504244
-0.0416732110 -0.0435008220 0.6346639930
-0.0435125939 -0.0435008220 0.4981187367
-0.0398714651 -0.0425722160 0.2992780674
-0.0365713876 -0.0415007845 0.7341991005
-0.0351119524 -0.0423888839 0.8401851884
-0.0350000039 -0.0470651063 0.0679708525
-0.0350000039 -0.0427569548 0.2092873504
-0.0352489579 -0.0476497378 0.3769981559
-0.0355000012 -0.0548997919 0.4638792912
-0.0355000012 -0.0508810650 0.6727836022
-0.0354256358 -0.0551751491 0.3611880915
-0.0350330498 -0.0571644970 0.5882033793
-0.0350000039 -0.0601664428 0.5752484705
-0.0351609818 -0.0606617151 0.8939514705
-0.0366280604 -0.0615007840 0.6677745919
-0.0390830438 -0.0612177445 0.7369402936
-0.0448185793 -0.0595008098 0.4347935846
-0.0410204201 -0.0595008098 0.7594876401
-0.0479203886 -0.0614939638 0.1867906742
-0.0499357254 -0.0606976075 0.5019986472
-0.0420336453 -0.0526806076 0.0640999898
-0.0374596008 -0.0521705710 0.5019203161
-0.0401888856 -0.0100430335 0.1823397595
-0.0539217755 0.0104387185 0.1818062707
-0.0549593777 -0.0157835920 0.2369499952
-0.0397976918 -0.0103299144 0.1998626487
-0.0642984325 0.0035060333 0.2138841767
-0.0692052077 -0.0102488722 0.2173191866
-0.0722340478 0.0082996557 0.2270999700
-0.0764962733 -0.0136541546 0.2288247091
-0.0457624355 0.0056327004 0.2265135616
-0.0433896443 0.0133557942 0.2370999604
-0.0392274770 -0.0047408100 0.0643738400
-0.0682451382 -0.0025826000 0.0432449535
-0.0477477245 0.0066674429 0.0652943440
-0.0672517648 0.0063598637 0.0550731932
-0.0337697984 0.0213167903 0.0724005883
-0.0502975078 0.0153657631 0.0676852139
-0.0351109184 -0.0046797755 0.0716184095
-0.0608196250 0.0074147384 0.0440446640
-0.0522814891 0.0107666389 0.0704088793
-0.0467802617 -0.0002457451 0.0481784421
-0.0599068097 -0.0180148579 0.0573806633
-0.0406569019 -0.0188811267 0.0681000575
-0.0733406991 -0.0251771370 0.0618145729
-0.0472806631 -0.0182985598 0.0568837469
-0.0346398108 0.0022747630 0.0498853260
-0.0596711016 0.0052662024 0.0222296946
-0.0518468465 -0.0094377071 0.5864294126
-0.0560378567 -0.0098678176 0.7334178023
-0.0562188249 -0.0098146320 0.4974536257
-0.0606888505 -0.0078113082 0.5241524053
-0.0607862553 -0.0077676545 0.2946536157
-0.0612586534 -0.0071383885 0.2385795866
-0.0637028763 -0.0037568105 0.2972790553
-0.0638841951 -0.0031745948 0.5288709621
-0.0640773566 -0.0012924028 0.0788512175
-0.0628812171 0.0049172126 0.6969530386
-0.0626549768 0.0054220251 0.1256722288
-0.0614262514 0.0069119882 0.7803737419
-0.0599013693 0.0080141800 0.1239113545
-0.0582275213 0.0092240450 0.3814389295
-0.0576404265 0.0093876991 0.3508115698
-0.0558887122 0.0095674726 0.2168151840
-0.0520932178 0.0095063130 0.4210876215
-0.0494005127 0.0082995268 0.5799801261
-0.0478019699 0.0072222596 0.4945630993
-0.0453157552 0.0037825855 0.4381477968
-0.0451170115 0.0031863433 0.3875254192
-0.0446439406 -0.0014232900 0.6088488198
-0.0448426265 0.0005127177 0.3515542701
-0.0450765917 -0.0025917648 0.6273279905
-0.0459085643 -0.0044481508 0.1470798488
-0.0468061176 -0.0063571406 0.8079160871
-0.0508504773 -0.0092804229 0.2277274575
-0.0483039741 0.0041641251 0.0258183994
-0.0624183638 0.0136095374 0.9643698196
-0.0640270114 -0.0087466949 0.9564135972
-0.0650073171 0.0124734367 0.9541000128
-0.0583676749 0.0100678511 0.9624957114
-0.0150389358 -0.0839859327 0.9750693314
-0.0421156747 0.0035339075 0.9760999680
-0.0377733153 -0.0390582230 0.9760999680
-0.0316840775 0.0030163766 0.9760999680
-0.0101825993 0.0553414184 0.9760999680
-0.0707355093 0.0054964930 0.9760999680
-0.0567359043 -0.0082716042 0.9760999680
-0.0633275292 -0.0716818877 0.9760999680
-0.0103658414 0.0055177866 0.9710999727
-0.0429655507 -0.0077425772 0.9710999727
-0.0432130677 0.0539582303 0.9710999727
-0.0328040855 0.0614613884 0.9710999727
-0.0683071953 -0.0558860931 0.9710999727
-0.0708226760 -0.0161046326 0.9710999727
-0.0717593444 0.0252996321 0.9710999727
-0.0519651872 -0.0221967604 0.0192285034
-0.0409377433 0.0111379487 0.0370355472
-0.0708422508 -0.0066654651 0.0313127725
-0.0693898312 0.0124558047 0.0319054839
-0.0622827569 -0.0083033313 0.0117770499
-0.0644952530 0.0494905167 0.0745134553
-0.0478085415 0.0254591285 0.9433249449
-0.0811799715 -0.0633560245 0.5464053783
-0.0886560662 -0.0277988915 0.4273251465
-0.0940590806 0.0379834353 0.4013297901
-0.0810850446 0.0502001961 0.3638199234
-0.0885044395 -0.0336377432 0.4036315356
-0.0960133950 0.0446308687 0.8271220790
-0.0959981680 0.0448386481 0.8522249684
-0.0921193074 0.0633760163 0.6958244408
-0.0930692488 0.0593655013 0.5124552889
-0.0934570680 0.0577281849 0.4072248145
-0.0923602636 0.0623587339 0.6624423095
-0.0956588531 0.0484325675 0.9087404011
-0.0918288978 0.0646020835 0.9150346291
-0.0957855791 0.0478975484 0.2365781485
-0.0922112757 0.0629877393 0.8668196447
-0.0943693714 0.0538765720 0.6866340189
-0.0907452505 0.0680120760 0.2385413079
-0.0884238987 0.0697648455 0.7272433245
-0.0845274472 0.0700000003 0.4413750243
-0.0838669342 0.0700000003 0.9276297442
-0.0822879774 0.0698900904 0.5416373170
-0.0810434011 0.0684688156 0.2219525931
-0.0809981674 0.0659779144 0.1277311498
-0.0809981674 0.0674521818 0.4766998125
-0.0823261269 0.0629919556 0.1384132339
-0.0829981640 0.0680679496 0.1567779422
-0.0829981640 0.0640698947 0.5324849725
-0.0863809188 0.0681999996 0.1861193919
-0.0856930953 0.0681999996 0.6582368397
-0.0885636564 0.0678048854 0.6790185334
-0.0936460891 0.0491205596 0.4150370246
-0.0937670172 0.0486100188 0.6334137062
-0.0899031427 0.0649227384 0.1212777901
-0.0940976548 0.0472141146 0.3767235312
-0.0921478046 0.0554461005 0.0661835133
-0.0898662050 0.0650786844 0.1770947990
-0.0896178481 0.0661272112 0.7538651062
-0.0912281321 0.0593288250 0.4217538359
-0.0902584375 0.0634227353 0.6358025612
-0.0941981673 0.0437025709 0.2726371477
-0.0941981673 0.0461064016 0.9302119626
-0.0938589996 0.0423640274 0.3518975996
-0.0921760966 0.0418790318 0.2641143365
-0.0897310787 0.0420842062 0.5212718462
-0.0884039870 0.0431144319 0.8421496190
-0.0862876500 0.0447500680 0.5857555705
-0.0843244414 0.0449952297 0.7179364431
-0.0827963278 0.0492553702 0.3647570919
-0.0827963278 0.0485400197 0.8581265889
-0.0827048579 0.0502173363 0.5272706901
-0.0809981674 0.0434337029 0.1469223928
-0.0809981674 0.0429708597 0.2450688025
-0.0809981674 0.0496918217 0.3093380818
-0.0841496297 0.0424952284 0.1314533485
-0.0833234668 0.0424952284 0.5650022631
-0.0874971893 0.0405651415 0.7353872027
-0.0864095667 0.0414114837 0.7904882518
-0.0885000005 0.0336523790 0.8253474018
-0.0885000005 0.0373770476 0.6263680942
-0.0885000005 0.0378683207 0.3042996029
-0.0885000005 0.0307680734 0.7835322984
-0.0885000005 0.0301121207 0.2149310498
-0.0895761759 0.0271497499 0.4082201401
-0.0910000056 0.0361535186 0.0885517981
-0.0910000056 0.0331432520 0.3223785312
-0.0910000056 0.0359921900 0.8959047794
-0.0910000056 0.0325126932 0.5991481227
-0.0919394080 0.0382178766 0.3378180114
-0.0947000012 -0.0229543557 0.9680865556
-0.0947000012 -0.0260123449 0.9565504944
-0.0947000012 0.0113738074 0.8724066460
-0.0947000012 0.0038469527 0.8928233162
-0.0947000012 0.0359669241 0.7241758983
-0.0947000012 0.0287570907 0.7562209295
-0.0947000012 0.0042986688 0.8478788944
-0.0947000012 -0.0068725094 0.2784891055
-0.0947000012 0.0136843503 0.7120755921
-0.0947000012 -0.0251783767 0.2618548888
-0.0947000012 -0.0118524380 0.2479197921
-0.0947000012 -0.0178925386 0.4629316861
-0.0947000012 -0.0250966360 0.9256146884
-0.0947000012 0.0063707273 0.6450209827
-0.0947000012 -0.0087442866 0.7651878313
-0.0947000012 -0.0274058254 0.3355044228
-0.0947000012 -0.0229157094 0.8423186686
-0.0947000012 -0.0114363626 0.7775140417
-0.0947000012 0.0002540179 0.3549319476
-0.0947000012 -0.0241757168 0.3047654411
-0.0947000012 -0.0227643807 0.5950342672
-0.0947000012 0.0161253547 0.4598709884
-0.0947000012 0.0237481649 0.3814240638
-0.0947000012 0.0256703776 0.3808713832
-0.0947000012 0.0338046140 0.4728101327
-0.0947000012 -0.0329050487 0.9319920344
-0.0947000012 0.0188338899 0.2399984837
-0.0947000012 0.0014712226 0.2250253158
-0.0947000012 0.0125118480 0.2319660652
-0.0947000012 -0.0189208212 0.0795665063
-0.0947000012 -0.0114132319 0.0897955532
-0.0947000012 -0.0021024813 0.0884332506
-0.0947000012 -0.0346436033 0.3103354295
-0.0947000012 -0.0347461008 0.1638531368
-0.0927256278 -0.0384057947 0.7843170389
-0.0932342903 -0.0384057947 0.2858083961
-0.0910000056 -0.0291948513 0.7933851785
-0.0910000056 -0.0329938267 0.9138982806
-0.0910000056 -0.0344934239 0.3867034927
-0.0910000056 -0.0333641371 0.3504688498
-0.0903732203 -0.0273103559 0.8011684737
-0.0885000005 -0.0312239651 0.7377139369
-0.0885000005 -0.0307913779 0.2028099033
-0.0885000005 -0.0342547975 0.7133971584
-0.0885000005 -0.0339234791 0.4809760665
-0.0882990394 -0.0398573992 0.5422286368
-0.0866481924 -0.0412257970 0.3573189969
-0.0828377139 -0.0424952321 0.1692947854
-0.0846217955 -0.0424952321 0.1667838673
-0.0809981674 -0.0474228959 0.1832589483
-0.0809981674 -0.0466620181 0.3538011573
-0.0809981674 -0.0440287948 0.3263392801
-0.0809981674 -0.0456677005 0.7162169654
-0.0824167933 -0.0505845893 0.7761620540
-0.0827963278 -0.0473738241 0.0690029336
-0.0827963278 -0.0494222207 0.1564224729
-0.0841918873 -0.0449952297 0.1469280065
-0.0858415129 -0.0449459495 0.0597657004
-0.0888104039 -0.0427981779 0.3981972270
-0.0871174596 -0.0441155548 0.3011525764
-0.0924114842 -0.0418790318 0.6563258996
-0.0936079831 -0.0421130122 0.7224512494
-0.0941981673 -0.0453289794 0.2943337461
-0.0941981673 -0.0445507710 0.4364004118
-0.0936595245 -0.0490733833 0.0511489499
-0.0901020176 -0.0640926749 0.3072608477
-0.0898707541 -0.0650690366 0.4203411145
-0.0904235597 -0.0627351694 0.5869591021
-0.0917483836 -0.0571419501 0.8619366532
-0.0937983992 -0.0484870740 0.5841650679
-0.0903028900 -0.0632446199 0.8686184891
-0.0931192016 -0.0513545503 0.9271200056
-0.0917072117 -0.0573157722 0.5590093332
-0.0887831122 -0.0676329381 0.3745116010
-0.0831281744 -0.0681997687 0.6088566854
-0.0842730533 -0.0681997687 0.9579826853
-0.0829981640 -0.0642743436 0.1402502229
-0.0829981640 -0.0680813655 0.4874681864
-0.0827464599 -0.0632861245 0.3539008000
-0.0809981674 -0.0677550716 0.5535386567
-0.0809981674 -0.0646706004 0.5178157923
-0.0818426694 -0.0697665151 0.3611027196
-0.0833946154 -0.0699997693 0.0645258181
-0.0837274063 -0.0699997693 0.9315722219
-0.0875995696 -0.0699515737 0.5016603053
-0.0903925855 -0.0685962891 0.0936865757
-0.0909752058 -0.0675424820 0.2296595026
-0.0919104988 -0.0642572190 0.1312053562
-0.0952664181 -0.0500890133 0.5495007724
-0.0926749147 -0.0610299656 0.1412365072
-0.0943181263 -0.0540925643 0.5767241134
-0.0913969285 -0.0664254385 0.6123573150
-0.0917379436 -0.0649857220 0.9605783006
-0.0918092716 -0.0646845855 0.5540604127
-0.0923751578 -0.0622954957 0.6686093824
-0.0949382945 -0.0514743038 0.8447853820
-0.0959981680 -0.0461588472 0.4484952332
-0.0964981690 0.0306420980 0.9642607388
-0.0964981690 0.0232125968 0.8266411885
-0.0964981690 0.0172049976 0.1089859573
-0.0964981690 -0.0167485643 0.1561014559
-0.0964981690 0.0216599464 0.7303330696
-0.0964981690 0.0195016677 0.5014320158
-0.0964981690 0.0252374339 0.6496486854
-0.0964981690 -0.0072120297 0.3382999658
-0.0964981690 0.0146104984 0.3345345162
-0.0964981690 0.0000000528 0.2456501200
-0.0964981690 0.0235302358 0.6292698246
-0.0964981690 -0.0227490763 0.0707981453
-0.0964981690 0.0279482122 0.5720821103
-0.0964981690 0.0310550499 0.2096319504
-0.0964981690 0.0059282794 0.2606265216
-0.0964981690 0.0104137445 0.5617912102
-0.0964981690 0.0405319598 0.1418154358
-0.0964981690 0.0418344468 0.7122855772
-0.0964981690 0.0403742082 0.5959754432
-0.0964981690 0.0345495255 0.2785677575
-0.0964981690 -0.0361348560 0.0780410523
-0.0964981690 -0.0433067867 0.0960465898
-0.0964981690 -0.0279064976 0.0762586652
-0.0964981690 -0.0264341908 0.2691762274
-0.0964981690 -0.0086302392 0.6477722182
-0.0964981690 -0.0048316948 0.6635728836
-0.0964981690 -0.0041755265 0.7193367489
-0.0964981690 0.0183609169 0.8840072023
-0.0964981690 0.0059939624 0.9491357584
-0.0964981690 -0.0188295880 0.2409514152
-0.0964981690 0.0186384931 0.8278313015
-0.0964981690 -0.0233514257 0.2442760606
-0.0964981690 -0.0203454721 0.6293494059
-0.0964981690 -0.0101981053 0.4688932021
-0.0964981690 0.0195997664 0.8782835721
-0.0964981690 -0.0134978670 0.3222795038
-0.0964981690 -0.0192790617 0.4972188294
-0.0964981690 -0.0374546939 0.4012737315
-0.0964981690 -0.0390908598 0.8161780026
-0.0964981690 -0.0346568175 0.4994434295
-0.0900146160 0.0658020953 0.9710999727
0.0816771283 -0.0284617539 0.0471000299
0.0742005822 0.0020310397 0.0501000509
0.0796673449 0.0205645456 0.0501000509
0.0879999995 0.0037474612 0.0412318217
0.0976838429 0.0013617320 0.0271000471
0.0282357859 0.0024013259 0.0538157421
0.0614465435 0.0065330409 0.0368143501
0.0266705922 -0.0063931432 0.0418629790
0.0616484378 -0.0031180388 0.0536468751
-0.0692708043 -0.0119385060 0.0204891231
0.0190339059 -0.0195409235 0.0353500471
-0.0306514519 0.0211500004 0.0339722596
0.0155356286 -0.0211500004 0.0296958459
0.0258484392 0.0191500001 0.0334239908
-0.0482972247 -0.0191500001 0.0278235571
0.0785871244 0.0426916800 0.0471000299
-0.0691136858 -0.0456097890 0.0059170172
-0.0347920706 -0.0179379384 0.0503936885
-0.0766543065 -0.0128686924 0.0471000299
0.0951554294 0.0301757737 0.0471000299
-0.0063078991 -0.0752751244 0.0471000299
-0.0227227003 -0.0516327339 0.0471000299
-0.0201375992 -0.0304279923 0.0471000299
0.0744500321 -0.0443905632 0.0471000299
0.0432971146 0.0396622626 0.0471000299
-0.0748821243 0.0054432734 0.0590999946
0.0128431053 -0.0364736577 0.0590999946
-0.0787532555 -0.0652013824 0.0590999946
0.0910689526 -0.0404458254 0.0590999946
0.0024852526 -0.0184213004 0.0590999946
-0.0203294543 -0.0484938554 0.0590999946
-0.0338285349 0.0453262796 0.0590999946
-0.0562319274 0.0637769342 0.0590999946
-0.0190736372 0.0370076454 0.0590999946
-0.0804999992 0.0430883204 0.0582110333
0.0511216621 0.0500000007 0.0500176983
0.0843484429 -0.0500000007 0.0500758915
-0.0496884044 -0.0850000009 0.0516095768
0.0234179392 0.0298575735 0.0575211211
-0.0124746507 0.0639769470 0.0535000190
0.0209296037 -0.0371956988 0.0501000509
0.0845705333 0.0202404980 0.0501000509
0.0946822747 -0.0143698892 0.0471000299
-0.0349330787 0.0201915967 -0.0000000385
-0.0143438558 -0.0112901460 -0.0000000385
-0.0568832770 0.0212074558 -0.0000000385
-0.0839162614 0.0211566386 -0.0000000385
0.0536551024 0.0026235468 -0.0000000385
0.0469811905 -0.0327022622 -0.0000000385
0.0435510121 -0.0393271310 -0.0000000385
0.0476315121 0.0442927634 -0.0000000385
-0.0724184386 -0.0151865557 0.0020000550
0.0573165715 0.0462311806 0.0020000550
0.0006826725 -0.0417877784 0.0020000550
-0.0197446910 -0.0382046985 0.0020000550
-0.0286527203 -0.0127482435 0.0020000550
0.0717708614 -0.0177920829 0.0020000550
0.0581360851 -0.0185062493 0.0020000550
0.0732285405 -0.0284749957 0.0020000550
0.0868454757 -0.0174045241 0.0020000550
-0.0887576156 -0.0500000007 0.0121251678
-0.0560664994 -0.0500000007 0.0281181196
0.0522049703 -0.0500000007 0.0329334687
0.0311479193 -0.0500000007 0.0323155861
-0.0552176257 -0.0480000004 0.0095164585
-0.0299676994 -0.0480000004 0.0047066432
-0.0752325174 -0.0480000004 0.0374072183
-0.0760480909 -0.0480000004 0.0357138594
-0.0423595845 -0.0492959779 0.0471000299
0.0000255343 0.0500000007 0.0461294348
0.0345175679 0.0500000007 0.0337982490
-0.0043351433 0.0500000007 0.0225954214
0.0291900748 0.0500000007 0.0085335803
0.0110370160 0.0480000004 0.0084755492
-0.0607520666 0.0480000004 0.0054628139
-0.0543463874 0.0480000004 0.0253484421
0.0445829314 0.0480000004 0.0455157761
-0.0511179442 0.0487343901 0.0471000299
0.0965000018 0.0135715123 0.0288911186
0.0965000018 0.0310870877 0.0043684062
0.0944999978 -0.0162218969 0.0240854117
0.0944999978 0.0304918209 0.0359136382
-0.0965000018 -0.0185015994 0.0237146976
-0.0965000018 0.0307811077 0.0356193393
-0.0944999978 0.0068779577 0.0225374283
-0.0944999978 -0.0189998569 0.0221610300
0.0965000018 -0.0476552469 0.0458462147
0.0904541954 -0.0030154000 0.1347623730
0.0539026795 -0.0028597014 0.0431675688
0.0779146981 -0.0116438352 0.0572746898
0.0349660024 -0.0137637750 0.0561000034
0.0345892497 0.0189359723 0.0561000034
0.0814006559 -0.0259952294 0.1930462997
0.0333332307 -0.0395155880 0.1659875695
0.0050000008 0.0133497620 0.1693202037
0.0561212404 0.0396803314 0.1861358709
0.0850000009 -0.0101209651 0.1775407778
0.0677684311 0.0390324697 0.1846592629
0.0102779578 -0.0005111326 0.2011000067
0.0531261854 0.0027644278 0.2011000067
0.0917497139 0.0009924000 0.1812201674
0.0829708530 -0.0258801819 0.0927175537
0.0586626507 -0.0395643656 0.1460627060
0.0384626173 -0.0398994251 0.1301290867
0.0551190794 -0.0397686318 0.1026145248
0.0151692752 -0.0264766047 0.0925125952
0.0050000008 0.0295814859 0.0591788833
0.0050000008 -0.0026019620 0.0882458194
0.0069253975 0.0255249880 0.0730912992
0.0186793591 0.0322247222 0.1555420413
0.0458708429 0.0399632871 0.1294188454
0.0286706011 0.0393116013 0.1325574638
0.0331802626 -0.0386941863 0.0590999946
0.0660043302 -0.0345188385 0.0590999946
0.0849999967 -0.0235776398 0.0659634094
0.0850000009 -0.0036078098 0.1485479867
0.0849999919 0.0173284323 0.0893565557
-0.0599806061 0.0761103468 0.3526153258
