0.0625000000 0.0028362212 -0.0034522563
0.0625000000 -0.0041496127 0.0017264938
0.0815000013 0.0054789661 0.0009689800
0.0815000013 -0.0054031153 -0.0028896802
0.0672389804 0.0060000001 -0.0015744688
0.0707185905 0.0060000001 -0.0002172222
0.0724558457 0.0060000001 -0.0027523423
0.0696534226 0.0060000001 -0.0020482386
0.0810060108 0.0060000001 0.0007401336
0.0805752758 0.0060000001 -0.0008685598
0.0788967807 0.0060000001 0.0013038315
0.0718056629 0.0013900173 -0.0061256763
0.0718874654 0.0021289425 -0.0056990576
0.0730660685 0.0010616917 -0.0063152352
0.0654283925 0.0010278515 -0.0063347728
0.0793423135 0.0025899738 -0.0054328811
0.0738539072 0.0027920983 -0.0053161845
0.0723017423 0.0034160030 -0.0049559730
0.0659624329 -0.0042643417 -0.0044661844
0.0706220409 -0.0028645439 -0.0052743580
0.0759239611 -0.0055412432 -0.0037289650
0.0683059264 -0.0059429233 -0.0034970549
0.0687691139 -0.0011509752 -0.0062636873
0.0786651267 -0.0024092511 -0.0055372214
0.0715018819 -0.0013221903 -0.0061648363
0.0648623265 -0.0060000001 0.0029674112
0.0746457727 -0.0060000001 0.0011084543
0.0775700412 -0.0060000001 0.0034381499
0.0685054575 -0.0060000001 0.0003691731
0.0765714937 -0.0060000001 -0.0013093123
0.0779072175 -0.0060000001 -0.0005638464
0.0791280924 -0.0060000001 -0.0004379086
0.0747665055 -0.0019731231 0.0057890200
0.0638786390 -0.0002636247 0.0067759994
0.0776570813 -0.0001381598 0.0068484365
0.0715740030 -0.0027572442 0.0053363075
0.0790385860 -0.0014162376 0.0061105380
0.0800003376 -0.0008482666 0.0064384562
0.0694543063 -0.0059384445 0.0034996407
0.0715736852 0.0047045848 0.0042120099
0.0788706691 0.0055396641 0.0037298767
0.0675003342 0.0047852030 0.0041654650
0.0714945352 0.0032597260 0.0050461995
0.0800657262 0.0002552610 0.0067808282
0.0775436648 0.0042702459 0.0044627756
0.0812102463 0.0054196198 0.0037991843
0.0790755950 -0.0040009924 0.0014891162
0.0717241329 -0.0039931545 0.0015183677
0.0697032200 -0.0036130042 0.0023975075
0.0716377743 -0.0036670893 0.0023434224
0.0671601173 -0.0025601081 0.0034504036
0.0757167620 -0.0016880181 0.0039476968
0.0649786650 -0.0011552620 0.0040904484
0.0750058997 0.0013305561 0.0040434785
0.0635597897 0.0015353834 0.0039885952
0.0812271186 0.0032562700 0.0027542416
0.0799910611 0.0026210942 0.0033894174
0.0693070898 0.0034750724 0.0025354393
0.0749782339 0.0039027933 0.0018556002
0.0628314367 0.0041616368 0.0008895834
0.0742965353 0.0041447103 -0.0009527539
0.0723773683 0.0039817855 -0.0015607975
0.0736512482 0.0032089024 -0.0028016092
0.0684724250 0.0025135294 -0.0034969823
0.0713036899 0.0027328599 -0.0032776518
0.0795011020 0.0005272503 -0.0042587237
0.0754062604 0.0006404128 -0.0042284019
0.0764331287 -0.0007223496 -0.0042064470
0.0780159432 -0.0021874786 -0.0038138668
0.0731170823 -0.0024018937 -0.0036086180
0.0743588336 -0.0032640720 -0.0027464396
0.0675590603 -0.0039627502 -0.0016318382
0.0738131755 -0.0040040103 -0.0014778534
0.0755046327 -0.0042795231 -0.0004496256
0.0625000000 0.0039912156 -0.0049944262
0.0625000000 -0.0047855551 -0.0072823376
0.0625000000 -0.0022029804 0.0060613726
0.0625000000 0.0012892134 0.0065898184
0.0625000000 -0.0070574798 -0.0014205781
0.0529999994 -0.0060546708 -0.0023361701
0.0529999994 -0.0035809161 0.0064348583
0.0529999994 0.0060309912 0.0033242626
0.0529999994 0.0057727815 -0.0033838438
0.0529999994 -0.0037687040 -0.0054433393
0.0557923553 0.0072195630 -0.0034953504
0.0552532128 0.0067766384 -0.0042625181
0.0591633885 0.0066196907 -0.0045343595
0.0616888210 0.0076587862 -0.0027345936
0.0568853674 0.0009647404 -0.0080000004
0.0567495163 0.0026906314 -0.0080000004
0.0593793203 -0.0016741745 -0.0080000004
0.0530603959 -0.0027168325 -0.0080000004
0.0591648113 -0.0055779620 -0.0063386863
0.0558686632 -0.0058436068 -0.0058785760
0.0571588294 -0.0088765246 -0.0006254092
0.0564042638 -0.0067700146 -0.0042739908
0.0599692640 -0.0081353317 0.0019091928
0.0563024089 -0.0088680498 0.0006400880
0.0601685729 -0.0056149281 0.0062746592
0.0541556894 -0.0079889818 0.0021626781
0.0537935234 -0.0038624377 0.0080000004
0.0584496141 -0.0011351972 0.0080000004
0.0552497226 0.0034308138 0.0080000004
0.0551222718 0.0015503541 0.0080000004
0.0572099958 0.0058058454 0.0059439807
0.0595316241 0.0064138803 0.0048908336
0.0608034695 0.0087551821 0.0008355806
0.0535385847 0.0068423975 0.0041486201
0.0592997983 -0.0054849523 0.0016839155
0.0570868085 -0.0054091416 0.0019914914
0.0624293220 -0.0033611690 0.0048447833
0.0617894912 -0.0018268052 0.0054338764
0.0582397520 0.0003431705 0.0057289627
0.0558948782 0.0016804027 0.0055665932
0.0619552932 0.0030721332 0.0048401752
0.0622736052 0.0051199594 0.0025715477
0.0559750030 0.0054685864 0.0019072945
0.0587756326 0.0057285568 -0.0011135383
0.0565039617 0.0055018575 -0.0018439018
0.0583978230 0.0045252539 -0.0037046644
0.0542887923 0.0027453222 -0.0050657565
0.0583753972 0.0018341548 -0.0055479243
0.0582193571 -0.0017375902 -0.0054677112
0.0537908849 -0.0014268816 -0.0055855475
0.0586415625 -0.0045585716 -0.0034931953
0.0546731795 -0.0052416789 -0.0026709141
0.0542892608 -0.0053699908 -0.0021503323
0.0574300005 -0.0046693373 -0.0077381397
0.0611262144 -0.0045219429 0.0078712525
0.0560981401 0.0090102011 0.0002713316
0.0450622394 0.0102375252 0.0039338570
0.0455688134 0.0089127723 0.0062283968
0.0499141847 0.0057554555 0.0093119271
0.0458815790 0.0024890110 0.0106221899
0.0457051002 0.0003228360 0.0108328853
0.0446753856 -0.0038422267 0.0101296598
0.0471959849 -0.0061225132 0.0090039292
0.0471440684 -0.0082435267 0.0072241877
0.0473920284 -0.0100422841 0.0042720246
0.0474653485 -0.0108950219 0.0005953602
0.0444860355 -0.0108815205 -0.0006719303
0.0447236625 -0.0087001098 -0.0065967391
0.0487766173 -0.0085628604 -0.0068344621
0.0485325254 -0.0055219840 -0.0095078330
0.0497211257 -0.0052715955 -0.0096094122
0.0461558205 -0.0008619975 -0.0108328853
0.0467255070 0.0026960154 -0.0105468464
0.0479158574 0.0064969175 -0.0086897667
0.0483528110 0.0073649809 -0.0079613751
0.0492574509 0.0095461666 -0.0051313254
0.0475342850 0.0107621003 -0.0013491959
0.0462076445 0.0108734434 0.0007177378
0.0500000007 0.0067461645 -0.0005856853
0.0500000007 0.0063446681 0.0015516084
0.0500000007 -0.0040133324 -0.0054659382
0.0500000007 -0.0000661921 -0.0067006331
0.0500000007 0.0042224057 -0.0075491025
0.0500000007 -0.0070232614 0.0052384378
0.0500000007 -0.0103152418 0.0005559760
0.0500000007 -0.0090113251 -0.0013209134
0.0500000007 0.0075871615 0.0043052671
0.0500000007 0.0061015882 0.0073011359
0.0500000007 0.0005675229 0.0078372052
0.0500000007 -0.0030034887 0.0061276158
0.0526580542 0.0061509958 0.0018795905
0.0510438912 0.0022196020 0.0060512375
0.0510662451 -0.0036076787 0.0053827750
0.0502385739 -0.0061713176 -0.0017905548
0.0517329932 -0.0040247205 -0.0051819382
0.0527047139 0.0016958454 -0.0063034654
0.0519040132 0.0061138676 -0.0020422596
0.0529999994 0.0047394193 0.0031544551
0.0529999994 -0.0042945280 0.0016178767
0.0529999994 0.0005759244 -0.0046466527
0.0478494016 0.0039399231 0.0002242106
0.0436407129 0.0026731111 0.0027909906
0.0488935939 0.0017614970 0.0035280083
0.0461717321 0.0002658812 0.0039287575
0.0500775024 -0.0010096758 0.0037294583
0.0462176624 -0.0029924766 0.0024716251
0.0436662591 -0.0035757084 0.0015834778
0.0422988856 -0.0038517856 -0.0005531443
0.0426325062 -0.0031265566 -0.0023375451
0.0523020791 -0.0032430559 -0.0022210457
0.0491821308 -0.0006878906 -0.0038156804
0.0443775253 0.0010911360 -0.0037076311
0.0424861144 0.0021761817 -0.0032879200
0.0515393251 0.0034686852 -0.0019828939
0.0481075870 0.0037717395 -0.0008518803
0.0419999994 -0.0014903631 -0.0039276079
0.0419999994 -0.0038959538 -0.0103265175
0.0419999994 -0.0090216253 -0.0070021868
0.0419999994 -0.0071805520 -0.0028735519
0.0419999994 0.0063188983 -0.0011564578
0.0419999994 0.0094777252 -0.0065724246
0.0419999994 0.0054612142 -0.0075965909
0.0419999994 0.0046801025 -0.0110399591
0.0419999994 0.0029264358 -0.0080719524
0.0419999994 0.0016904917 -0.0100615537
0.0419999994 -0.0025718812 -0.0105208135
0.0419999994 0.0059261748 0.0015121560
0.0419999994 0.0109498154 0.0029353807
0.0419999994 0.0068707070 -0.0000708269
0.0419999994 0.0029014072 0.0060881549
0.0419999994 0.0052981155 0.0060270156
0.0419999994 0.0080568300 0.0070003824
0.0419999994 0.0090135034 0.0062897274
0.0419999994 -0.0007273668 0.0111207274
0.0419999994 -0.0013023795 0.0096207683
0.0419999994 0.0010112067 0.0132522254
0.0419999994 -0.0129781283 -0.0016193837
0.0419999994 -0.0089840184 0.0019315980
0.0419999994 -0.0107837173 0.0061147576
0.0419999994 -0.0062958367 0.0047525307
0.0419999994 -0.0098005871 0.0076560747
0.0419999994 -0.0057224126 0.0102335579
0.0416937052 0.0124218650 0.0050089646
0.0371382785 0.0130853078 0.0030985653
0.0385587658 0.0117075863 0.0065595315
0.0374796589 0.0062556977 0.0118174303
0.0387020351 0.0020687761 0.0132440780
0.0411331745 -0.0019939858 0.0132093369
0.0384743443 0.0005786594 0.0134802324
0.0393316662 -0.0038958045 0.0129125243
0.0376072461 -0.0066436430 0.0117192147
0.0401694712 -0.0107782470 0.0080974029
0.0394864081 -0.0125341528 0.0048365483
0.0388113642 -0.0131597217 -0.0024402540
0.0387345681 -0.0132151547 0.0020724057
0.0402250777 -0.0126769107 -0.0045254868
0.0400826561 -0.0105323902 -0.0083755057
0.0390034600 -0.0076209561 -0.0111157167
0.0373074820 -0.0035411983 -0.0130066761
0.0416734503 0.0019583163 -0.0131969368
0.0411835645 0.0057569004 -0.0120407587
0.0388693864 0.0102056586 -0.0087314795
0.0381035217 0.0065677732 -0.0116522060
0.0388929100 0.0117631044 -0.0064623521
0.0402379654 0.0134242786 -0.0008278631
0.0375734264 0.0125666714 -0.0048916355
0.0309671123 -0.0166371382 -0.0054640271
0.0318022980 -0.0165692248 -0.0034132825
0.0326539752 0.0080287965 -0.0142027277
0.0295075788 0.0083405890 -0.0165689752
0.0357137001 0.0041267627 -0.0135927182
0.0338953890 0.0017781248 -0.0153558396
0.0333129859 -0.0000945212 -0.0158786494
0.0314395494 -0.0016555247 -0.0171032478
0.0296560238 -0.0037914808 -0.0180638850
0.0347125375 -0.0061044281 -0.0135741300
0.0363299955 -0.0071558005 -0.0117385142
0.0362889929 -0.0082379867 -0.0110781067
0.0365996197 -0.0102288788 -0.0088653993
0.0337090428 -0.0123124755 -0.0095893097
0.0325001434 -0.0146692920 -0.0074010683
0.0341537338 0.0130981086 -0.0078266187
0.0345821601 0.0118135356 -0.0092517353
0.0359704529 0.0083766244 -0.0112308877
0.0306665757 0.0108242045 -0.0140251659
0.0327644144 0.0109970598 0.0119299964
0.0338973952 0.0119192707 0.0098783559
0.0308581839 0.0141084237 0.0105025791
0.0317327195 0.0148218408 0.0082719394
0.0312261748 0.0162686065 0.0059633306
0.0315067225 0.0166926823 0.0038340445
0.0319252161 0.0168599372 0.0001555735
0.0360580869 0.0138470319 -0.0018958605
0.0312149012 0.0171619710 -0.0025577620
0.0349079087 0.0139809351 -0.0047364215
0.0304592193 0.0160275261 -0.0078787898
0.0348218874 0.0023731223 0.0145811874
0.0294631876 0.0081480430 0.0166864194
0.0343905809 0.0078985214 0.0128673753
0.0318402241 0.0106620566 0.0131001413
0.0295323944 -0.0185122079 -0.0004947544
0.0335011822 -0.0154303843 0.0030098356
0.0293922081 -0.0182711882 0.0034981330
0.0331665430 -0.0143722078 0.0069294450
0.0300287761 -0.0160403573 0.0085076231
0.0297878472 -0.0144396592 0.0113223035
0.0325106419 -0.0118287096 0.0113946282
0.0312928502 -0.0105753336 0.0136674650
0.0321937586 -0.0082889577 0.0144388612
0.0359195424 -0.0059921569 0.0126977120
0.0329546690 -0.0052053034 0.0152838398
0.0344920943 -0.0029671350 0.0147682011
0.0336109086 -0.0004122008 0.0156674335
0.0312029208 0.0029019988 0.0170999413
0.0231808367 0.0098144295 -0.0014978179
0.0252051844 0.0082468077 -0.0097945260
0.0243455578 0.0081516992 -0.0082509660
0.0253451062 0.0100958485 -0.0081817934
0.0289900228 0.0153309476 -0.0096775785
0.0265924287 0.0130246884 -0.0069058651
0.0258058561 0.0124385537 -0.0056011462
0.0265961520 0.0142972313 -0.0036794540
0.0245196758 0.0107288171 0.0049705699
0.0258402687 0.0123827729 0.0058509878
0.0275168017 0.0129768282 0.0094316621
0.0212646829 0.0060444395 0.0040380857
0.0278569126 0.0123006663 0.0110260152
0.0248784562 0.0075103097 0.0098034795
0.0257584881 0.0069808441 0.0116388335
0.0219530582 0.0035667164 0.0074386176
0.0216302772 0.0022290279 0.0074298713
0.0274893341 0.0043355254 0.0154013201
0.0274930208 0.0024728991 0.0158195599
0.0235335099 0.0002927860 0.0104392057
0.0286008567 0.0001782369 0.0175593435
0.0228195576 -0.0015614724 0.0093362100
0.0266778488 -0.0048859915 0.0140647514
0.0278974843 -0.0061790479 0.0153875288
0.0215096702 -0.0040372787 0.0064424500
0.0239800818 -0.0058688378 0.0093948842
0.0235710705 -0.0069090644 0.0079308454
0.0222779951 -0.0057864963 0.0065043252
0.0253886898 -0.0100343835 0.0083792371
0.0246833384 -0.0099233136 0.0068702361
0.0258727679 -0.0123460646 0.0060209384
0.0290975315 -0.0175705569 0.0050773349
0.0219978743 -0.0080149654 0.0021776010
0.0289080257 -0.0177571385 0.0029714581
0.0249782960 -0.0124873538 0.0002747368
0.0247745606 -0.0121134826 -0.0015520142
0.0219447478 -0.0081615373 -0.0011310541
0.0276305987 -0.0158804734 -0.0031866820
0.0237681026 -0.0099138317 -0.0042932097
0.0289285301 -0.0162357109 -0.0078311560
0.0241503921 -0.0094723514 -0.0062079152
0.0270313795 -0.0119750530 -0.0096659326
0.0238120419 -0.0078072245 -0.0074996599
0.0268892144 -0.0095063589 -0.0118067234
0.0249503616 -0.0071559666 -0.0102042603
0.0241020779 -0.0050864279 -0.0100455665
0.0263757338 -0.0057600294 -0.0132387773
0.0224497888 -0.0016703456 -0.0087659090
0.0237193089 -0.0016021291 -0.0105943192
0.0290027494 -0.0020316423 -0.0180143322
0.0258653980 0.0001784271 -0.0136970346
0.0286525669 0.0030791227 -0.0173744440
0.0224777902 0.0024115069 -0.0086109204
0.0273264159 0.0043366547 -0.0151453221
0.0271578197 0.0056062051 -0.0145018762
0.0278659251 0.0076744747 -0.0146774771
0.0241412809 0.0113191866 -0.0001448334
0.0289059353 0.0180291924 0.0000028979
0.0291006775 0.0176454357 0.0048374725
0.0284863159 0.0160372719 0.0068303715
0.0171502539 -0.0109125410 -0.0004997970
0.0135940454 -0.0137108643 -0.0031627179
0.0187663766 -0.0091539391 -0.0024585620
0.0164984068 -0.0105130437 -0.0045535571
0.0120277232 -0.0148944312 -0.0044697625
0.0129790225 -0.0116831893 -0.0087570342
0.0141231517 -0.0108267947 -0.0082010786
0.0190780159 -0.0067037654 -0.0062692423
0.0120859243 -0.0067865827 -0.0138890147
0.0170801745 -0.0050695870 -0.0097298952
0.0157332311 -0.0039282753 -0.0114846771
0.0126617542 -0.0056349365 -0.0138155146
0.0174255432 -0.0014688767 -0.0105957614
0.0165335500 -0.0010851595 -0.0114151784
0.0149283680 0.0017405600 -0.0128184468
0.0114705874 0.0041049880 -0.0153625648
0.0153071009 0.0035311944 -0.0119888587
0.0171691935 0.0055329848 -0.0093342197
0.0176413117 0.0049569235 -0.0092068340
0.0189128585 0.0053488678 -0.0076038005
0.0115750407 0.0112761719 -0.0111191742
0.0197606811 0.0068050388 -0.0051604229
0.0130703557 0.0134236644 -0.0054494511
0.0144376696 0.0121696202 -0.0052708882
0.0152885421 0.0120193464 -0.0037549266
0.0150290119 0.0127439643 -0.0008115142
0.0169173665 0.0111258894 -0.0002214470
0.0165289539 0.0112538060 0.0017533352
0.0115203219 0.0156128685 0.0027876002
0.0194406408 0.0084917161 0.0025507139
0.0171031761 0.0104399302 0.0033047342
0.0154767601 0.0105257090 0.0066470941
0.0162768912 0.0089771089 0.0073739118
0.0165084787 0.0078645917 0.0083606785
0.0119976219 0.0070969160 0.0137753825
0.0117807866 0.0080994199 0.0133607284
0.0136931182 0.0058659740 0.0127750751
0.0133539109 0.0048075665 0.0134058183
0.0145903481 0.0022241003 0.0130280957
0.0155601799 -0.0001514620 0.0122518060
0.0146547172 0.0014551924 0.0130584276
0.0152779135 -0.0032314295 0.0120822782
0.0181072903 -0.0027646034 0.0095924223
0.0191757659 -0.0023198598 0.0087359914
0.0132885150 -0.0090219825 0.0111712357
0.0159622615 -0.0050628959 0.0108842428
0.0118967873 -0.0119750348 0.0098725903
0.0158778746 -0.0084887953 0.0084802577
0.0209137325 -0.0062547468 0.0042316381
0.0190117593 -0.0078036299 0.0050036052
0.0146518460 -0.0125342513 0.0040496676
0.0157917613 -0.0116842100 0.0033743662
0.0111695565 -0.0157210984 0.0042305069
0.0195491928 -0.0087710854 0.0002426560
0.0085061359 0.0116375517 -0.0067924994
0.0099071294 0.0112052079 -0.0098913102
0.0088533955 0.0079245742 -0.0112723536
0.0074744826 0.0055796971 -0.0110495397
0.0069656692 0.0039891488 -0.0110457834
0.0102467774 0.0017691258 -0.0152843748
0.0089094553 -0.0034527071 -0.0134220836
0.0092305152 -0.0055393030 -0.0131570439
0.0097000854 -0.0067234728 -0.0131792274
0.0102763490 -0.0103383074 -0.0114580100
0.0087153454 -0.0116740200 -0.0072166006
0.0091263185 -0.0132784667 -0.0048236701
0.0099471338 -0.0145898481 -0.0036312232
0.0098304401 -0.0146080992 0.0026114992
0.0089409768 -0.0134730897 0.0037006761
0.0104338486 -0.0149612255 0.0045522799
0.0104989853 -0.0126585500 0.0091745929
0.0073702280 -0.0079299119 0.0093493142
0.0091396778 -0.0069166866 0.0123052493
0.0094564956 -0.0040558576 0.0138419420
0.0107530505 0.0009316558 0.0158356066
0.0080845888 0.0010680635 0.0129301764
0.0079940029 0.0049359928 0.0119316981
0.0105463867 0.0100500629 0.0121131366
0.0105505390 0.0111579127 0.0109680167
0.0102859451 0.0130081749 0.0083965143
0.0087465341 0.0130201841 0.0044383274
0.0105050502 0.0152360549 0.0034051886
0.0103037018 0.0152993004 -0.0014248589
0.0074058115 0.0121643514 -0.0010581137
0.0059941766 -0.0001934874 0.0114191615
0.0055895923 -0.0071125421 0.0089237337
0.0062279397 -0.0114109871 0.0006190985
0.0057965269 -0.0089603903 -0.0071871385
0.0061581553 -0.0017733759 -0.0113610644
0.0046989960 0.0066068669 -0.0093017951
0.0052836362 0.0111416775 -0.0026136455
0.0066398089 0.0107456505 0.0040571172
0.0009391958 -0.0174594511 -0.0061411486
0.0020912940 -0.0153171846 -0.0054018942
0.0012314950 -0.0138166096 -0.0113693904
0.0005363017 -0.0140146571 -0.0133757093
0.0028633261 -0.0089076007 -0.0116270454
0.0006457426 -0.0132887301 -0.0138078644
0.0031721479 -0.0084676788 -0.0111927471
0.0007183204 -0.0088787907 -0.0167797869
0.0011833928 -0.0047882267 -0.0174759852
0.0002797402 -0.0024687191 -0.0196209869
0.0020165556 -0.0017701810 -0.0162733607
0.0009825758 0.0015708399 -0.0183280416
0.0030274380 0.0019643773 -0.0141965833
0.0014841523 0.0076926272 -0.0156274346
0.0032013430 0.0043411208 -0.0133301299
0.0019565366 0.0101200152 -0.0129631366
0.0008161623 0.0099188477 -0.0159677231
0.0022777359 0.0109269353 -0.0115411665
0.0000280231 0.0162432592 -0.0121278240
0.0034094199 0.0118002760 -0.0069090690
0.0014656855 0.0160800840 -0.0066955209
0.0043940543 0.0103627050 -0.0053713459
0.0009466275 0.0183733349 -0.0017729133
0.0000800802 0.0199794099 -0.0027377170
0.0029521599 0.0144525414 0.0010872426
0.0023850706 0.0155393418 0.0014471126
0.0022562387 0.0155003916 0.0037001176
0.0029300422 0.0134966749 0.0054935754
0.0043449951 0.0102334943 0.0058927282
0.0008891019 0.0155357646 0.0102442040
0.0030460819 0.0107280402 0.0095709889
0.0005961253 0.0121237252 0.0148258164
0.0044491278 0.0069694482 0.0091507260
0.0017141361 0.0073219436 0.0152873710
0.0011790117 0.0059593584 0.0170002898
0.0025412740 0.0034512547 0.0150116242
0.0012707735 0.0008598037 0.0178701616
0.0029875971 0.0010509660 0.0144328580
0.0009031097 -0.0032618005 0.0182643543
0.0027665755 -0.0028266627 0.0146292845
0.0003328211 -0.0064665236 0.0186063631
0.0031551110 -0.0068111924 0.0124062192
0.0000576814 -0.0116968125 0.0164991723
0.0042718174 -0.0077419506 0.0090011295
0.0023816593 -0.0114512892 0.0107741749
0.0000778179 -0.0162238598 0.0119925009
0.0018981705 -0.0149667403 0.0071424331
0.0021310445 -0.0149125998 0.0060664936
0.0012370209 -0.0173975422 0.0047104793
0.0019404437 -0.0163726604 0.0018719823
0.0004428162 -0.0195810639 0.0002529533
0.0015535455 -0.0170446509 -0.0026452699
0.0037650898 -0.0127374072 -0.0017653524
0.0028522628 0.0108651087 0.0113703082
0.0027158325 -0.0158127265 -0.0015316768
0.0035747424 -0.0141640215 -0.0028717605
0.0003414445 -0.0178954192 -0.0084562963
0.0025111092 -0.0145274337 -0.0073495588
0.0004214540 -0.0132878333 -0.0145446969
0.0033388715 -0.0104588857 -0.0106501595
0.0026472993 -0.0125204265 -0.0098841313
0.0042010767 -0.0112680440 -0.0073802888
0.0005893608 -0.0012856539 -0.0193484709
0.0014821511 -0.0042294675 -0.0175023174
0.0011923315 -0.0051806712 -0.0177207547
0.0027777443 0.0066236126 -0.0142874741
0.0001256195 0.0096094672 -0.0177941589
0.0034690616 0.0036018570 -0.0142440368
0.0009391119 0.0007444529 -0.0188368032
0.0010679814 0.0154439756 -0.0103609516
0.0006017045 0.0145249692 -0.0128242752
0.0018040519 0.0120975296 -0.0125783542
0.0013833309 0.0101174653 -0.0149739947
0.0012254573 0.0163214686 -0.0084347298
0.0027922558 0.0148289819 -0.0052536376
0.0021654489 0.0165089815 -0.0033327422
0.0017368490 0.0175829088 -0.0003408747
0.0020793819 0.0165890567 0.0033824328
0.0041792499 0.0134748008 0.0009121128
0.0039046277 0.0100285492 0.0097187465
0.0031873174 0.0127675022 0.0081708763
0.0017401661 0.0155928845 0.0079522835
0.0022490877 0.0159505096 0.0050138054
0.0012981272 0.0111196867 0.0143824267
0.0020164504 0.0085104826 0.0148721900
0.0038416244 0.0051472392 0.0131043906
0.0034497846 0.0030777765 0.0143949271
0.0014255864 0.0034185987 0.0177113657
0.0006712855 -0.0002044112 0.0193677918
0.0013332481 -0.0008669252 0.0181987745
0.0036984440 -0.0042487521 0.0136646992
0.0011950809 -0.0072136429 0.0169074092
0.0006234324 -0.0098103315 0.0168003121
0.0002123874 -0.0127733101 0.0153819167
0.0033806430 -0.0138772375 0.0052405739
0.0041539497 -0.0124682466 0.0053477538
0.0001951802 -0.0162148897 0.0117253880
0.0015500965 -0.0129136537 0.0123897737
0.0016591190 -0.0173488112 0.0032626000
0.0030038836 -0.0153002391 0.0020669476
0.0054582031 -0.0023739473 -0.0127457980
0.0057777944 -0.0122165009 0.0043555240
0.0056840151 -0.0054808944 -0.0117779368
0.0051546269 0.0062344314 -0.0113998010
0.0053581979 0.0122661722 0.0042969745
0.0101552021 0.0098482677 -0.0145442887
0.0072737225 0.0070136199 -0.0125572200
0.0073559711 0.0045715767 -0.0137095004
0.0099391183 0.0002763937 -0.0173150992
0.0076990868 -0.0007413081 -0.0148436724
0.0065976270 -0.0034844151 -0.0131728376
0.0090637024 -0.0061095466 -0.0151544521
0.0066103493 -0.0076600908 -0.0113083645
0.0105951683 -0.0117684892 -0.0136079517
0.0077235542 -0.0118951720 -0.0089186099
0.0097734104 -0.0156474025 -0.0069858668
0.0089158912 -0.0155780958 -0.0042906834
0.0097551905 -0.0169770019 -0.0022471288
0.0106157339 -0.0180205988 0.0008290395
0.0081990400 -0.0148503623 0.0040193749
0.0076342335 -0.0130241758 0.0069537728
0.0083856335 -0.0125198813 0.0093184720
0.0069358804 -0.0095149116 0.0102909648
0.0091190084 -0.0088399265 0.0138298105
0.0068028545 -0.0054222710 0.0127519973
0.0099166510 -0.0046373403 0.0166296381
0.0063432697 -0.0002619921 0.0133464119
0.0095738169 0.0013360249 0.0167968206
0.0083465894 0.0047266108 0.0147963788
0.0088189900 0.0074745928 0.0142549154
0.0072135415 0.0097179155 0.0105290901
0.0093314290 0.0125697848 0.0108551558
0.0077528888 0.0128134790 0.0076434380
0.0078752449 0.0139270272 0.0057090040
0.0099537001 0.0169733731 0.0035253017
0.0084377612 0.0156697552 -0.0001722503
0.0085683295 0.0154839087 -0.0031973110
0.0105096579 0.0167348616 -0.0064626969
0.0106376112 0.0156071522 -0.0091273042
0.0064780605 0.0105559559 -0.0084482715
0.0118513722 -0.0162117648 -0.0071273092
0.0134728149 -0.0137910513 -0.0086349733
0.0188899596 -0.0084411228 -0.0075963460
0.0125203636 -0.0124255212 -0.0117342373
0.0164006624 -0.0090415040 -0.0101667186
0.0141101966 -0.0099336230 -0.0120674148
0.0133464550 -0.0067230705 -0.0149306598
0.0200580532 -0.0031263415 -0.0098275737
0.0134363181 -0.0043927029 -0.0156364348
0.0184142002 -0.0011186869 -0.0117158131
0.0157150884 -0.0003796746 -0.0142190263
0.0186502632 0.0021876105 -0.0113553330
0.0120919343 0.0031454832 -0.0172119323
0.0151615318 0.0036651686 -0.0142543139
0.0152970812 0.0058455317 -0.0133897382
0.0130153736 0.0083291922 -0.0143856497
0.0123308431 0.0099779324 -0.0141353512
0.0131710529 0.0110762766 -0.0122250650
0.0135821174 0.0123371395 -0.0104421639
0.0181443290 0.0094647244 -0.0074695256
0.0141166236 0.0141922438 -0.0066258072
0.0158178837 0.0126438502 -0.0062797980
0.0155484337 0.0137584901 -0.0040999535
0.0188574129 0.0112460230 -0.0019655647
0.0131710064 0.0164624761 -0.0012224654
0.0204210281 0.0100063494 0.0002152856
0.0196910089 0.0105933425 0.0012390012
0.0124290669 0.0168104958 0.0036142733
0.0196995853 0.0098269064 0.0041426113
0.0184031885 0.0101207957 0.0061242969
0.0139793279 0.0132488999 0.0086335577
0.0139178280 0.0127675203 0.0094030910
0.0114374844 0.0137178577 0.0117894015
0.0144263833 0.0103236948 0.0113871727
0.0116935787 0.0099363972 0.0148583784
0.0124919421 0.0086975008 0.0147176512
0.0171464783 0.0044394911 0.0121822106
0.0133022688 0.0052724337 0.0155481195
0.0148429105 0.0016643978 0.0149214061
0.0150825143 0.0002725932 0.0148164256
0.0143168111 -0.0022006811 0.0152953511
0.0133900089 -0.0009966029 0.0162489362
0.0152279468 -0.0037310733 0.0141688180
0.0136855235 -0.0063272152 0.0147770264
0.0161616146 -0.0066269557 0.0121607068
0.0158814509 -0.0084042355 0.0112775144
0.0114204581 -0.0117947031 0.0136989949
0.0188781105 -0.0084004961 0.0076625788
0.0182621474 -0.0100493278 0.0064675567
0.0158319367 -0.0122412579 0.0070725720
0.0205542209 -0.0089964894 0.0039496080
0.0140681666 -0.0151532837 0.0042512536
0.0200629044 -0.0102602639 0.0006817825
0.0131927911 -0.0163155246 0.0021419494
0.0200813822 -0.0101562187 -0.0012953616
0.0117359559 -0.0176104602 -0.0022723939
0.0177004037 -0.0120822944 -0.0030504158
0.0255962533 0.0157088133 -0.0025745448
0.0270893161 0.0158772810 -0.0085425340
0.0232216377 0.0114484144 -0.0051805645
0.0261313630 0.0157901627 -0.0054170748
0.0256661516 0.0156999651 -0.0033403170
0.0239453112 0.0115355759 -0.0072295427
0.0258074747 0.0119425382 -0.0110192737
0.0256978440 0.0107975699 -0.0119034796
0.0243940375 0.0087714373 -0.0111969133
0.0281151295 0.0071623942 -0.0180529261
0.0225550074 0.0036934948 -0.0110340788
0.0274365794 0.0092523709 -0.0160785594
0.0270058715 0.0046568695 -0.0173309113
0.0274545536 0.0020617379 -0.0184352448
0.0219921505 0.0018278970 -0.0106690468
0.0269297660 -0.0037658948 -0.0173832222
0.0250004686 -0.0013884602 -0.0150226480
0.0228477732 0.0000663372 -0.0120953659
0.0267998091 -0.0064623531 -0.0163460404
0.0253774580 -0.0066345720 -0.0141269693
0.0281791869 -0.0092126693 -0.0172846486
0.0226598506 -0.0077193955 -0.0089052314
0.0261493695 -0.0133948489 -0.0099050407
0.0246098709 -0.0123773759 -0.0076638820
0.0277585762 -0.0134432374 -0.0134325842
0.0267862808 -0.0120618477 -0.0128274389
0.0272923800 -0.0164939166 -0.0079140453
0.0238277455 -0.0122905643 -0.0053918038
0.0276469318 -0.0181286691 -0.0051118622
0.0223522239 -0.0111110248 -0.0023608297
0.0279049448 -0.0190266364 -0.0019796817
0.0266823193 -0.0173655198 0.0013515962
0.0284412684 -0.0197962805 0.0018130679
0.0255273696 -0.0137571147 0.0078994320
0.0274689142 -0.0162700806 0.0089545593
0.0268343955 -0.0169101691 0.0051676189
0.0269790775 -0.0174545828 0.0039448797
0.0215228529 -0.0088544911 0.0051332171
0.0238818283 -0.0099724000 0.0091332842
0.0277470551 -0.0127273655 0.0140350238
0.0243649120 -0.0084388076 0.0114001027
0.0230353351 -0.0035606732 0.0118088427
0.0261801937 -0.0075130122 0.0149892383
0.0286272349 -0.0093672860 0.0179164453
0.0257438727 -0.0090092208 0.0133925047
0.0282789878 -0.0023542440 0.0195564540
0.0226436846 -0.0006428364 0.0117554254
0.0259023002 0.0025364623 0.0161406894
0.0224142643 0.0014694915 0.0113189920
0.0270154032 -0.0012501597 0.0179013646
0.0282007523 0.0083829229 0.0177088571
0.0217732868 0.0031057133 0.0100835144
0.0275101053 0.0092806991 0.0161806522
0.0227880743 0.0061851275 0.0102869742
0.0235993270 0.0079398807 0.0104148644
0.0271817838 0.0144172902 0.0109576270
0.0232746596 0.0096837274 0.0081052654
0.0258303599 0.0106136999 0.0123099151
0.0231664091 0.0111389733 0.0057023837
0.0217139021 0.0096478553 0.0039444730
0.0241901323 0.0133743831 0.0040337364
0.0248101042 0.0145449191 0.0029001019
0.0272875893 0.0181565671 0.0020003259
0.0261705448 0.0167368460 0.0003694501
0.0224289877 0.0114683959 -0.0004437530
0.0296603783 -0.0161063430 -0.0121972900
0.0334847804 -0.0126016328 -0.0122951974
0.0334436005 -0.0114132151 -0.0134004870
0.0295263244 -0.0116272162 -0.0166990165
0.0325860190 -0.0062438844 -0.0170904415
0.0353742701 -0.0047799953 -0.0155418206
0.0294070858 -0.0050229399 -0.0198166308
0.0334943273 -0.0000406394 -0.0176011597
0.0329590323 0.0011576692 -0.0179027314
0.0298552837 0.0049685722 -0.0195086831
0.0295332649 0.0082354350 -0.0185699051
0.0320724123 0.0079616692 -0.0167955351
0.0304350566 0.0111521185 -0.0162504618
0.0334231504 0.0121724617 -0.0127522344
0.0306509107 0.0163877573 -0.0106954358
0.0338124702 0.0145722955 -0.0094264253
0.0297144765 0.0178991231 -0.0093707709
0.0326073067 0.0175786097 -0.0047919312
0.0319634435 0.0183605681 -0.0033176111
0.0321484801 0.0183865826 -0.0017140323
0.0323276096 0.0182615228 0.0019792693
0.0351452496 0.0161451431 0.0029848505
0.0341816330 0.0159503055 0.0061758296
0.0309826327 0.0170949731 0.0089975747
0.0345948071 0.0133536281 0.0102172497
0.0357288570 0.0123883307 0.0101487885
0.0295752038 0.0137956996 0.0149030666
0.0338879113 0.0091407386 0.0146899292
0.0294325649 0.0097281543 0.0179734251
0.0346716379 0.0045130027 0.0161529543
0.0323629236 0.0026364186 0.0181669494
0.0345923451 0.0004297610 0.0168137331
0.0302913366 -0.0012715807 0.0197816273
0.0317444999 -0.0035377578 0.0184257179
0.0334722801 -0.0047053499 0.0169761317
0.0324959749 -0.0078677213 0.0165087523
0.0334117134 -0.0102752532 0.0143315720
0.0332156956 -0.0118656005 0.0132113586
0.0316855448 -0.0140858136 0.0125205398
0.0304097667 -0.0156295227 0.0119744031
0.0346540867 -0.0148648759 0.0077395468
0.0358788339 -0.0151762077 0.0047563030
0.0349178183 -0.0161764655 0.0036142487
0.0294482544 -0.0204105040 0.0002765380
0.0350543088 -0.0164616622 -0.0007485965
0.0349981182 -0.0161914284 -0.0032839743
0.0359185081 -0.0151335410 -0.0047945220
0.0334391444 -0.0154361221 -0.0084909346
0.0401938232 0.0132287105 -0.0080419459
0.0428948678 0.0122561900 -0.0094229465
0.0371942060 0.0065476207 -0.0140163411
0.0420569626 0.0109065794 -0.0109655284
0.0428401173 0.0027161239 -0.0152229763
0.0383479968 0.0051277554 -0.0146045999
0.0376472024 -0.0041553328 -0.0149245387
0.0403958860 -0.0012842318 -0.0154339568
0.0395613398 -0.0093720183 -0.0123309568
0.0375557537 -0.0063915029 -0.0140915721
0.0378443390 -0.0132580724 -0.0080045555
0.0393398801 -0.0144334001 -0.0056011043
0.0399578920 -0.0154368122 0.0009640564
0.0378388885 -0.0153349961 -0.0022526519
0.0399664050 -0.0144456901 0.0055579230
0.0428803195 -0.0149561537 0.0039373824
0.0381071598 -0.0141953133 0.0062105363
0.0377758579 -0.0122062747 0.0095321093
0.0393693538 -0.0057515753 0.0143877905
0.0398453220 -0.0080332655 0.0132302663
0.0415004639 -0.0002077557 0.0154677275
0.0396815227 -0.0034830365 0.0151029603
0.0410640552 0.0089684990 0.0126001997
0.0382164584 0.0061358000 0.0142178924
0.0381923279 0.0036687886 0.0150450637
0.0398113623 0.0106646141 0.0112141174
0.0376023023 0.0125928532 0.0090269570
0.0401614586 0.0153010555 -0.0023997016
0.0408719746 0.0153914794 0.0014481070
0.0412871792 0.0151846847 0.0029757533
0.0393821021 0.0139094479 0.0067925916
0.0439999998 0.0125463888 -0.0061585619
0.0439999998 0.0061173308 -0.0119392263
0.0439999998 0.0103686456 -0.0077209212
0.0439999998 0.0026130444 -0.0135848810
0.0439999998 -0.0069242785 -0.0108568392
0.0439999998 -0.0122185774 0.0024267444
0.0439999998 -0.0128538911 0.0043583053
0.0439999998 -0.0101867838 -0.0043789023
0.0439999998 -0.0125568852 -0.0024727516
0.0439999998 -0.0076104289 0.0117305281
0.0439999998 0.0096558634 0.0101261779
0.0439999998 0.0105777941 0.0042839783
0.0439999998 0.0122221599 0.0032906613
0.0439999998 0.0009756830 0.0128362784
0.0439999998 0.0044271285 0.0130771953
0.0439214852 -0.0039563036 0.0142171474
0.0439227906 -0.0058146529 -0.0135675263
0.0436789709 0.0136558450 0.0066365634
0.0435340304 -0.0146637935 0.0044624301
0.0436462188 0.0078149133 -0.0130409681
0.0431458240 0.0018491091 0.0153131347
0.0433655730 -0.0131290129 -0.0079778394
0.0431374761 0.0151723389 -0.0028221573
0.0366411494 -0.0065813956 0.0140831208
0.0369665368 -0.0061710640 -0.0142297528
0.0361592945 0.0156940450 0.0012180513
0.0361880064 -0.0068030313 0.0141793526
0.0360418051 -0.0110177244 -0.0113500679
0.0363064519 0.0150846031 -0.0043044731
0.0209572413 -0.0095533428 0.0015045265
0.0210549336 -0.0081174007 -0.0053447350
0.0206996331 0.0073607618 0.0064283015
0.0108637011 0.0052609900 0.0173934289
0.0111113921 -0.0005901921 0.0182249009
0.0110681438 0.0152803480 -0.0100059470
0.0111446586 0.0054487917 0.0173612837
0.0047269259 -0.0003803968 0.0129990640
0.0045313464 0.0056032422 0.0117786288
0.0046082667 0.0130444795 0.0000240887
0.0061174168 0.0121045270 0.0050907476
0.0289177073 0.0181964150 -0.0092763800
0.0289086471 -0.0079697418 -0.0188120275
0.0289421695 -0.0185766221 -0.0085222515
0.0290352614 0.0128607873 -0.0159396519
0.0292468426 0.0116259831 0.0168688527
0.0293752244 -0.0188491312 0.0078908845
0.0972370430 0.0053752612 -0.0010273156
0.1341119791 0.0054213767 -0.0006475202
0.1368236139 0.0042738385 -0.0033479799
0.1180603754 0.0048364393 -0.0022760337
0.1389136641 0.0052288249 -0.0015284053
0.1232826647 0.0046750040 -0.0025836228
0.1237048220 0.0043550078 -0.0031933247
0.1027513936 0.0042056549 -0.0034778930
0.1047949785 0.0041473713 -0.0035889432
0.0821832267 0.0042360342 -0.0034200100
0.1347430787 0.0031721293 -0.0042992401
0.1275271747 0.0031641010 -0.0043047816
0.0948433124 0.0039311752 -0.0037753085
0.1204896652 0.0039343084 -0.0037731458
0.0936364858 0.0036764939 -0.0039511023
0.1086475742 0.0028227007 -0.0045404333
0.0849012248 0.0025022557 -0.0047616205
0.0881956136 0.0036887039 -0.0039426743
0.1305257517 0.0017705186 -0.0051644222
0.1284370951 0.0011957673 -0.0052342096
0.1339878361 0.0013842567 -0.0052113228
0.1025851316 0.0018520237 -0.0051545257
0.1237037057 0.0009171567 -0.0052680390
0.0941066236 0.0007279847 -0.0052910086
0.1196367990 -0.0002638044 -0.0054114334
0.0825219267 0.0016868526 -0.0051745811
0.1157967497 -0.0004500206 -0.0054340441
0.1396177867 -0.0026341916 -0.0047123060
0.1153015588 -0.0014924384 -0.0051453158
0.1196423313 -0.0008458171 -0.0053905469
0.1200348311 -0.0019966322 -0.0049541004
0.0984937078 -0.0024431935 -0.0047847420
0.1111658979 -0.0021395359 -0.0048999042
0.1018047163 -0.0025213349 -0.0047551069
0.1396200662 -0.0030697592 -0.0045471170
0.1383626147 -0.0046560520 -0.0027974841
0.1109320534 -0.0031634694 -0.0044822613
0.1367801488 -0.0033961256 -0.0042196468
0.1192992447 -0.0036227558 -0.0039638343
0.1011157439 -0.0041195293 -0.0034030930
0.0973925316 -0.0040982466 -0.0034271162
0.0864094193 -0.0034735610 -0.0041322404
0.0820536070 -0.0038069195 -0.0037559565
0.1293280645 -0.0045269837 -0.0029431721
0.0933595599 -0.0049035962 -0.0024197059
0.1339420696 -0.0049208122 -0.0023498578
0.1303205124 -0.0051527507 -0.0014088461
0.1211423566 -0.0049438229 -0.0022564995
0.0867923020 -0.0049839643 -0.0020936394
0.1239004398 -0.0053219408 -0.0007224145
0.1122157999 -0.0053750147 -0.0005070851
0.1040159524 -0.0053070733 -0.0007827344
0.1316131234 -0.0052336234 0.0010807325
0.1179991396 -0.0054246953 0.0003055231
0.0918716973 -0.0054753685 0.0000999337
0.1288129530 -0.0053717610 0.0005202863
0.0845848815 -0.0049809943 0.0021056891
0.0883735605 -0.0051808935 0.0012946663
0.1106814502 -0.0049896839 0.0020704340
0.1178231657 -0.0049705341 0.0021481278
0.1143293185 -0.0044874811 0.0029877613
0.1205554027 -0.0042424518 0.0032643421
0.1186506784 -0.0039453420 0.0035997098
0.1292344687 -0.0036007746 0.0039886459
0.1178123900 -0.0038297256 0.0037302136
0.0932277025 -0.0033977398 0.0042178248
0.0870111114 -0.0035427607 0.0040541300
0.0856339399 -0.0043237497 0.0031725758
0.0892041708 -0.0034603557 0.0041471460
0.1377596303 -0.0020514345 0.0049333166
0.1403614333 -0.0011588536 0.0052718279
0.1374349068 -0.0030948074 0.0045376175
0.1399042061 -0.0025142334 0.0047578002
0.1073835269 -0.0011703098 0.0052674831
0.1011629074 -0.0011991169 0.0052565580
0.1051306281 -0.0009626755 0.0053462284
0.0998282704 -0.0012825129 0.0052249301
0.1095408294 0.0001717996 0.0053585416
0.1409896182 0.0017366661 0.0051685326
0.1105838427 0.0005754617 0.0053095282
0.1361674774 0.0016386677 0.0051804318
0.1131480467 0.0019170611 0.0051466288
0.1163495508 0.0014057937 0.0052087078
0.0966170980 0.0005307175 0.0053149611
0.0859272124 0.0006453105 0.0053010470
0.0960075827 0.0021017970 0.0050380372
0.1067892510 0.0020403428 0.0050804560
0.1243401064 0.0032725921 0.0042298956
0.1211051181 0.0023297266 0.0048807088
0.1378539143 0.0038246624 0.0038488289
0.0960883848 0.0034911186 0.0040790577
0.0912994628 0.0024875910 0.0047717428
0.1000211228 0.0033026522 0.0042091466
0.0920258893 0.0039461360 0.0037649818
0.0874328821 0.0041356040 0.0036113637
0.1183480579 0.0045014949 0.0029142169
0.1282457032 0.0042544378 0.0033849449
0.1315664234 0.0050261433 0.0019145829
0.0945577216 0.0046954489 0.0025446684
0.1027427263 0.0053339031 0.0013281955
0.0856527059 0.0044903961 0.0029353639
0.1194694978 0.0049886474 0.0019860253
0.1245644914 0.0054268131 0.0006027481
0.1020355979 0.0053596671 0.0011557446
0.0961136462 0.0053791058 0.0008811746
0.0921384887 0.0053685173 0.0009464565
0.0899345324 0.0053626467 -0.0002729343
0.1020018000 0.0053947899 -0.0004148367
0.1134618943 0.0054253158 -0.0005973741
0.1034245224 -0.0028705642 0.0004830611
0.1178829608 -0.0028957257 0.0003891570
0.0951475431 -0.0026191727 0.0014212666
0.0889262492 -0.0026565567 0.0012817474
0.0880998223 -0.0026152820 0.0014357868
0.1377364965 -0.0022958545 0.0018022217
0.0939152049 -0.0025686010 0.0015294752
0.1036073738 -0.0019726431 0.0021254330
0.1222257856 -0.0017434444 0.0023546318
0.1214627738 -0.0014980589 0.0025985962
0.0938384406 -0.0012783514 0.0026574667
0.1019147212 -0.0014419504 0.0026136305
0.0874366048 -0.0003296871 0.0029116606
0.0871757406 -0.0003872843 0.0028962275
0.1026206823 0.0004112783 0.0028897983
0.1114918315 0.0000330134 0.0029911541
0.1004594292 0.0004524410 0.0028787688
0.1128866100 0.0008334892 0.0027766672
0.1021634473 0.0013117826 0.0026485088
0.1340502543 0.0019844304 0.0021136458
0.1381492091 0.0024046641 0.0016934120
0.1288828881 0.0018255599 0.0022725162
0.0836554461 0.0017880617 0.0023100144
0.1194683115 0.0023482686 0.0017498075
0.1271611731 0.0028855214 0.0004272398
0.1388663238 0.0026582429 0.0012754545
0.1280423518 0.0027780938 0.0008281651
0.0909259024 0.0028485590 0.0005651854
0.0914196476 0.0028776570 0.0004565902
0.0971199704 0.0029655296 -0.0001286452
0.1149184681 0.0028282646 -0.0006409251
0.1235524564 0.0029455937 -0.0002030471
0.0942356281 0.0026095033 -0.0014573533
0.1154790136 0.0026163275 -0.0014318851
0.1172516874 0.0021587524 -0.0019393238
0.1106136627 0.0024952254 -0.0016028507
0.1233882409 0.0025481366 -0.0015499395
0.1128420431 0.0015772901 -0.0025207861
0.1117944815 0.0018498461 -0.0022482300
0.1113973498 0.0008045006 -0.0027844347
0.1335929405 0.0005434674 -0.0028543783
0.1309258718 0.0011974086 -0.0026791553
0.1226399616 0.0002155784 -0.0029422360
0.0952424259 0.0005249201 -0.0028593481
0.1360114104 -0.0007681252 -0.0027941814
0.1336182806 -0.0006376284 -0.0028291480
0.1336815694 -0.0008090714 -0.0027832099
0.0881189656 -0.0012609864 -0.0026621196
0.0916288184 -0.0011982317 -0.0026789347
0.1283258314 -0.0022285341 -0.0018695421
0.1113480512 -0.0016357556 -0.0024623205
0.0975500616 -0.0017772129 -0.0023208632
0.0820916662 -0.0016219278 -0.0024761483
0.0869371194 -0.0018107217 -0.0022873545
0.0905901670 -0.0026234240 -0.0014054005
0.1090108673 -0.0027546188 -0.0009157750
0.0837993117 -0.0028617333 -0.0005160182
0.0983849522 -0.0028750121 -0.0004664611
0.0975541209 -0.0027458809 -0.0009483851
0.1414999962 0.0033271586 0.0036768193
0.1414999962 -0.0045703752 0.0023195625
0.1414999962 -0.0026941005 -0.0046270474
0.0815000013 0.0030122871 -0.0017870119
0.0815000013 -0.0012821680 0.0028872901
