-0.0036108570 0.0359999985 0.0073997829
0.0040494085 0.0359999985 0.0065659345
-0.0055157987 0.0247604800 0.0060000001
-0.0011999916 0.0231794235 0.0060000001
0.0041017998 0.0244466359 0.0060000001
-0.0073970142 0.0255088325 0.0060000001
0.0054108187 0.0260391525 0.0060000001
-0.0045013899 0.0277256690 0.0060000001
0.0016626146 0.0325180004 0.0060000001
0.0127784184 0.0269390769 0.0060000001
-0.0127724770 0.0270218066 0.0060000001
-0.0096531421 0.0277842906 0.0060000001
0.0056380485 0.0329829978 0.0060000001
0.0065930239 0.0279156073 0.0060000001
0.0152303449 0.0250827439 0.0060000001
-0.0164478892 0.0315802054 0.0060000001
-0.0166584355 0.0287084145 0.0060000001
0.0150087718 0.0342370222 0.0060000001
0.0165006716 0.0300535340 0.0060000001
0.0163939921 0.0262009563 0.0060000001
0.0153838043 0.0359999985 0.0071739031
0.0075867418 0.0270171237 0.0099999998
0.0010741014 0.0282060839 0.0099999998
-0.0090509052 0.0286153814 0.0099999998
0.0001570024 0.0345265920 0.0099999998
-0.0044500727 0.0355006929 0.0099999998
-0.0057357873 0.0296659513 0.0099999998
-0.0199751972 0.0317734673 0.0099999998
-0.0152325552 0.0332507570 0.0099999998
0.0051229946 0.0330182751 0.0099999998
0.0173836511 0.0316561285 0.0099999998
0.0145302330 0.0334391565 0.0099999998
-0.0016258883 -0.0359999985 0.0085824219
-0.0036432747 -0.0359999985 0.0098242500
0.0036798934 -0.0354981482 0.0099999998
0.0082939768 -0.0278271734 0.0099999998
-0.0131493789 -0.0272331872 0.0099999998
-0.0056374472 -0.0351627728 0.0099999998
-0.0150745400 -0.0286678881 0.0099999998
-0.0054907192 -0.0306301747 0.0099999998
-0.0194505773 -0.0334151573 0.0099999998
-0.0166602600 -0.0315180233 0.0099999998
-0.0169594991 -0.0344298913 0.0099999998
0.0197183035 -0.0276176978 0.0099999998
0.0146740781 -0.0299620132 0.0099999998
0.0164358029 -0.0230884515 0.0060000001
-0.0096268471 -0.0237400818 0.0060000001
0.0056158833 -0.0247970306 0.0060000001
0.0026768772 -0.0266011222 0.0060000001
0.0060565512 -0.0260105741 0.0060000001
-0.0057172559 -0.0242968716 0.0060000001
0.0003403943 -0.0347038790 0.0060000001
0.0039684919 -0.0325508637 0.0060000001
-0.0062425625 -0.0313770957 0.0060000001
0.0102740494 -0.0285180494 0.0060000001
-0.0126342353 -0.0269319575 0.0060000001
0.0140015880 -0.0306731054 0.0060000001
0.0177608256 -0.0307380538 0.0060000001
0.0077135007 -0.0271287769 0.0060000001
0.0050114197 -0.0301090274 0.0060000001
-0.0170253819 -0.0340434883 0.0060000001
-0.0165578064 -0.0299983014 0.0060000001
-0.0185872904 -0.0288106615 0.0060000001
0.0122904537 -0.0168918814 0.0259999987
0.0122932807 -0.0147085050 0.0259999987
0.0186885988 -0.0152514209 0.0259999987
0.0190990185 0.0125810007 0.0259999987
0.0167502214 0.0126493699 0.0259999987
0.0184037011 0.0163329744 0.0259999987
0.0184625717 -0.0088366899 0.0259999987
0.0191417151 -0.0103343413 0.0259999987
0.0181439423 0.0035075553 0.0259999987
0.0091514115 0.0167669074 0.0259999987
-0.0104105605 -0.0150934663 0.0259999987
-0.0148581789 0.0137332088 0.0259999987
-0.0143685110 0.0107096221 0.0259999987
-0.0102640857 0.0164958130 0.0259999987
-0.0196984323 -0.0108617532 0.0259999987
-0.0186046095 0.0051312213 0.0259999987
-0.0194966156 -0.0144488796 0.0259999987
-0.0167530813 -0.0123958399 0.0259999987
-0.0182429426 -0.0159922919 0.0259999987
0.0188098353 0.0199999996 0.0103887350
-0.0130289263 0.0199999996 0.0096841676
0.0082427126 0.0199999996 0.0170092989
0.0105127861 0.0199999996 0.0154749634
0.0171023725 0.0199999996 0.0139171111
-0.0038154031 0.0199999996 0.0101954213
-0.0036405566 0.0199999996 0.0143290204
-0.0042125612 0.0199999996 0.0113396894
0.0185752817 0.0199999996 0.0184011039
-0.0131905325 0.0199999996 0.0090890051
0.0059571012 0.0199999996 0.0113226268
-0.0079214161 0.0199999996 0.0122428474
-0.0017725139 0.0199999996 0.0151288015
-0.0056662557 0.0199999996 0.0154520180
-0.0119474695 0.0199999996 0.0155478908
-0.0191994967 0.0199999996 0.0184134675
0.0101834653 0.0199999996 0.0205493186
-0.0151339367 0.0199999996 0.0123253559
-0.0191141086 0.0199999996 0.0221406580
-0.0056177689 0.0199999996 0.0200027702
-0.0105274814 0.0199999996 0.0219423438
-0.0110641163 0.0199999996 0.0186852919
-0.0111084616 0.0199999996 0.0199078335
-0.0050904781 0.0199999996 0.0185927810
0.0128567140 0.0199999996 0.0223288389
-0.0177322722 0.0199999996 0.0157027595
-0.0045659717 0.0240000002 0.0229470498
0.0081545429 0.0240000002 0.0238949018
0.0199071925 0.0240000002 0.0279232048
-0.0030990426 0.0240000002 0.0268781432
0.0049559637 0.0240000002 0.0212732927
-0.0019356613 0.0240000002 0.0257967333
0.0031334673 0.0240000002 0.0271399358
-0.0014500584 0.0240000002 0.0276425336
0.0004501812 0.0240000002 0.0250285552
0.0085455371 0.0240000002 0.0264148429
0.0130902454 0.0240000002 0.0185325716
0.0060512125 0.0240000002 0.0267536732
-0.0033318371 0.0240000002 0.0237843744
0.0163184691 0.0240000002 0.0214874693
-0.0019762416 0.0240000002 0.0154100553
0.0091575372 0.0240000002 0.0142487667
-0.0057819926 0.0240000002 0.0219077301
0.0129550311 0.0240000002 0.0152537007
0.0113703401 0.0240000002 0.0150356758
-0.0153229338 0.0240000002 0.0210052615
0.0126549056 0.0240000002 0.0151691351
-0.0069551977 0.0240000002 0.0211399463
0.0108432833 0.0240000002 0.0156555987
0.0095412442 0.0240000002 0.0168187174
-0.0194278928 0.0240000002 0.0143093621
0.0074561406 0.0240000002 0.0154188107
-0.0079870828 0.0240000002 0.0172627503
0.0199868025 0.0115457744 0.0309999995
-0.0179770025 0.0120220275 0.0309999995
-0.0148042849 0.0141086621 0.0309999995
-0.0125623414 0.0171284039 0.0309999995
-0.0001087277 0.0208371112 0.0309999995
-0.0169144705 0.0202652476 0.0309999995
0.0176928836 0.0207928209 0.0309999995
0.0110712232 0.0172842577 0.0309999995
0.0192586377 0.0183312791 0.0309999995
0.0198489861 0.0202526229 0.0309999995
0.0199999996 0.0294069660 0.0070974462
0.0199999996 0.0213354071 0.0088166583
0.0199999996 0.0290171023 0.0099731834
0.0199999996 -0.0225490229 0.0169898850
0.0199999996 -0.0232544110 0.0093369417
0.0199999996 -0.0285439929 0.0074344671
0.0199999996 -0.0227622774 0.0080831720
0.0199999996 -0.0202598675 0.0119078530
0.0199999996 -0.0201075223 0.0155256953
0.0199999996 -0.0194565171 0.0307245031
0.0199999996 -0.0105093420 0.0306767578
0.0199999996 -0.0132323434 0.0301925251
0.0199999996 -0.0020768133 0.0264988209
0.0199999996 0.0097188943 0.0266637143
0.0199999996 -0.0084451629 0.0279217131
0.0199999996 0.0015819726 0.0284694874
0.0199999996 0.0130818788 0.0292326738
0.0199999996 0.0129322140 0.0293904195
0.0199999996 0.0204630950 0.0266514000
0.0199999996 0.0204559267 0.0170772338
0.0199999996 0.0228547282 0.0167878652
0.0199999996 0.0232497136 0.0173933661
-0.0199999996 -0.0322047558 0.0085086977
-0.0199999996 0.0328229761 0.0084286733
-0.0199999996 0.0267125405 0.0096062857
-0.0199999996 -0.0243770969 0.0089147747
-0.0199999996 0.0235534454 0.0098935468
-0.0199999996 0.0225133549 0.0164472030
-0.0199999996 0.0210776721 0.0278241331
-0.0199999996 0.0221270552 0.0240893442
-0.0199999996 0.0205966227 0.0161821858
-0.0199999996 -0.0174794851 0.0297297091
-0.0199999996 -0.0133445298 0.0278962411
-0.0199999996 -0.0149149909 0.0296715916
-0.0199999996 -0.0094397280 0.0276106284
-0.0199999996 -0.0073439940 0.0267573895
-0.0199999996 -0.0071346332 0.0261358560
-0.0199999996 -0.0081838734 0.0262875018
-0.0199999996 0.0029167279 0.0306827630
-0.0199999996 0.0123888330 0.0292646044
-0.0199999996 -0.0222620389 0.0098744155
-0.0199999996 -0.0201767687 0.0108614488
-0.0199999996 -0.0235030582 0.0143706514
-0.0199999996 -0.0216517936 0.0253236428
-0.0059608525 0.0039552126 0.0618686591
-0.0034527604 0.0063413744 0.0593037165
0.0028689613 0.0065538598 0.0615679947
0.0068089873 0.0024862002 0.0604118852
0.0069282041 -0.0018249941 0.0608338048
0.0037028451 -0.0062133644 0.0588160226
-0.0022834446 -0.0067669704 0.0598605680
-0.0063509472 -0.0032795490 0.0611204658
-0.0072704462 0.0011057654 0.0580000021
-0.0035491484 -0.0074417629 0.0580000021
-0.0059227447 0.0068656190 0.0580000021
0.0079341302 -0.0035244676 0.0580000021
0.0059949390 0.0069403411 0.0580000021
0.0039274833 0.0085315124 0.0580000021
-0.0156157171 -0.0008967646 0.0374716086
-0.0137085752 -0.0015868015 0.0511574863
-0.0136064902 -0.0043898007 0.0474818998
-0.0151507277 -0.0042947742 0.0367647913
-0.0156387199 -0.0019770400 0.0362431074
-0.0121765945 -0.0078122251 0.0461317811
-0.0137467263 -0.0077398000 0.0365355901
-0.0137853220 -0.0068336814 0.0395399687
-0.0141072116 -0.0056003547 0.0407495815
-0.0107209098 -0.0098185900 0.0458855884
-0.0115144933 -0.0101840086 0.0396522819
-0.0125154008 -0.0102657256 0.0333000326
-0.0081441445 -0.0126750408 0.0417359204
-0.0076441781 -0.0114356392 0.0517191878
-0.0093588848 -0.0133169271 0.0326700458
-0.0104200102 -0.0114150176 0.0386100084
-0.0050911736 -0.0140721232 0.0425496774
-0.0055071080 -0.0144098298 0.0392091087
-0.0072970088 -0.0135472487 0.0391289428
-0.0077528248 -0.0134294013 0.0382569883
-0.0006684284 -0.0144558663 0.0461016741
-0.0027018440 -0.0157977364 0.0346310981
-0.0027757628 -0.0143554298 0.0453453942
0.0026969709 -0.0140116657 0.0476342691
0.0016476905 -0.0152691759 0.0396662835
-0.0007393111 -0.0153445391 0.0393451500
0.0002373800 -0.0145677399 0.0455779206
0.0061579505 -0.0128312558 0.0479829213
0.0045461864 -0.0145758567 0.0404695584
0.0033778211 -0.0157729844 0.0333775935
0.0081216525 -0.0110792900 0.0516344895
0.0082061826 -0.0113548902 0.0495859647
0.0074952512 -0.0138427240 0.0366050353
0.0068769468 -0.0141166092 0.0367063430
0.0117181782 -0.0097373898 0.0403271584
0.0114997997 -0.0089037188 0.0456318123
0.0096665772 -0.0127368875 0.0344896766
0.0097109918 -0.0124872321 0.0357928430
0.0124605364 -0.0067148763 0.0485270887
0.0131473296 -0.0080114890 0.0394681905
0.0136110998 -0.0091955797 0.0314416071
0.0134627981 -0.0020130144 0.0529375674
0.0141259862 -0.0027909796 0.0467158500
0.0137419482 -0.0058225471 0.0427864816
0.0151444410 -0.0063343964 0.0312683678
0.0163548843 -0.0009367356 0.0318841588
0.0162481361 -0.0016338971 0.0322680639
0.0147744449 -0.0030873986 0.0414050670
0.0131082953 0.0042438565 0.0516587063
0.0132954232 0.0029220133 0.0525847629
0.0147498238 0.0006562890 0.0439672269
0.0152256194 0.0003061845 0.0403631938
0.0132356250 0.0061267663 0.0452929623
0.0143882501 0.0055352841 0.0393170048
0.0160757975 0.0032050406 0.0316168655
0.0115862744 0.0086287879 0.0464652647
0.0118610923 0.0093971682 0.0411510522
0.0122898700 0.0081467121 0.0445287526
0.0136275842 0.0081441142 0.0354681003
0.0093690766 0.0123308551 0.0384413744
0.0093147487 0.0117004845 0.0425006357
0.0109617918 0.0111640371 0.0374015566
0.0117727546 0.0100104129 0.0386491913
0.0041844499 0.0129673887 0.0529368034
0.0073769059 0.0142135072 0.0347135957
0.0082753429 0.0126704253 0.0411572158
0.0033924668 0.0147067924 0.0415587954
0.0022523569 0.0141370890 0.0472848963
0.0069181652 0.0148954460 0.0313092657
0.0064025566 0.0150101170 0.0319581678
-0.0004358209 0.0141641062 0.0484010228
0.0001769476 0.0159397554 0.0352821672
0.0024328747 0.0161383033 0.0319037151
-0.0032648839 0.0150424481 0.0394885083
-0.0033739441 0.0146138714 0.0423498987
-0.0014157035 0.0161174758 0.0329954270
-0.0004611585 0.0162940964 0.0322771575
-0.0072599641 0.0126105375 0.0454924739
-0.0066829939 0.0127346740 0.0468577864
-0.0051898535 0.0144468827 0.0394497839
-0.0051523098 0.0136566713 0.0453498379
-0.0104793946 0.0108058972 0.0417182491
-0.0089596061 0.0115456837 0.0455038938
-0.0087686622 0.0124438161 0.0406234025
-0.0110853916 0.0081873545 0.0514544554
-0.0117214451 0.0084726100 0.0462629287
-0.0109445817 0.0102436296 0.0422662646
-0.0110287688 0.0097336882 0.0445975501
-0.0139153238 0.0057097590 0.0418868000
-0.0146759216 0.0072460173 0.0320018783
-0.0133606907 0.0078035000 0.0385040931
-0.0161290785 -0.0002984071 0.0337944117
-0.0154975566 0.0003543242 0.0384939956
-0.0145347279 0.0025479506 0.0441253467
-0.0151156867 0.0016227255 0.0405825401
-0.0149710909 0.0050253337 0.0359972167
-0.0134169360 0.0033856793 0.0514151410
-0.0183375632 -0.0010943312 0.0430374621
-0.0162521700 -0.0022182808 0.0584416353
-0.0180924073 -0.0025214261 0.0436002922
-0.0188387478 -0.0037637089 0.0368005551
-0.0160199243 -0.0039144823 0.0580455043
-0.0171220011 -0.0050613122 0.0469747936
-0.0174000983 -0.0049177087 0.0452785527
-0.0179080678 -0.0069500700 0.0363771652
-0.0185868168 -0.0060345070 0.0336544300
-0.0154633452 -0.0071399946 0.0538840389
-0.0141414412 -0.0083522990 0.0582005875
-0.0168296352 -0.0093415525 0.0361156328
-0.0153964131 -0.0112455909 0.0380668329
-0.0148768260 -0.0092291422 0.0498231952
-0.0135670072 -0.0095000417 0.0574770144
-0.0133402758 -0.0101882276 0.0557790450
-0.0125731576 -0.0131028823 0.0448942706
-0.0129900347 -0.0122123425 0.0473623980
-0.0131534165 -0.0127994496 0.0432004105
-0.0107413936 -0.0125624828 0.0577589860
-0.0058465634 -0.0187131008 0.0336264356
-0.0081951948 -0.0173320663 0.0368723734
-0.0067023495 -0.0183115425 0.0340680832
-0.0066854681 -0.0163666474 0.0482927548
-0.0050389479 -0.0155338740 0.0591436060
-0.0096078222 -0.0153600636 0.0447939164
-0.0104556723 -0.0169122030 0.0311328986
-0.0090975331 -0.0148034719 0.0505908764
-0.0099796169 -0.0142481600 0.0505261611
-0.0105872645 -0.0137607283 0.0512394045
-0.0046363066 -0.0168078060 0.0507670335
-0.0040061910 -0.0172088228 0.0486906419
-0.0035408728 -0.0177034511 0.0456175096
-0.0019396513 -0.0174840315 0.0493963132
-0.0031160115 -0.0183058205 0.0414404597
0.0029405712 -0.0194129892 0.0336308845
0.0008576210 -0.0187491046 0.0396499864
0.0002753267 -0.0187475462 0.0399066868
0.0006861104 -0.0178062839 0.0471594652
0.0009365621 -0.0165840434 0.0569121757
-0.0007380565 -0.0180238521 0.0460511748
0.0088795850 -0.0159653693 0.0437702998
0.0092089985 -0.0149090202 0.0499190611
0.0090199782 -0.0144995746 0.0534732710
0.0070735490 -0.0172827268 0.0411265279
0.0062248441 -0.0150777453 0.0593533033
0.0034817921 -0.0195149523 0.0321457208
0.0037039997 -0.0195796386 0.0312007724
0.0051726847 -0.0188555517 0.0335657923
0.0040520976 -0.0162214683 0.0559192267
0.0048315495 -0.0162891353 0.0535914018
0.0105835707 -0.0148746554 0.0442921108
0.0108312614 -0.0126458249 0.0567395606
0.0115933339 -0.0133391856 0.0486033670
0.0115653723 -0.0137933292 0.0459914221
0.0110884065 -0.0120627449 0.0587939255
0.0146232978 -0.0130338710 0.0337430025
0.0155400427 -0.0114118984 0.0356966204
0.0151826000 -0.0101241897 0.0439518243
0.0142337726 -0.0125428535 0.0385321469
0.0140575258 -0.0106101630 0.0486886106
0.0169423579 -0.0061001983 0.0461919191
0.0167155865 -0.0085372226 0.0398065022
0.0180929901 -0.0079338524 0.0320206729
0.0154097206 -0.0074756276 0.0526119303
0.0155032164 -0.0069181748 0.0537502159
0.0173447401 -0.0029598876 0.0492925473
0.0188424906 -0.0032642582 0.0371767661
0.0194598319 -0.0033133551 0.0323130379
0.0170588436 -0.0044639534 0.0488523902
0.0164050439 -0.0050119160 0.0527188748
0.0187339536 0.0010546134 0.0403255441
0.0194427630 0.0014987978 0.0346718026
0.0163262989 0.0006825960 0.0590544847
0.0195300314 -0.0009946465 0.0342094532
0.0165885220 -0.0008549682 0.0569595250
0.0174405163 -0.0025058634 0.0492995812
0.0148133961 0.0082685692 0.0543288745
0.0155398351 0.0086798301 0.0477863043
0.0169563475 0.0070894853 0.0429278395
0.0162051082 0.0062131692 0.0510855039
0.0168454289 0.0063416913 0.0461217446
0.0193830013 0.0029366024 0.0334958437
0.0192503020 0.0039032964 0.0328889212
0.0188358495 0.0055531508 0.0332776286
0.0179201494 0.0029925045 0.0446449168
0.0164061804 0.0032327447 0.0559573599
0.0148414233 0.0100014188 0.0469182105
0.0149710575 0.0092443659 0.0494526033
0.0151078379 0.0113984596 0.0386142565
0.0163038595 0.0113330203 0.0313572126
0.0134107454 0.0109724317 0.0514088431
0.0124339482 0.0117561114 0.0532766070
0.0073621625 0.0145723553 0.0588698364
0.0098595587 0.0146413311 0.0491073383
0.0108675473 0.0145979270 0.0443566820
0.0132307417 0.0137919395 0.0372517792
0.0096208732 0.0141736953 0.0531284341
0.0104016052 0.0126993109 0.0583962849
0.0127616853 0.0130299717 0.0444485435
0.0061824670 0.0154439477 0.0569325919
0.0081126928 0.0175098848 0.0357529523
0.0084574583 0.0170765872 0.0374704423
0.0053540601 0.0164048735 0.0517256275
0.0059462436 0.0171337042 0.0449925383
0.0051227357 0.0185323897 0.0361816382
0.0043112325 0.0167985035 0.0511066409
0.0041864559 0.0168092820 0.0512884468
0.0023748418 0.0179583263 0.0453507460
0.0003644266 0.0193647072 0.0351956948
0.0013839284 0.0176256780 0.0485882433
0.0010484111 0.0171922762 0.0521802080
-0.0003448602 0.0182774427 0.0441104332
-0.0027663928 0.0188730069 0.0372918018
-0.0045148088 0.0184410716 0.0384044187
-0.0026537636 0.0186488013 0.0391500616
-0.0029422199 0.0162837632 0.0572388589
-0.0015886271 0.0192936253 0.0355555636
-0.0052329086 0.0159548500 0.0555074352
-0.0053316735 0.0186588819 0.0355154780
-0.0082373580 0.0168555658 0.0402030112
-0.0075080484 0.0176998955 0.0361751827
-0.0085789017 0.0170767685 0.0376041894
-0.0090592801 0.0154295541 0.0469397726
-0.0091904480 0.0157826581 0.0440877345
-0.0124526328 0.0155200028 0.0313870980
-0.0105407137 0.0142647227 0.0481507673
-0.0102274090 0.0135645912 0.0541461627
-0.0115685943 0.0137567368 0.0466044416
-0.0148651585 0.0124995425 0.0348394763
-0.0144749449 0.0126703937 0.0361260407
-0.0128779703 0.0108986706 0.0546428172
-0.0124893515 0.0121096892 0.0506035002
-0.0122377525 0.0133697186 0.0452953798
-0.0169828734 0.0050109447 0.0482464054
-0.0173908019 0.0058623438 0.0430585943
-0.0168900999 0.0051407230 0.0486126156
-0.0165571861 0.0058941831 0.0491734406
-0.0165986822 0.0084086594 0.0412812544
-0.0148991310 0.0071086575 0.0577823644
-0.0169486130 0.0089161295 0.0369243825
-0.0150497364 0.0092232161 0.0484056271
-0.0142890657 0.0090250690 0.0544856467
-0.0131091884 0.0098295005 0.0588662953
-0.0176538800 -0.0000017754 0.0490980610
-0.0194311918 0.0004960678 0.0350733022
-0.0177617361 0.0013295350 0.0475640938
-0.0193415018 0.0007886756 0.0355311173
-0.0161357352 0.0030496108 0.0584133451
-0.0175468567 0.0037258799 0.0468423053
-0.0096192998 -0.0024663018 0.0620000027
0.0072577842 -0.0044181867 0.0620000027
0.0048493004 -0.0061762321 0.0620000027
-0.0030251134 0.0106988797 0.0620000027
-0.0019402098 0.0122647284 0.0620000027
0.0073247250 -0.0100983300 0.0620000027
-0.0120774164 0.0016310796 0.0620000027
0.0014762562 0.0123259177 0.0620000027
0.0043853185 0.0096511501 0.0620000027
0.0080914014 0.0086513167 0.0620000027
0.0089880385 0.0017821719 0.0620000027
-0.0008297363 -0.0083950410 0.0620000027
-0.0074334208 0.0040013653 0.0620000027
-0.0057200904 0.0084985200 0.0620000027
-0.0093586484 0.0082372411 0.0620000027
-0.0009922625 -0.0120607313 0.0620000027
-0.0046103632 -0.0115079909 0.0620000027
-0.0093006907 -0.0062079027 0.0620000027
0.0016709634 0.0164100015 0.0271438542
-0.0023779920 -0.0163174245 0.0278207433
-0.0078805167 -0.0144636709 0.0285754337
-0.0122314397 -0.0110647915 0.0304701093
-0.0154728333 -0.0056471295 0.0290374309
-0.0163872325 -0.0016853477 0.0284942279
-0.0159497541 0.0041423513 0.0274345952
-0.0132501635 0.0098301117 0.0287410885
-0.0095453738 0.0134312774 0.0272230573
-0.0057183057 0.0154512609 0.0288948610
-0.0012180409 -0.0164191107 0.0301918570
0.0061400228 0.0152717543 0.0294319237
0.0107993046 0.0124677028 0.0307041574
0.0146545283 0.0074673024 0.0305908583
0.0162436567 0.0028891277 0.0295312929
0.0164357654 -0.0013420512 0.0281965696
0.0143338200 -0.0081615906 0.0288829682
0.0109327425 -0.0123476613 0.0286882277
0.0072560311 -0.0147788883 0.0293127360
0.0020773390 -0.0163678065 0.0274309896
0.0142034018 0.0017650457 0.0618162647
0.0084762980 -0.0131945770 0.0607738856
-0.0092485163 -0.0120984772 0.0613006031
0.0089678135 0.0107649356 0.0618737571
0.0140677062 -0.0064392204 0.0609988814
0.0100097713 -0.0127640634 0.0595974115
-0.0002653406 -0.0155233697 0.0609362192
-0.0048953020 -0.0144978091 0.0612443420
-0.0124177615 -0.0093083432 0.0609507917
-0.0140029962 -0.0050377867 0.0614879133
-0.0153401686 0.0007692797 0.0611650222
-0.0152081138 0.0041693026 0.0606728963
-0.0106085777 0.0115802837 0.0607065316
-0.0044542375 0.0142332694 0.0614961749
0.0025515081 0.0159740611 0.0597726085
0.0059600706 0.0131530623 0.0617611400
0.0138486831 0.0081448934 0.0601296869
0.0152983058 0.0046202566 0.0603110678
-0.0156648346 0.0239884049 0.0280432732
-0.0134318985 0.0239842816 0.0280586617
0.0113731033 0.0235984738 0.0294985167
0.0007591359 0.0233392014 0.0297588741
-0.0145045206 0.0228025998 0.0302954766
0.0034275780 0.0230727678 0.0300253082
-0.0185969236 0.0215291500 0.0308582143
-0.0174440356 0.0221736995 0.0306855081
0.0106773454 0.0219618858 0.0307422633
-0.0013552102 0.0240146997 0.0129451408
0.0121117820 0.0241603182 0.0124016846
0.0068395072 0.0242099885 0.0122163125
0.0011072967 0.0248764079 0.0110255154
0.0175202701 0.0245153339 0.0113865897
0.0092793965 0.0250601180 0.0108418051
-0.0040144474 0.0257571422 0.0103330221
0.0006606160 0.0263798172 0.0101661772
0.0080751114 0.0263105503 0.0101847372
-0.0029991486 0.0200152999 0.0089428980
0.0195839031 0.0200473260 0.0088233747
-0.0057296227 0.0208801386 0.0070217850
-0.0069042438 0.0205501087 0.0073518144
-0.0138334150 0.0214605720 0.0064413526
-0.0077524838 0.0215954638 0.0063763447
0.0008468866 0.0219922941 0.0062700142
0.0069418090 0.0225883146 0.0061103109
0.0191213615 0.0171315940 0.0259647384
-0.0147426923 0.0170731652 0.0259803944
0.0110553273 0.0199902796 0.0230362756
0.0181590900 0.0199707729 0.0231090754
-0.0027745317 0.0196160921 0.0244327627
-0.0114276328 0.0194425017 0.0246555738
0.0148723199 0.0189183956 0.0251796799
0.0107878235 0.0183131976 0.0256606145
-0.0009217315 0.0181374130 0.0257194650
-0.0146086040 -0.0193078335 0.0309999995
-0.0183367857 -0.0191122371 0.0309999995
-0.0196418195 -0.0107239877 0.0309999995
0.0193310129 -0.0139801375 0.0309999995
0.0195454743 -0.0196192621 0.0309999995
0.0185529742 -0.0192649727 0.0309999995
0.0139186437 -0.0190938383 0.0309999995
0.0024682356 -0.0201274420 0.0309999995
-0.0140286567 -0.0205611102 0.0309999995
-0.0141144285 -0.0194408326 0.0309999995
-0.0058154004 -0.0240000002 0.0272528635
0.0110965608 -0.0240000002 0.0264670881
0.0025813777 -0.0240000002 0.0217010685
-0.0068641774 -0.0240000002 0.0227700086
-0.0121007894 -0.0240000002 0.0167674720
-0.0042881784 -0.0240000002 0.0247020549
-0.0180919437 -0.0240000002 0.0160227141
-0.0068875424 -0.0240000002 0.0180819231
-0.0144224489 -0.0240000002 0.0232824477
0.0065386894 -0.0240000002 0.0230666526
-0.0160162438 -0.0240000002 0.0220650764
-0.0160239719 -0.0240000002 0.0253859627
-0.0100008675 -0.0240000002 0.0181355472
0.0142073528 -0.0240000002 0.0188944813
0.0003932766 -0.0240000002 0.0154864856
0.0182775750 -0.0240000002 0.0219195517
-0.0025445580 -0.0240000002 0.0166250765
0.0092631412 -0.0240000002 0.0207008382
-0.0036481539 -0.0240000002 0.0184759190
0.0117239760 -0.0240000002 0.0134326721
0.0010277649 -0.0240000002 0.0174300742
0.0057935615 -0.0240000002 0.0216099939
0.0047099390 -0.0240000002 0.0206440266
0.0122372357 -0.0240000002 0.0153634412
-0.0002718759 -0.0240000002 0.0189565825
-0.0014282282 -0.0240000002 0.0159556974
0.0118378280 -0.0240000002 0.0135170423
-0.0169892565 -0.0359999985 0.0064477815
-0.0198240513 -0.0199999996 0.0099590782
-0.0154913722 -0.0199999996 0.0206902011
-0.0090468040 -0.0199999996 0.0159707505
-0.0193907920 -0.0199999996 0.0113595632
0.0094880581 -0.0199999996 0.0109308390
-0.0140510015 -0.0199999996 0.0153553795
-0.0157204787 -0.0199999996 0.0173380080
0.0032340209 -0.0199999996 0.0118644709
0.0112815826 -0.0199999996 0.0097978175
-0.0015321673 -0.0199999996 0.0133960860
0.0049227868 -0.0199999996 0.0122957225
-0.0031502917 -0.0199999996 0.0104997405
0.0096493432 -0.0199999996 0.0119370148
0.0144231506 -0.0199999996 0.0219026765
0.0165575396 -0.0199999996 0.0159665691
-0.0029494815 -0.0199999996 0.0208709854
0.0092624685 -0.0199999996 0.0204994709
-0.0158275546 -0.0199999996 0.0215404038
0.0094736574 -0.0199999996 0.0202629095
0.0132333812 -0.0199999996 0.0196382793
0.0094119893 -0.0199999996 0.0143039228
-0.0028507552 -0.0199999996 0.0211716899
0.0082336570 -0.0199999996 0.0198772830
0.0082164377 -0.0199999996 0.0166503775
0.0125078794 -0.0199999996 0.0205853629
-0.0121799431 -0.0214654899 0.0308752720
0.0128923030 -0.0212401533 0.0309356506
0.0165235369 -0.0211452381 0.0309610830
-0.0154011111 -0.0225591776 0.0305388992
-0.0176467013 -0.0234281747 0.0296699007
0.0195358380 -0.0227598100 0.0303382665
-0.0086904152 -0.0235982761 0.0294992543
-0.0089375791 -0.0237087415 0.0290869919
-0.0093591693 -0.0239970472 0.0280110196
0.0041984359 -0.0269050797 0.0100254337
0.0174518013 -0.0268517283 0.0100397292
0.0151281351 -0.0264506614 0.0101471946
-0.0155454270 -0.0252126974 0.0106892256
0.0116100608 -0.0252388035 0.0106631195
0.0049212867 -0.0247058999 0.0111960235
-0.0112050571 -0.0242503373 0.0120657286
0.0072053739 -0.0240966803 0.0126391847
0.0112291327 -0.0242507363 0.0120642393
-0.0032496320 -0.0227356058 0.0060708443
-0.0099461412 -0.0215147660 0.0063979676
0.0008039342 -0.0214697155 0.0064322092
-0.0189552171 -0.0209909647 0.0069109592
0.0100431138 -0.0204079614 0.0074939615
0.0125977391 -0.0203427515 0.0077208311
-0.0181310041 -0.0201200289 0.0085520437
0.0023725760 -0.0201946573 0.0082735264
-0.0130688692 -0.0178392202 0.0257751307
0.0199612380 -0.0174393178 0.0258822841
0.0177415818 -0.0196965137 0.0241326252
-0.0120853638 -0.0198409770 0.0235934804
-0.0024507319 -0.0196199628 0.0244183171
0.0060893413 -0.0189255148 0.0251725607
0.0074846651 -0.0187539288 0.0253441467
0.0031273151 -0.0186759866 0.0254220889
0.0078556085 -0.0183036796 0.0256638010
-0.0094690306 -0.0076251771 0.0529999994
-0.0113025285 -0.0038443793 0.0529999994
-0.0024801009 -0.0115476991 0.0529999994
0.0074682131 0.0111602635 0.0529999994
0.0113134529 0.0048744969 0.0529999994
-0.0015000216 0.0111412446 0.0529999994
0.0013520595 0.0122328405 0.0529999994
0.0086901995 -0.0056699086 0.0529999994
0.0104440767 -0.0079669948 0.0529999994
-0.0070489209 0.0091918947 0.0529999994
-0.0028234813 -0.0090899998 0.0569148743
0.0050457314 -0.0090899998 0.0573189486
-0.0090992382 -0.0024196572 0.0543612169
-0.0065144976 -0.0068965591 0.0559699002
-0.0069596133 0.0061255961 0.0547054019
-0.0063298947 0.0072163008 0.0573168421
0.0002447919 0.0090899998 0.0550577109
0.0005097500 0.0090899998 0.0570210571
0.0101174642 0.0006560381 0.0555909938
0.0061963898 0.0074475380 0.0574868303
0.0073206175 -0.0055003186 0.0553877739
0.0075817329 -0.0050480534 0.0564036872
-0.0170240519 0.0359759475 0.0065164340
0.0192178223 -0.0337821771 0.0092296228
-0.0180840964 -0.0349159030 0.0082143268
-0.0073093926 -0.0300101786 0.0080047946
-0.0124881561 -0.0297563128 0.0089742591
-0.0137499999 -0.0342219068 0.0065863116
0.0021677860 -0.0308797751 0.0074446482
-0.0020118168 -0.0302976903 0.0074546561
0.0005738367 0.0289537590 0.0098532236
0.0004742559 0.0330729226 0.0077725648
-0.0018071634 0.0298019072 0.0066732775
0.0098402297 -0.0027266734 0.0530407327
0.0097607159 0.0022500770 0.0531576656
-0.0105084165 -0.0002471272 0.0534998555
0.0016919328 0.0095688101 0.0531501534
-0.0089356717 0.0045722944 0.0530175058
0.0153902842 0.0080323734 0.0260301163
0.0133836720 0.0103209107 0.0262187146
0.0110906287 0.0121942775 0.0269679882
-0.0081885073 -0.0148757018 0.0261324297
-0.0065978004 -0.0155748150 0.0261910075
-0.0040642693 0.0161723380 0.0264529094
-0.0044771131 0.0159805525 0.0265597080
0.0128545816 -0.0302157956 0.0075215530
0.0083578100 -0.0292330054 0.0094102222
0.0137499999 -0.0327086689 0.0069188404
-0.0124083121 0.0296561915 0.0097229912
-0.0077531487 0.0295241952 0.0064671231
-0.0137499999 0.0325846378 0.0091797482
0.0077900057 0.0295064458 0.0064514300
0.0127010661 0.0300232934 0.0072314544
0.0137499999 0.0340856240 0.0079153995
-0.0061292639 0.0349505932 0.0070556565
-0.0149299715 -0.0359142476 0.0067326751
0.0056110236 -0.0356880142 0.0090029578
0.0083658082 -0.0015301535 0.0659999996
-0.0018237163 -0.0085809973 0.0659999996
0.0017430166 0.0081075103 0.0659999996
0.0067852802 0.0040362907 0.0659999996
-0.0081858134 -0.0034259340 0.0659999996
-0.0096453185 0.0011707005 0.0659999996
-0.0077622303 -0.0044008214 0.0619999990
0.0068615801 0.0034731543 0.0619999990
0.0035262498 0.0082502801 0.0619999990
-0.0074007169 0.0024423683 0.0619999990
-0.0005120260 -0.0087607521 0.0619999990
0.0085235763 -0.0028552122 0.0619999990
-0.0099747830 -0.0007231684 0.0656788837
-0.0071616337 -0.0055956860 0.0620860857
0.0006336981 -0.0089999996 0.0659173871
-0.0044433030 -0.0089999996 0.0654372516
0.0091706752 -0.0021159241 0.0630174696
0.0070878527 -0.0057234784 0.0643781213
0.0070817112 0.0057341157 0.0640772135
0.0072178872 0.0054982519 0.0625799802
-0.0047362814 0.0089999996 0.0629340394
0.0018356467 0.0089999996 0.0633194693
-0.0066598627 0.0064647787 0.0650605436
-0.0077257795 0.0046185567 0.0621434601
0.0061035563 0.0032285319 0.0558889537
0.0053084031 0.0044979445 0.0561703944
0.0032341228 0.0061209434 0.0564428506
0.0009289127 0.0068512206 0.0572906364
-0.0009163713 0.0068904181 0.0592628214
-0.0032743009 0.0061082909 0.0544062089
-0.0032186657 0.0061446392 0.0609715880
-0.0050985394 0.0046906634 0.0616161502
-0.0068853419 0.0012080521 0.0548380748
-0.0069045289 0.0004184816 0.0597289851
-0.0065727353 -0.0021186439 0.0576050028
-0.0048201065 -0.0050483941 0.0600081192
-0.0036793014 -0.0058436908 0.0600453270
-0.0006113525 -0.0069676593 0.0598875148
0.0006295521 -0.0068760263 0.0533456780
0.0024687866 -0.0064566512 0.0559177253
0.0038540279 -0.0058367914 0.0580341277
0.0056299207 -0.0041037339 0.0557330031
0.0066918463 -0.0018466634 0.0580917733
0.0069681117 0.0001910972 0.0577936299
0.0005071848 -0.0068114107 0.0520000011
-0.0052949440 -0.0012982000 0.0755438479
-0.0050809591 -0.0018505587 0.0731496914
-0.0051834454 -0.0015860112 0.0927484490
-0.0054378196 -0.0006710347 0.0821342626
-0.0054132389 0.0009234991 0.1075877347
-0.0054195550 -0.0001373059 0.1035409788
-0.0054203554 0.0000949116 0.1030281829
-0.0054072455 0.0010009821 0.0907268678
-0.0054172317 0.0008932138 0.0888009782
-0.0053261206 0.0012177240 0.0833246812
-0.0049629434 0.0021551925 0.1109256803
-0.0049153664 0.0022780028 0.0916736038
-0.0047934647 0.0025926673 0.0584647643
-0.0046960766 0.0028440551 0.0701806098
-0.0040385912 0.0035947941 0.0925572025
-0.0046748072 0.0028968985 0.0573016828
-0.0045027817 0.0030856015 0.0930304736
-0.0041119596 0.0035143128 0.0718969807
-0.0036735430 0.0039952328 0.0563672018
-0.0044012045 0.0031970263 0.0593161511
-0.0031610900 0.0044654790 0.0745985457
-0.0024425741 0.0048232575 0.1095044563
-0.0020866115 0.0050005059 0.0999783829
-0.0024399508 0.0048245638 0.0599316758
-0.0015420266 0.0052716771 0.0943070879
-0.0001999383 0.0054109865 0.1009124930
-0.0000308026 0.0054266593 0.1025692904
-0.0003418292 0.0053978384 0.1095803678
-0.0005738567 0.0053763379 0.0708841009
-0.0000065220 0.0054289092 0.0689575857
-0.0005085125 0.0053823929 0.0780896672
0.0011484646 0.0052941611 0.0912276642
0.0006311369 0.0054413535 0.0631187050
0.0007430480 0.0054095121 0.0701425463
0.0013958078 0.0052237859 0.0624821925
0.0014800043 0.0051998299 0.0568428655
0.0030461575 0.0044743797 0.1051117849
0.0034626531 0.0041598569 0.0902544654
0.0025724261 0.0048321250 0.0944972919
0.0035642132 0.0040831622 0.0750299969
0.0039459035 0.0037949231 0.1034848102
0.0034375102 0.0041788439 0.0706528670
0.0046302481 0.0027916908 0.1105646864
0.0047484947 0.0026007161 0.1016011243
0.0043442998 0.0032535133 0.0846917202
0.0046575353 0.0027476206 0.0754436520
0.0050138123 0.0021722134 0.0676258231
0.0050762016 0.0020714512 0.1001202603
0.0052583843 0.0012925299 0.0798487919
0.0052532902 0.0013197814 0.0803979864
0.0053405390 0.0008530412 0.0783043952
0.0051767044 0.0017294792 0.0582073432
0.0053731221 0.0006787367 0.0826614305
0.0053767212 -0.0006594835 0.0851452566
0.0054567342 -0.0002314515 0.0701324218
0.0053847902 -0.0006163182 0.0954491571
0.0053426388 -0.0008418082 0.0646583088
0.0053095981 -0.0010185606 0.0813371187
0.0054560577 -0.0002350704 0.0575779672
0.0050136387 -0.0021724937 0.0824506155
0.0043894583 -0.0031805798 0.1111775572
0.0047242853 -0.0026398156 0.0958684936
0.0048360388 -0.0024593275 0.0658674170
0.0042665724 -0.0033790473 0.0610481064
0.0038617969 -0.0038584375 0.0681460237
0.0036329636 -0.0040312443 0.0876317609
0.0039961322 -0.0037569922 0.0772792492
0.0038784247 -0.0038458807 0.0586605509
0.0026491514 -0.0047741847 0.0877564635
0.0025692398 -0.0048345312 0.0833861426
0.0013157038 -0.0052465774 0.1005170700
0.0017574228 -0.0051208975 0.1049114755
0.0014880750 -0.0051975336 0.0868743577
0.0007230958 -0.0054151890 0.1020681031
0.0006000093 -0.0054502101 0.0658685297
0.0013745098 -0.0052298457 0.0840175985
-0.0003331150 -0.0053986459 0.0907395097
-0.0007161216 -0.0053631551 0.1102236062
-0.0014765749 -0.0052926888 0.0945805494
-0.0013315730 -0.0053061252 0.1007767410
-0.0004517176 -0.0053876557 0.0536537088
-0.0020871017 -0.0050002618 0.1113762031
-0.0024968367 -0.0047962380 0.1045653938
-0.0021112950 -0.0049882150 0.0825659628
-0.0026996215 -0.0046952631 0.0525300949
-0.0017738903 -0.0051562227 0.0597803209
-0.0032370886 -0.0044276362 0.0651703075
-0.0034821620 -0.0042051678 0.0898711174
-0.0045014087 -0.0030871076 0.1089749028
-0.0038751917 -0.0037740348 0.1001454910
-0.0034971339 -0.0041887443 0.0545863335
-0.0044683248 -0.0031233989 0.0702173348
-0.0047505824 -0.0027033594 0.0697951775
-0.0050947108 -0.0018150615 0.0907486084
-0.0051046279 -0.0017894626 0.0887050233
0.0066576837 0.0020513882 0.1114761972
0.0066634332 0.0020169333 0.0912382908
0.0067090473 0.0017435833 0.0969409459
0.0065267472 0.0024465437 0.1017701299
0.0065283333 0.0024436128 0.0821079227
0.0063978200 0.0026847802 0.1026953638
0.0059656047 0.0034834441 0.0911868607
0.0058033861 0.0037831980 0.1093923983
0.0053781662 0.0044337230 0.1029102283
0.0054073341 0.0044068721 0.0744135885
0.0041977395 0.0055203825 0.0892969587
0.0040408990 0.0056647644 0.0817235228
0.0037492567 0.0058949847 0.0958347341
0.0029943458 0.0062261195 0.0796438246
0.0032849712 0.0060986393 0.0904838337
0.0020407123 0.0066444220 0.0827617870
0.0036158800 0.0059534892 0.1112165271
0.0009217424 0.0068518147 0.0697481005
-0.0001207393 0.0069381971 0.0674430271
0.0009444996 0.0068499290 0.0860854716
0.0002585300 0.0069067700 0.0861750283
0.0002435073 0.0069080148 0.1073811435
-0.0015610093 0.0067271737 0.0787299192
-0.0008136408 0.0069164330 0.0844048309
-0.0015086558 0.0067404314 0.0772695730
-0.0027623194 0.0064229608 0.0674412795
-0.0026950626 0.0064399925 0.1087673305
-0.0028550918 0.0063821739 0.0894354264
-0.0031121979 0.0062141980 0.0696185499
-0.0033626447 0.0060505730 0.0830205787
-0.0039116242 0.0056919067 0.0969612649
-0.0038881049 0.0057072726 0.0998157281
-0.0049082919 0.0049350935 0.1027980394
-0.0052813228 0.0044558232 0.0940136483
-0.0058781976 0.0036889583 0.0753318155
-0.0050207273 0.0047906364 0.1053601586
-0.0059780315 0.0035606917 0.0755039539
-0.0064921165 0.0023534783 0.0745709387
-0.0062439824 0.0030762682 0.0816075259
-0.0062916566 0.0029373981 0.1079425722
-0.0066930561 0.0017681614 0.0794929952
-0.0067560896 0.0015845511 0.0884512205
-0.0069045289 0.0004182411 0.0800868944
-0.0069045289 0.0001778351 0.0735799367
-0.0069045289 -0.0002496021 0.0895158339
-0.0069045289 0.0007538329 0.1058468776
-0.0069045289 -0.0006649110 0.0850903415
-0.0063265984 -0.0028356162 0.0741038546
-0.0066112552 -0.0020064391 0.0886998562
-0.0062984495 -0.0029176111 0.0896275555
-0.0062757062 -0.0029838601 0.0841522394
-0.0064951403 -0.0023446705 0.0969108977
-0.0056475041 -0.0039853534 0.0820575240
-0.0054066125 -0.0042948510 0.0835178129
-0.0050303037 -0.0047783326 0.1088493825
-0.0052997401 -0.0044321607 0.1115731793
-0.0034910475 -0.0059666832 0.0732039849
-0.0034514346 -0.0059925636 0.0770254593
-0.0042702195 -0.0054576246 0.0976054448
-0.0031831779 -0.0061678245 0.1060934725
-0.0029321272 -0.0063318441 0.0889189301
-0.0010281041 -0.0068621236 0.0668728980
-0.0027850515 -0.0064172043 0.0691165687
-0.0022581598 -0.0065506313 0.0672234389
-0.0010385010 -0.0068594907 0.0921559638
-0.0010646445 -0.0068528703 0.0969251062
0.0005343164 -0.0068839177 0.0716013933
0.0004388566 -0.0068918277 0.0775786804
0.0001554936 -0.0069153078 0.0905020316
0.0016988641 -0.0067874207 0.1086303498
0.0005351063 -0.0068838523 0.1115014504
0.0035769704 -0.0059705565 0.0700882647
0.0026886925 -0.0063601915 0.0665855571
0.0021632420 -0.0065906755 0.0755850962
0.0026822937 -0.0063629982 0.1004102274
0.0027748283 -0.0063224088 0.1086058077
0.0039471677 -0.0057510501 0.1008775225
0.0038990776 -0.0057953201 0.0926115754
0.0050391174 -0.0047458395 0.1072310183
0.0049477103 -0.0048299856 0.0896917118
0.0054209605 -0.0043943281 0.1085923080
0.0060373172 -0.0033509311 0.0792850208
0.0056168384 -0.0041279077 0.1005924994
0.0062085703 -0.0030344830 0.0978004746
0.0065343208 -0.0024325489 0.1039301546
0.0056324302 -0.0040990966 0.1081581732
0.0067399840 -0.0015581897 0.0837498220
0.0066633893 -0.0020171962 0.0761616260
0.0069372068 -0.0003762997 0.1078076437
0.0068001153 -0.0011978433 0.1019890828
0.0069980542 -0.0000116616 0.0957139116
0.0069104282 0.0005367749 0.0979527445
0.0069697232 0.0001814398 0.0792179831
0.0060068872 -0.0025481724 0.1120000035
-0.0020136708 0.0054270360 0.1120000035
-0.0023500917 -0.0053046705 0.1120000035
0.0016080678 -0.0048315178 0.0319999978
-0.0028109787 0.0040762786 0.0319999978
0.0041582021 -0.0027578711 0.0520000011
0.0060000001 0.0001510268 0.0412115193
0.0060000001 0.0006216505 0.0384408134
0.0060000001 0.0007069321 0.0441276540
0.0060000001 0.0012588127 0.0509502217
0.0044179931 -0.0043774738 0.0373854491
0.0048287647 -0.0041403147 0.0350561149
0.0036481866 -0.0048219218 0.0332544980
0.0017203102 -0.0059349817 0.0478615988
0.0024738250 -0.0054999398 0.0406085661
-0.0018868033 -0.0058388569 0.0500092797
-0.0023358149 -0.0055796199 0.0519741198
-0.0047685001 -0.0041751084 0.0478871869
-0.0037938175 -0.0047378417 0.0451950927
-0.0060000001 -0.0012942280 0.0383746950
-0.0060000001 -0.0011168747 0.0390557028
-0.0060000001 0.0019499389 0.0449597723
-0.0060000001 0.0001022836 0.0420027218
-0.0022639620 0.0056211042 0.0459674529
-0.0032226378 0.0050676125 0.0513490156
-0.0023775632 0.0055555165 0.0345095636
-0.0027386991 0.0053470146 0.0344832457
0.0012233859 0.0062218812 0.0355227414
0.0018411406 0.0058652203 0.0460703582
0.0048563036 0.0041244151 0.0467533381
0.0024687791 0.0055028530 0.0365499114
0.0048166153 0.0041473291 0.0367796067
0.0044970211 0.0017745457 0.0358718289
0.0040099277 0.0025607484 0.0364858804
0.0038256055 0.0028366060 0.0488580332
0.0025950985 0.0039869757 0.0380878682
0.0030198462 0.0037031682 0.0485086125
0.0010629704 0.0046385622 0.0408605093
0.0005551816 0.0047395677 0.0406898073
-0.0018032460 0.0044913123 0.0477547911
-0.0024669442 0.0040726057 0.0329081963
-0.0027935748 0.0038543581 0.0480844705
-0.0035279417 0.0032820912 0.0422954448
-0.0041634533 0.0023309813 0.0389468336
-0.0046311647 0.0011001605 0.0334077343
-0.0047323784 0.0005913247 0.0419018385
-0.0046660397 -0.0009248320 0.0513075425
-0.0038103834 -0.0028593875 0.0346356837
-0.0036147526 -0.0031521696 0.0395592596
-0.0031610131 -0.0036088436 0.0348743769
-0.0024066394 -0.0041129001 0.0474191917
-0.0009055802 -0.0046698691 0.0338295268
-0.0002438097 -0.0048015034 0.0431289503
0.0016141627 -0.0045289233 0.0453937615
0.0030051728 -0.0037129727 0.0351868464
0.0031129223 -0.0036409768 0.0486237279
0.0041269995 -0.0023855381 0.0363913872
0.0039524794 -0.0026467259 0.0445232574
0.0045740177 -0.0013874577 0.0466499796
0.0045218093 -0.0016499271 0.0518027794
0.0055912403 -0.0034502114 0.0501876279
0.0009369337 -0.0063677516 0.0502312722
-0.0003894833 -0.0065144403 0.0506193776
-0.0054521627 -0.0035892890 0.0512335641
-0.0058412695 -0.0029017910 0.0463716827
-0.0059731583 0.0024095756 0.0466486265
-0.0056248364 0.0034166152 0.0483898549
-0.0009424075 0.0063662849 0.0503103858
0.0001455228 0.0065798093 0.0515386896
0.0050202309 0.0040212210 0.0398860177
0.0057915810 0.0030872310 0.0397412005
