-0.0000567621 0.0814999938 0.0274191575
0.0011050800 0.0814999938 0.0275101295
0.0049367379 0.0811005959 0.0284237122
0.0021718790 0.0700927410 0.0288981041
0.0036789814 0.0684521184 0.0285701518
0.0019626132 0.0789490012 0.0284672555
-0.0009171565 0.0764589651 0.0286233937
-0.0041207289 0.0782521420 0.0282370823
-0.0048714728 0.0717424438 0.0285736371
-0.0051420975 0.0814999938 0.0243620372
-0.0033861632 0.0814999938 0.0256805347
0.0076942152 0.0777623592 0.0274747944
0.0067649239 0.0762614932 0.0277328106
0.0082692235 0.0814999938 0.0245257441
0.0118284632 0.0814999938 0.0251160512
0.0032912794 0.0650036558 0.0272821531
-0.0107604602 0.0769446925 0.0264257470
-0.0129520356 0.0758429079 0.0255525438
-0.0103700784 0.0715853797 0.0270603303
-0.0129613860 0.0714322748 0.0258496290
0.0081090627 0.0656819780 0.0266518500
0.0144305685 0.0750799575 0.0246429700
0.0148648836 0.0730000138 0.0245143763
0.0063150842 0.0637399656 0.0257498876
-0.0090113399 0.0814999938 0.0222738288
0.0171844224 0.0814999938 0.0226755142
0.0147396331 0.0808149948 0.0247888198
0.0137426151 0.0723794893 0.0255341121
-0.0043982813 0.0620313340 0.0243473662
-0.0163733376 0.0750530855 0.0233701979
-0.0009972133 0.0615600991 0.0241621170
-0.0147925493 0.0655645048 0.0234652669
0.0086170185 0.0623915794 0.0236632764
-0.0182080511 0.0682352026 0.0223194244
0.0162149851 0.0782660261 0.0236621626
0.0178510587 0.0713785849 0.0228218667
0.0143961267 0.0636236032 0.0221446658
0.0032821636 0.0598901849 0.0214296326
-0.0154227753 0.0814999938 0.0194220735
-0.0191744022 0.0796011686 0.0214887118
0.0177071351 0.0814999938 0.0217882931
0.0216212093 0.0804853407 0.0191186716
0.0004292352 0.0721989137 0.0224591054
0.0007898253 0.0810745592 0.0224207692
0.0054835307 0.0794177136 0.0216936919
-0.0041301455 0.0716525058 0.0220828047
-0.0190840591 0.0681270338 0.0214920348
-0.0047124638 0.0735468661 0.0219697600
-0.0085893316 0.0789351928 0.0207163905
0.0151668502 0.0621947888 0.0197478285
-0.0196267666 0.0781251599 0.0207689797
-0.0218546510 0.0760556882 0.0184170288
-0.0188116185 0.0656222524 0.0204685487
0.0073900540 0.0780820491 0.0212150044
-0.0033824229 0.0715000033 0.0155163244
-0.0029485542 0.0715000033 0.0159181960
-0.0086474779 0.0715000033 0.0184607148
-0.0086414477 0.0715000033 0.0143858431
-0.0152861095 0.0715000033 0.0128752038
-0.0023500761 0.0715000033 0.0193933750
-0.0027880442 0.0583930786 0.0185240619
0.0001170510 0.0715000033 0.0153272258
-0.0043104925 0.0715000033 0.0133991474
-0.0065571179 0.0594926279 0.0198866548
0.0042413961 0.0579040052 0.0172758479
-0.0166197639 0.0630921348 0.0199177214
0.0168196240 0.0614708298 0.0174562188
-0.0121972003 0.0774501797 0.0187716974
-0.0104720018 0.0732768010 0.0199083449
-0.0033716507 0.0715000033 0.0119993011
0.0003134851 0.0715000033 0.0135419033
-0.0228702882 0.0707987974 0.0177504792
0.0233589899 0.0778374602 0.0164181341
-0.0128431341 0.0598158700 0.0176948914
-0.0214757949 0.0666327993 0.0183998669
0.0125029272 0.0723459438 0.0186706628
-0.0076238415 0.0715000033 0.0088489996
0.0084428297 0.0715000033 0.0167306928
-0.0227197575 0.0814999938 0.0137842399
-0.0157571151 0.0814999938 0.0175656875
0.0174774326 0.0613194110 0.0166696874
-0.0142069858 0.0729271155 0.0174049468
0.0209913506 0.0638606073 0.0165955818
0.0230794913 0.0814999938 0.0168828097
0.0232816187 0.0695418441 0.0171978812
-0.0238087627 0.0765481517 0.0157714813
-0.0258156352 0.0768045041 0.0124360309
-0.0154913396 0.0783077202 0.0161895991
0.0005501232 0.0715000033 0.0116695102
0.0087893629 0.0715000033 0.0143812333
-0.0171982943 0.0587833154 0.0124822027
0.0155093698 0.0600471871 0.0162740049
-0.0007813192 0.0561437216 0.0137857794
0.0033477347 0.0571947819 0.0159723544
-0.0048628986 0.0563778202 0.0138173872
0.0254124278 0.0710749608 0.0138788153
-0.0093798973 0.0571734045 0.0141629548
0.0175522115 0.0812998683 0.0138197532
0.0183059572 0.0722036496 0.0130168411
-0.0111715607 0.0715000033 -0.0131887915
0.0137726247 0.0715000033 0.0127174024
-0.0030704213 0.0715000033 -0.0014842905
0.0057268602 0.0715000033 0.0062905878
-0.0023109111 0.0715000033 0.0006756293
0.0007503647 0.0715000033 0.0032043502
-0.0087985956 0.0715000033 -0.0018703376
-0.0158699986 0.0715000033 -0.0055971285
-0.0050967652 0.0715000033 0.0015370708
0.0017575476 0.0715000033 0.0069743331
-0.0105319042 0.0715000033 0.0009272209
-0.0215535542 0.0715000033 -0.0061028226
0.0000780147 0.0715000033 0.0074360602
-0.0078234408 0.0715000033 0.0048364766
-0.0011615086 0.0715000033 0.0081313365
-0.0060888896 0.0715000033 0.0066469567
-0.0187632397 0.0605736979 0.0143456029
0.0108655035 0.0715000033 0.0082401217
0.0142337544 0.0715000033 0.0106342780
-0.0101337845 0.0557176731 0.0105959242
-0.0177381246 0.0723308865 0.0137788021
0.0256776679 0.0787056401 0.0124493348
0.0257231779 0.0736075727 0.0123509663
0.0236632351 0.0645205180 0.0135596589
0.0121859995 0.0557988404 0.0097973188
-0.0199284502 0.0580256929 0.0081428003
-0.0265123145 0.0814999938 0.0083921888
-0.0072674557 0.0715000033 -0.0109258863
0.0151238129 0.0715000033 0.0085026628
-0.0206778211 0.0800539052 0.0087745593
-0.0189905550 0.0728121704 0.0119912804
-0.0277056569 0.0814999938 0.0065345326
0.0211497223 0.0600316208 0.0104195611
0.0257134075 0.0814999938 0.0118319932
0.0235103588 0.0814999938 0.0067673714
-0.0259610450 0.0661573294 0.0108802306
-0.0023359702 0.0260886639 0.0121360039
-0.0028741591 0.0233988371 0.0121360039
0.0008913810 0.0284450511 0.0108508341
-0.0089056034 0.0240455356 0.0121360039
-0.0083179947 0.0270802971 0.0105681432
0.0110534819 0.0256055699 0.0121360039
0.0066173425 0.0277052024 0.0117492366
-0.0118492110 0.0239974215 0.0121360039
-0.0131501387 0.0251359030 0.0121157213
0.0112035673 0.0199273262 0.0121360039
-0.0228781346 0.0132029268 0.0121360039
-0.0227853777 0.0093684951 0.0121360039
-0.0243929503 0.0084732956 0.0121360039
-0.0201230020 0.0199526507 0.0111566483
-0.0023155461 0.0222074702 0.0067602053
-0.0043061417 0.0219560092 0.0080264761
0.0142174950 0.0187091807 0.0121360039
0.0179697965 0.0211289638 0.0121360039
0.0057364797 0.0217373190 0.0078395996
0.0006608488 0.0224164989 0.0027660395
-0.0079453849 0.0208627581 0.0070084128
-0.0090610958 0.0204210197 0.0105210546
0.0131719877 0.0180222135 0.0111383592
0.0101433577 0.0199925227 0.0093307850
-0.0125931585 0.0184427660 0.0027304133
-0.0140353726 0.0173949217 0.0100707771
-0.0230245606 0.0165232593 0.0103453854
0.0190507453 0.0154289584 0.0121360039
0.0235292931 0.0158033872 0.0118714726
0.0158120811 0.0159064442 0.0087196103
0.0140958814 0.0173509568 0.0027524557
-0.0160766433 0.0155866481 0.0038144325
-0.0167426438 0.0147815986 0.0092029909
0.0226547321 0.0097893401 0.0121360039
0.0257039700 0.0122937777 0.0096730715
0.0191910934 0.0116444499 0.0057892895
0.0188602417 0.0122218837 0.0090149788
-0.0197163929 0.0105281285 0.0054252324
-0.0202968348 0.0092946241 0.0073294803
-0.0280524257 0.0039235742 0.0097386874
0.0215564072 0.0061265503 0.0090301261
0.0207886812 0.0082494009 0.0033285146
0.0229988435 0.0025895551 0.0121360039
-0.0216795511 0.0054809891 0.0045275630
-0.0223908177 0.0017524069 0.0089147431
-0.0259134177 0.0023022796 0.0121360039
0.0224459804 0.0012598664 0.0051734360
0.0217031925 0.0053570764 0.0044414751
0.0269717134 -0.0054690728 0.0121360039
-0.0223326856 -0.0005408558 0.0052257574
-0.0222946678 -0.0011451336 0.0099746155
-0.0272392438 0.0008191567 0.0121360039
-0.0219370989 -0.0048378509 0.0121360039
-0.0236984428 -0.0066829126 0.0121360039
-0.0278496949 -0.0032517514 0.0121360039
0.0209266533 -0.0078317519 0.0096046791
0.0221763748 -0.0030253717 0.0089406413
0.0210615058 -0.0074744795 0.0121360039
-0.0208667355 -0.0080161595 0.0024113900
-0.0216755709 -0.0055268269 0.0117324142
0.0281749828 -0.0029174560 0.0106050981
-0.0249816196 -0.0096699243 0.0121360039
0.0188847416 -0.0119024779 0.0076766336
0.0209402985 -0.0077897563 0.0047461657
0.0197724121 -0.0117738256 0.0121360039
-0.0195496250 -0.0108547785 0.0071176717
-0.0175688287 -0.0139760463 0.0050996362
0.0263298003 -0.0105286198 0.0094818431
-0.0245063816 -0.0143092753 0.0096243762
0.0155372934 -0.0160316740 0.0112984975
0.0181939286 -0.0129910363 0.0067906983
0.0211344831 -0.0187028425 0.0121360039
-0.0163567110 -0.0152621923 0.0080092089
-0.0144634395 -0.0170400883 0.0090140848
-0.0143006804 -0.0172686586 0.0121360039
0.0103393987 -0.0197893575 0.0082541975
0.0150471780 -0.0164919217 0.0067662101
0.0125485691 -0.0208455268 0.0121360039
-0.0112814081 -0.0192714865 0.0040335188
-0.0085945789 -0.0207485777 0.0038122904
-0.0167455317 -0.0205461326 0.0121360039
-0.0215172522 -0.0186299373 0.0114285473
0.0057470228 -0.0215710575 0.0113768915
0.0099924131 -0.0199801138 0.0075162846
0.0067898288 -0.0243318474 0.0121360039
-0.0081971948 -0.0209419575 0.0057107009
-0.0053642519 -0.0216693368 0.0104883904
-0.0113731471 -0.0217253299 0.0121360039
0.0153773729 -0.0237872099 0.0112893910
0.0023352906 -0.0223225933 0.0104855037
0.0063820931 -0.0214079984 0.0029764247
-0.0022387766 -0.0267445263 0.0121360039
0.0050779150 -0.0259182014 0.0121360039
-0.0006806053 -0.0223225933 0.0078258967
-0.0165306103 -0.0231224647 0.0100108900
-0.0104150088 -0.0263963045 0.0098042531
0.0078389906 -0.0272922080 0.0104819033
0.0032693800 -0.0281377873 0.0106495785
-0.0270734579 0.0760082820 0.0090056247
0.0240358241 0.0626292374 0.0102013619
0.0278940352 0.0717851600 0.0076726458
-0.0013124287 0.0535107730 0.0078599550
-0.0068729942 0.0538110553 0.0076506512
0.0018652098 0.0537477610 0.0082003664
0.0203072816 0.0790521921 0.0094643595
0.0111592101 0.0715000033 0.0031602950
0.0131051957 0.0715000033 0.0044034604
0.0179234841 0.0568845482 0.0078990177
0.0071090169 0.0529572810 0.0057836095
-0.0109365272 0.0531122499 0.0049128028
-0.0276960169 0.0680674933 0.0077901302
-0.0012238068 0.0280620833 0.0050513481
0.0000765463 0.0281913478 0.0051272623
0.0063649468 0.0274614992 0.0036771325
-0.0082553553 0.0268000246 0.0090901669
0.0119052444 0.0255228839 0.0062657853
0.0167116348 0.0225947889 0.0090701954
-0.0123364425 0.0253439044 0.0067671031
0.0173661391 0.0221835368 0.0056567882
-0.0197669129 0.0198631461 0.0068824024
-0.0191466728 0.0204833847 0.0056292243
0.0233177572 0.0155610484 0.0076824222
-0.0224917049 0.0168757032 0.0092677666
0.0259513143 0.0111804143 0.0094360029
0.0259485178 0.0106888847 0.0062044692
-0.0268052769 0.0082404154 0.0057463399
0.0263289338 0.0096017248 0.0048687227
0.0277203547 0.0042570104 0.0054654656
-0.0278303941 0.0032803589 0.0050547618
0.0277757151 0.0037656697 0.0040895486
-0.0279108975 -0.0025658650 0.0073498580
-0.0281979695 -0.0000180230 0.0039723128
0.0271409131 -0.0072812303 0.0049446077
-0.0260125504 -0.0105058829 0.0066658507
0.0264919731 -0.0091357830 0.0054214839
0.0236486435 -0.0150344411 0.0078773372
-0.0248568535 -0.0131115850 0.0083685828
0.0231167770 -0.0158809023 0.0072653362
-0.0196131227 -0.0200169322 0.0074189624
-0.0185561903 -0.0210738620 0.0035766133
0.0173627769 -0.0221856457 0.0068035125
-0.0142748391 -0.0241259246 0.0094093688
0.0148239292 -0.0237809087 0.0059203134
0.0116949025 -0.0255964813 0.0069215256
-0.0115623937 -0.0256428485 0.0084100881
0.0083090919 -0.0267812162 0.0048263577
-0.0043627351 -0.0278712414 0.0094360029
-0.0020953026 -0.0279639257 0.0071315144
0.0006967387 -0.0281215184 0.0048562111
0.0024579984 0.0526742647 0.0058727786
0.0284833797 0.0752492390 0.0033228099
0.0282549701 0.0730000138 0.0053132718
-0.0234779922 0.0605855356 0.0078062010
0.0127001896 0.0547188113 0.0072600344
0.0140032226 0.0715000033 0.0020853585
0.0123550719 0.0715000033 0.0005539218
0.0281499342 0.0715154692 0.0068558476
-0.0211245346 0.0810445948 0.0075184551
-0.0238712580 0.0814999938 0.0041046446
0.0151628683 0.0544571963 0.0052495452
-0.0273114458 0.0651276510 0.0055177586
0.0198613314 0.0562820920 0.0046259008
0.0284228026 0.0688025499 0.0048267152
0.0268803204 0.0814999938 0.0032022013
-0.0253717092 0.0608180425 0.0039088295
0.0287313552 0.0724443603 0.0025363599
-0.0284219648 0.0766463549 0.0025564782
0.0217498457 0.0759389624 0.0057215286
-0.0285190850 0.0706130784 0.0050969416
-0.0051624618 0.0526060492 0.0054874329
0.0286053607 0.0693662613 0.0040755632
0.0218767487 0.0742294218 0.0051292978
0.0179907572 0.0715000033 -0.0054130846
0.0198516866 0.0715000033 -0.0058359509
0.0046832639 0.0715000033 -0.0171312732
0.0137976940 0.0715000033 -0.0048614634
0.0018615532 0.0715000033 -0.0160875041
0.0189849322 0.0715000033 -0.0013455252
0.0110883895 0.0715000033 -0.0177599290
0.0101166339 0.0715000033 -0.0154799991
0.0058230459 0.0715000033 -0.0212474169
0.0073069820 0.0715000033 -0.0097679874
-0.0005140267 0.0715000033 -0.0167522833
0.0017718676 0.0715000033 -0.0120990889
0.0190282411 0.0715000033 0.0032377780
-0.0058627442 0.0715000033 -0.0165216799
0.0129497574 0.0715000033 -0.0008957849
-0.0005403120 0.0715000033 -0.0100769045
0.0001999602 0.0514136494 0.0037703784
0.0069793277 0.0502658367 0.0013415614
-0.0091095367 0.0507936473 0.0017393307
-0.0188778384 0.0550413085 0.0032209318
-0.0264824875 0.0616498320 0.0016904957
-0.0280348382 0.0651698866 0.0014052114
0.0274698578 0.0641736000 0.0031480633
0.0224893174 0.0783383752 0.0003567942
-0.0072889162 0.0276153351 0.0032123761
0.0136665507 0.0254500552 0.0027458892
0.0176371361 0.0223191369 0.0034359980
0.0207680968 0.0201547783 0.0024048954
0.0252063034 0.0126586026 0.0034359980
0.0245226777 0.0150198189 0.0016346819
0.0255856940 0.0130188767 0.0012191892
0.0268939388 0.0098509669 -0.0000734622
-0.0269359337 0.0095946144 0.0025738786
0.0283334723 0.0028393184 0.0023756476
-0.0283363059 0.0027759142 -0.0006345736
0.0284969517 -0.0001041911 -0.0147900292
0.0276695307 -0.0063140540 -0.0304777753
0.0281678357 -0.0033561221 -0.0094048757
0.0276870661 -0.0062099678 -0.0369563949
0.0283877755 -0.0020505612 0.0017070226
0.0283679355 -0.0021683325 -0.0014775365
0.0281223641 -0.0036260428 -0.0177413792
0.0282897541 -0.0026324161 -0.0123046382
0.0284778337 -0.0007529302 -0.0192174895
0.0283891059 -0.0020426723 -0.0307787567
-0.0284999031 -0.0000038989 -0.0143371369
-0.0284080448 -0.0019302313 -0.0310404828
-0.0284766911 -0.0007917002 -0.0226348806
-0.0282187144 -0.0030540995 -0.0302372523
-0.0283614179 -0.0022069988 -0.0032427581
-0.0279643077 -0.0045642321 -0.0147110428
-0.0277252208 -0.0059834419 -0.0114105704
-0.0277435885 -0.0058744162 -0.0280334512
-0.0276342516 -0.0065234320 -0.0127066214
-0.0275985084 -0.0067356025 -0.0140503796
0.0268065364 -0.0092839643 -0.0098536442
0.0260878292 -0.0110684415 0.0018957289
0.0262541313 -0.0106555319 -0.0143093024
0.0260677635 -0.0111182660 -0.0221745863
0.0266669873 -0.0096304598 -0.0352055854
0.0264669588 -0.0101271064 -0.0295396449
0.0271014569 -0.0085517179 -0.0280063866
0.0275608859 -0.0069589575 -0.0331207589
-0.0272058624 -0.0082924753 -0.0149221873
-0.0268049331 -0.0092879469 -0.0200446761
-0.0262421405 -0.0106853061 -0.0217330904
-0.0265243983 -0.0099844744 0.0029362236
-0.0265230630 -0.0099877997 -0.0148531064
-0.0260730185 -0.0111052075 -0.0002252203
-0.0267974063 -0.0093066308 -0.0117846231
-0.0274707304 -0.0074940852 -0.0382023047
-0.0271474691 -0.0084374625 -0.0367750192
0.0249581830 -0.0136935510 -0.0145639653
0.0242811296 -0.0146856053 -0.0184055949
0.0243855536 -0.0145325974 -0.0115507301
0.0246906002 -0.0140856268 -0.0003304093
0.0238515933 -0.0153149837 0.0005854801
0.0251972592 -0.0132796387 -0.0319090990
0.0253074231 -0.0130061135 -0.0283040748
-0.0243231009 -0.0146240984 -0.0017375592
-0.0235637496 -0.0157367402 -0.0030163705
-0.0237374564 -0.0154822048 -0.0205315908
-0.0236211656 -0.0156526081 -0.0080544602
-0.0251445555 -0.0134104874 -0.0266760692
-0.0256947772 -0.0120443578 -0.0306501382
0.0220313388 -0.0179821112 -0.0063126470
0.0225728882 -0.0171885938 -0.0386215782
0.0225166924 -0.0172709429 -0.0154152240
0.0237140105 -0.0155165705 -0.0314017004
0.0211768351 -0.0189756853 -0.0059983845
0.0194647895 -0.0205897360 -0.0299573917
0.0210187805 -0.0191246935 -0.0100485293
0.0185897806 -0.0214146551 -0.0163564571
0.0202292571 -0.0198690289 -0.0359668836
0.0214072221 -0.0187584855 -0.0142520044
-0.0192911911 -0.0207534005 -0.0063283627
-0.0193483832 -0.0206994858 -0.0104871750
-0.0187477607 -0.0212657232 -0.0047562446
-0.0190596607 -0.0209716763 -0.0043834653
-0.0182378218 -0.0217464924 -0.0269063613
-0.0198785799 -0.0201996438 -0.0354651798
-0.0196282275 -0.0204356698 -0.0270873297
-0.0225897528 -0.0171638998 -0.0146478522
-0.0241372300 -0.0148964409 -0.0366619017
-0.0229493543 -0.0166370044 -0.0365257648
-0.0217584473 -0.0183819641 -0.0371688589
-0.0213216223 -0.0188391875 -0.0156525775
0.0174710921 -0.0224693117 -0.0335887927
0.0181837737 -0.0217974243 -0.0151689376
0.0184700073 -0.0215275741 -0.0174397500
0.0163768148 -0.0232178466 -0.0390059397
0.0132886371 -0.0250688118 -0.0024165277
0.0156849524 -0.0236325345 -0.0325858203
0.0153766018 -0.0238173285 -0.0016357572
0.0158759488 -0.0235180391 -0.0124688179
0.0158973178 -0.0235052208 0.0000333157
-0.0167706902 -0.0229817395 -0.0256975395
-0.0153025297 -0.0238617326 -0.0265710207
-0.0164935829 -0.0231478312 0.0028518386
-0.0145916701 -0.0242878075 -0.0224457368
-0.0144568547 -0.0243686167 -0.0314932169
-0.0145676067 -0.0243022212 -0.0000268996
-0.0144135333 -0.0243945795 -0.0240931782
-0.0177295229 -0.0222256884 -0.0261793009
0.0154643726 -0.0237647491 -0.0356089628
0.0137902167 -0.0247681933 -0.0220763419
0.0098280766 -0.0265885511 -0.0350636554
0.0115528048 -0.0260093510 -0.0133739408
0.0122878072 -0.0256686908 -0.0212027185
0.0122296106 -0.0257035715 -0.0128213033
0.0082030936 -0.0271341977 -0.0005039032
0.0070044076 -0.0275367269 -0.0120791507
0.0063728555 -0.0277488077 -0.0369805053
0.0074292589 -0.0273940582 -0.0055043195
0.0070233837 -0.0275303585 -0.0330409278
0.0101426834 -0.0264828797 -0.0156812245
0.0114776823 -0.0260345674 -0.0024528930
-0.0109071434 -0.0262261771 -0.0238752706
-0.0098286669 -0.0265883446 -0.0302894683
-0.0080582775 -0.0271828385 -0.0092039711
-0.0098618979 -0.0265771824 -0.0269056802
-0.0105445850 -0.0263479050 0.0019686981
-0.0128335797 -0.0253415663 -0.0181557167
-0.0122684628 -0.0256802803 -0.0228264983
0.0043019020 -0.0280336280 -0.0267179128
0.0023520651 -0.0282450118 -0.0014575860
0.0049178117 -0.0279668408 -0.0106918190
0.0030559835 -0.0281687113 -0.0270379417
0.0039725517 -0.0280693288 -0.0151884960
0.0012587479 -0.0283635510 -0.0043331502
0.0059011571 -0.0278602249 -0.0182460267
-0.0060980558 -0.0278388689 -0.0159562528
-0.0056024152 -0.0278926136 -0.0087320083
-0.0033593133 -0.0281358101 -0.0073509368
-0.0025372981 -0.0282249481 -0.0297101191
-0.0041713882 -0.0280477640 -0.0058225320
-0.0044737185 -0.0280149939 -0.0182391718
-0.0016816955 -0.0283176937 -0.0025202686
-0.0084712018 -0.0270441896 -0.0277168188
-0.0065718441 -0.0276819907 -0.0180413925
-0.0065554519 -0.0276874954 -0.0300301438
0.0000698096 -0.0284924514 0.0016710175
0.0002805309 -0.0284696469 -0.0304880606
-0.0015261033 -0.0283345910 -0.0255599947
-0.0010943017 -0.0283814078 -0.0239743380
0.0248874456 0.0591948816 0.0015000668
-0.0288984699 0.0707365236 0.0019697816
0.0285317600 0.0771544382 0.0014770190
-0.0289111931 0.0699618015 0.0016806898
-0.0223736118 0.0781184080 0.0020161777
-0.0223743630 0.0781391023 -0.0014412576
-0.0236024721 0.0814999938 0.0010125180
-0.0274448806 0.0077271010 -0.0001185044
0.0275456629 0.0077045789 -0.0045286980
-0.0193155047 0.0536969893 0.0003210925
-0.0035409770 0.0217642554 0.0021359983
-0.0016738595 0.0076601687 0.0021359983
0.0002885052 0.0118718444 0.0021359983
0.0000967634 0.0129914805 0.0021359983
0.0023602779 0.0146963745 0.0021359983
0.0074560278 0.0183841114 0.0021359983
0.0017849026 0.0058931095 0.0021359983
-0.0037643381 0.0121654241 0.0021359983
-0.0098478960 0.0180691210 0.0021359983
0.0107215263 0.0154925481 0.0021359983
0.0115089734 0.0147242808 0.0021359983
-0.0069223584 0.0101913029 0.0021359983
-0.0083883240 0.0111149586 0.0021359983
0.0033620456 0.0022059962 0.0021359983
0.0152033122 0.0138962403 0.0021359983
-0.0107517514 0.0071990513 0.0021359983
-0.0166551004 0.0112110978 0.0021359983
0.0147549031 0.0088452014 0.0021359983
0.0196843061 0.0084629319 0.0021359983
0.0193810442 0.0093953424 0.0021359983
-0.0077564670 0.0033165625 0.0021359983
-0.0156952020 0.0055890814 0.0021359983
0.0078334451 0.0009342012 0.0021359983
0.0158244029 0.0045721681 0.0021359983
-0.0030510626 0.0003537087 0.0021359983
-0.0045241397 0.0005039058 0.0021359983
0.0223570440 0.0001974210 0.0021359983
0.0107147702 -0.0007009908 0.0021359983
-0.0193039190 0.0004442471 0.0021359983
-0.0129672865 -0.0021086101 0.0021359983
0.0070758313 -0.0035465450 0.0021359983
0.0157368093 -0.0078003244 0.0021359983
0.0182062044 -0.0071258740 0.0021359983
0.0204264120 -0.0067294053 0.0021359983
0.0173005242 -0.0044236083 0.0021359983
0.0048831966 -0.0173345660 0.0021359983
0.0044840877 -0.0119367482 0.0021359983
0.0123727378 -0.0176197845 0.0021359983
0.0075178253 -0.0128988228 0.0021359983
0.0126010656 -0.0135394674 0.0021359983
0.0135620524 -0.0147306250 0.0021359983
-0.0077497689 -0.0150422048 0.0021359983
-0.0100681068 -0.0189687850 0.0021359983
-0.0073368390 -0.0186888591 0.0021359983
-0.0035407894 -0.0121006501 0.0021359983
0.0005929396 -0.0193101562 0.0021359983
0.0022839973 -0.0196827778 0.0021359983
-0.0195965845 -0.0073279476 0.0021359983
-0.0145853264 -0.0036403562 0.0021359983
-0.0127120672 -0.0042845710 0.0021359983
-0.0166404238 -0.0131290852 0.0021359983
-0.0067446002 -0.0052254084 0.0021359983
-0.0137252806 -0.0169927079 0.0021359983
-0.0130613507 -0.0175393013 0.0021359983
0.0164505327 0.0243492246 -0.0004734608
-0.0152809978 0.0253392749 -0.0012070438
-0.0284961643 0.0001743894 -0.0015423395
0.0203417969 0.0212398377 -0.0016271545
0.0155929542 0.0512948023 -0.0004326556
-0.0040933271 0.0492130211 0.0003311157
0.0274124002 0.0632146875 0.0007424008
-0.0257981512 0.0593360007 -0.0016132225
0.0220714883 0.0190977854 -0.0014634850
-0.0084051308 0.0497453102 0.0003415374
0.0092090968 0.0487119859 -0.0010442061
0.0241192115 0.0814999938 -0.0024406311
0.0286167983 0.0814999938 -0.0012351278
0.0220002365 0.0792905548 -0.0042683344
-0.0286957952 0.0789451640 -0.0004838272
-0.0286614048 0.0769315030 -0.0009027008
0.0170391154 0.0518329125 -0.0007454994
-0.0122674740 0.0267000729 -0.0008077526
-0.0275481597 0.0075008274 -0.0042417284
0.0278735156 0.0062778770 -0.0058425352
-0.0009043504 0.0287887356 -0.0010657496
0.0212826901 0.0204241749 -0.0030260572
0.0014600159 0.0473572120 -0.0016032082
-0.0281213606 0.0775250827 -0.0054487600
-0.0284273426 0.0814999938 -0.0031457940
-0.0281444978 0.0805595903 -0.0067221834
-0.0101198083 0.0479149249 -0.0020544248
-0.0169193467 0.0251828256 -0.0041690250
-0.0281876510 0.0656440996 -0.0042146356
0.0080515049 0.0287252610 -0.0024576135
0.0170734328 0.0500707174 -0.0032761456
-0.0202477748 0.0218036927 -0.0035720495
0.0210692716 0.0529501080 -0.0037011781
-0.0045546384 0.0465321470 -0.0023990822
-0.0251893052 0.0143157904 -0.0032983685
0.0032098098 0.0301544415 -0.0035278340
0.0218484508 0.0772399941 -0.0053237075
-0.0247249641 0.0559039435 -0.0067167285
-0.0219426493 0.0799243679 -0.0044073784
-0.0010220518 0.0301855269 -0.0035653891
0.0275541837 0.0783004342 -0.0075441816
0.0282595279 0.0780266363 -0.0043397759
-0.0287045859 0.0726641687 -0.0037396726
0.0110898054 0.0292825945 -0.0044963206
-0.0102062457 0.0446487543 -0.0043977302
0.0284144452 0.0019941333 -0.0092722581
0.0046122300 0.0441726397 -0.0038961225
0.0041245897 0.0438728565 -0.0039972335
0.0219261231 0.0524635769 -0.0060243969
-0.0117481094 0.0443104658 -0.0050151574
-0.0276476366 0.0634655497 -0.0055478529
0.0234865913 0.0176541203 -0.0048339310
0.0045001633 0.0313207598 -0.0046443071
-0.0004444725 0.0419672354 -0.0046526042
0.0273083148 0.0621782424 -0.0050687329
-0.0265629749 0.0599242319 -0.0061018565
-0.0045550302 0.0418359717 -0.0048374760
-0.0266803458 0.0112108539 -0.0086419334
0.0255390838 0.0138628889 -0.0063546302
0.0267999438 0.0107798584 -0.0084596490
0.0266419594 0.0602846414 -0.0077923197
-0.0284696304 0.0006367392 -0.0083458694
-0.0035506717 0.0386358244 -0.0054162856
-0.0191315719 0.0250776148 -0.0081572825
0.0201409004 0.0234638278 -0.0078194778
-0.0010679821 0.0361834706 -0.0054380927
0.0150557994 0.0460944388 -0.0057210122
0.0164959178 0.0474167883 -0.0058047185
0.0214018489 0.0734550156 -0.0068111288
0.0200720176 0.0813240925 -0.0099509539
-0.0125486272 0.0394349574 -0.0072921284
0.0091396520 0.0347113233 -0.0063281756
0.0252735235 0.0570270369 -0.0063005720
0.0154686880 0.0284606751 -0.0068413594
-0.0266151090 0.0796011686 -0.0107202377
-0.0265930208 0.0748256326 -0.0104315096
0.0236502621 0.0179698546 -0.0074490689
0.0268898641 0.0720047117 -0.0106555187
0.0204304989 0.0814999938 -0.0107856947
0.0124063687 0.0334078825 -0.0074229229
0.0146900377 0.0422884639 -0.0075665671
0.0171592116 0.0463678380 -0.0072331135
0.0149782913 0.0298910168 -0.0075333450
-0.0267272172 0.0624619870 -0.0102516696
0.0131887480 0.0352717709 -0.0080232505
-0.0250487626 0.0814999938 -0.0112980272
-0.0269111668 0.0660505138 -0.0106074966
-0.0281990656 0.0042030213 -0.0097640753
0.0282414726 0.0042691301 -0.0134216542
0.0198614235 0.0474934564 -0.0098246297
-0.0138530504 0.0328075369 -0.0080152367
0.0246378006 0.0165065284 -0.0095389880
0.0141802612 0.0367277067 -0.0086181562
0.0178466549 0.0285508533 -0.0097764297
-0.0217623648 0.0479594080 -0.0128921822
-0.0254797724 0.0570220106 -0.0090782601
-0.0205210982 0.0796154381 -0.0090774821
-0.0211407423 0.0814999938 -0.0155496192
-0.0155537657 0.0324672890 -0.0091365471
0.0254150641 0.0568623407 -0.0095310359
-0.0200746170 0.0448297322 -0.0124476677
0.0188471855 0.0448608038 -0.0103992807
0.0253942682 0.0796011686 -0.0133060532
0.0257021643 0.0741180378 -0.0123963864
-0.0254564948 0.0719518648 -0.0137153589
-0.0219321072 0.0219567997 -0.0103357150
0.0232148587 0.0509073789 -0.0136515416
0.0249787302 0.0171208818 -0.0140932410
0.0244245491 0.0184226445 -0.0139002251
-0.0253929483 0.0608055266 -0.0145743402
0.0266654438 0.0624354091 -0.0104822294
0.0266510171 0.0695196305 -0.0113797560
-0.0283617932 0.0030117566 -0.0122521498
0.0282099097 0.0045926853 -0.0155045261
-0.0195477054 0.0270092465 -0.0113946810
0.0174815972 0.0805969561 -0.0139418360
0.0222021060 0.0814999938 -0.0127597745
0.0186904707 0.0307081947 -0.0121264274
-0.0241276628 0.0533687133 -0.0165207498
0.0227200375 0.0215273661 -0.0122915175
-0.0258645545 0.0678880276 -0.0131506355
0.0198383061 0.0395253591 -0.0140750675
-0.0265870118 0.0121107856 -0.0133072111
0.0265546256 0.0128572277 -0.0167047852
-0.0247705427 0.0759352739 -0.0141729904
-0.0256086733 0.0730529352 -0.0127800060
0.0225116265 0.0229781926 -0.0140909042
-0.0190398937 0.0364175174 -0.0135152750
0.0233556773 0.0805528573 -0.0170264587
0.0170945654 0.0726221387 -0.0145940032
0.0205889254 0.0398572702 -0.0157682694
0.0250296250 0.0655658403 -0.0150238321
0.0251514497 0.0579214210 -0.0145700146
-0.0180603217 0.0766502415 -0.0133754594
-0.0157573181 0.0814999938 -0.0197770925
-0.0183847108 0.0814999938 -0.0211628776
-0.0167228424 0.0740421278 -0.0148775353
-0.0237878057 0.0801965547 -0.0162764377
-0.0284686019 0.0015484278 -0.0201506406
-0.0244713518 0.0550537892 -0.0161184798
0.0246270436 0.0559562529 -0.0158041124
-0.0240482575 0.0204202363 -0.0164483185
0.0238415718 0.0228524736 -0.0198930455
0.0248208054 0.0682285250 -0.0151155541
-0.0273083009 0.0103389344 -0.0190471542
0.0274430656 0.0095608415 -0.0186306645
0.0238883014 0.0792139344 -0.0157218361
0.0239214032 0.0776345707 -0.0156782914
-0.0246494877 0.0686570862 -0.0153391857
-0.0244057047 0.0622112512 -0.0167294743
-0.0204561127 0.0353079510 -0.0160288964
0.0203294314 0.0364942542 -0.0159059860
0.0163163307 0.0803321873 -0.0154832826
0.0151150627 0.0735506305 -0.0166319981
0.0217524203 0.0814999938 -0.0182162169
-0.0213129349 0.0415191296 -0.0175196220
-0.0245404877 0.0201935992 -0.0188074518
0.0252414349 0.0184283995 -0.0207462732
-0.0219115287 0.0446424545 -0.0180495825
0.0126943497 0.0790073910 -0.0185178226
-0.0217569793 0.0297374261 -0.0182625185
-0.0230140014 0.0689196026 -0.0177218513
-0.0276359067 0.0088592679 -0.0220658373
0.0280747800 0.0061443144 -0.0225162854
-0.0123724446 0.0780592308 -0.0186077720
-0.0124816364 0.0726869927 -0.0186957483
-0.0157588786 0.0814999938 -0.0204277944
-0.0202005401 0.0780878189 -0.0201632539
-0.0226097832 0.0480066246 -0.0223879039
-0.0233219186 0.0253708724 -0.0210597468
0.0218875558 0.0715492075 -0.0189257374
0.0227771487 0.0662948431 -0.0184357508
-0.0238382823 0.0564642156 -0.0187332759
-0.0215657925 0.0409720307 -0.0187664595
0.0221057321 0.0576535858 -0.0217605859
-0.0223284728 0.0445668198 -0.0216908034
-0.0261539516 0.0152342565 -0.0202842800
0.0264002916 0.0154490345 -0.0256666058
-0.0220603114 0.0319008499 -0.0202294311
-0.0229363235 0.0552708869 -0.0211117221
0.0110280120 0.0810574833 -0.0194882976
0.0143559029 0.0814999938 -0.0224284267
0.0084300954 0.0814999938 -0.0210488836
-0.0204319037 0.0635022412 -0.0217628370
0.0183364916 0.0770340102 -0.0218601350
0.0186801331 0.0738394169 -0.0215682432
0.0208472929 0.0661866712 -0.0206523379
0.0233259607 0.0269811956 -0.0229733024
-0.0219524725 0.0508240987 -0.0244173180
-0.0244001233 0.0220744331 -0.0219489991
-0.0284965487 0.0001718857 -0.0264313467
0.0221220083 0.0516088485 -0.0237176771
-0.0095227200 0.0786619222 -0.0203756597
-0.0050532403 0.0746839294 -0.0218719495
-0.0049750020 0.0814999938 -0.0248604106
0.0200844086 0.0705975611 -0.0208562576
0.0224483752 0.0335817522 -0.0234981987
-0.0221034468 0.0547311329 -0.0228727815
-0.0274255328 0.0101477290 -0.0229207429
0.0276149058 0.0093144482 -0.0244328323
0.0222360046 0.0451275854 -0.0241855941
0.0063563263 0.0752330026 -0.0215720084
0.0033496304 0.0794670543 -0.0221102931
0.0050404588 0.0814999938 -0.0256800300
-0.0179840963 0.0655485521 -0.0235194292
0.0284361186 0.0017132073 -0.0248623241
-0.0162908439 0.0782686756 -0.0234261300
-0.0169318399 0.0750152529 -0.0229915240
-0.0235755505 0.0274303651 -0.0254302868
-0.0037712305 0.0814366455 -0.0221299691
-0.0007511585 0.0814999938 -0.0232495993
-0.0026830642 0.0814999938 -0.0256504100
-0.0222078952 0.0372232386 -0.0233966863
0.0227238034 0.0331526601 -0.0254547800
-0.0191325663 0.0555879777 -0.0265684502
0.0207833739 0.0580794855 -0.0236824805
0.0165348354 0.0796224569 -0.0236328695
0.0251022191 0.0200125260 -0.0232517063
-0.0158455247 0.0814482888 -0.0241082307
-0.0167243256 0.0650544865 -0.0246375605
-0.0177572863 0.0593641857 -0.0261323003
0.0175808360 0.0611609355 -0.0254920860
0.0110766512 0.0774121180 -0.0264211020
0.0146602896 0.0773801074 -0.0245211769
-0.0276152794 0.0099805163 -0.0292039784
0.0278529068 0.0084647243 -0.0302160771
-0.0134393491 0.0728752356 -0.0255100539
-0.0232783510 0.0294130403 -0.0256691574
0.0240578562 0.0260909214 -0.0278070388
-0.0201231589 0.0506334392 -0.0278130263
0.0210787403 0.0518800698 -0.0256864432
0.0148557720 0.0665158270 -0.0254049869
-0.0260136112 0.0174507029 -0.0273639060
0.0261144730 0.0174678091 -0.0308196351
0.0159384345 0.0621515730 -0.0262533039
-0.0109364272 0.0762688511 -0.0263556353
-0.0095789393 0.0751393300 -0.0268965078
-0.0168649985 0.0508138619 -0.0314853698
0.0179908000 0.0580428101 -0.0265582733
0.0085730961 0.0811682630 -0.0275525830
-0.0136026452 0.0647396928 -0.0266468925
-0.0232854392 0.0301251236 -0.0286111151
-0.0284086986 0.0024635640 -0.0275665807
0.0284767238 0.0010502620 -0.0307744208
-0.0113391929 0.0617440249 -0.0287882326
0.0103577838 0.0632913400 -0.0285814757
0.0064393314 0.0775489945 -0.0278232134
0.0104799134 0.0765095035 -0.0267013500
-0.0215712268 0.0417609639 -0.0282804155
-0.0082997372 0.0707887331 -0.0277145015
0.0211607298 0.0403194999 -0.0302251184
-0.0266316630 0.0149848462 -0.0290287124
0.0275236901 0.0105391305 -0.0298029060
-0.0069756355 0.0760639167 -0.0277690431
-0.0036099214 0.0739081011 -0.0283208238
-0.0243878555 0.0247740131 -0.0294362289
0.0021539460 0.0726896446 -0.0288758226
-0.0243391210 0.0250114319 -0.0311861630
-0.0202721427 0.0429018177 -0.0314396038
-0.0089117828 0.0633982143 -0.0290052629
0.0003685101 0.0768686161 -0.0285536861
-0.0045455646 0.0804056901 -0.0285214072
0.0191596684 0.0479501437 -0.0307167339
0.0000270397 0.0703549383 -0.0289863632
-0.0078134858 0.0590951233 -0.0311996109
0.0111473283 0.0617732394 -0.0288875996
-0.0112160933 0.0575655883 -0.0308713016
-0.0163543354 0.0461448798 -0.0347074978
0.0130281823 0.0582460926 -0.0297291270
0.0172909318 0.0535369336 -0.0295351465
-0.0284857143 0.0008126029 -0.0313349671
0.0001141601 0.0656588865 -0.0297425399
-0.0284951721 0.0002668393 -0.0366911923
0.0229407645 0.0307881283 -0.0312388380
-0.0271419394 0.0125996557 -0.0323793369
0.0275238983 0.0105072268 -0.0324733537
0.0219099047 0.0353000886 -0.0311778391
0.0025312446 0.0624246236 -0.0306101411
0.0088300827 0.0589138520 -0.0310436285
-0.0215789618 0.0362100331 -0.0317023937
-0.0135765921 0.0444222024 -0.0376723074
0.0152565709 0.0498648749 -0.0333275850
-0.0253882446 0.0206647259 -0.0315778536
0.0261519042 0.0173216095 -0.0343254697
0.0126597545 0.0547557500 -0.0318340011
0.0209708361 0.0368332122 -0.0329304408
-0.0106502043 0.0540197377 -0.0330745284
-0.0118745674 0.0495830438 -0.0352584130
0.0112470768 0.0523929324 -0.0338359057
0.0198191917 0.0410236404 -0.0332269746
-0.0253336854 0.0196794827 -0.0364733654
0.0236863617 0.0274060402 -0.0321698882
0.0210746626 0.0337472022 -0.0349263766
0.0042822689 0.0581216729 -0.0324422873
0.0038850807 0.0557150473 -0.0337855692
-0.0185301820 0.0407692401 -0.0355957319
-0.0282528127 0.0052225337 -0.0348920808
0.0279698190 0.0076539474 -0.0376809798
-0.0265972116 0.0154187131 -0.0345805906
-0.0073714861 0.0499289404 -0.0364802259
-0.0088541597 0.0528777971 -0.0344059611
0.0071870856 0.0527598948 -0.0348675378
0.0099192266 0.0483218745 -0.0368389283
-0.0228214225 0.0267075041 -0.0364917420
0.0218245029 0.0301997783 -0.0359456062
-0.0000046195 0.0510553866 -0.0366901951
-0.0027725970 0.0449493358 -0.0401249814
0.0032820863 0.0511091527 -0.0364414644
0.0040737668 0.0443700515 -0.0404126765
0.0053599185 0.0442394215 -0.0403285426
-0.0206037476 0.0329534238 -0.0366209152
0.0284905365 0.0005206831 -0.0381597461
-0.0187010835 0.0353309728 -0.0384993844
0.0185564801 0.0371706371 -0.0375572443
-0.0223220383 0.0256819058 -0.0384788800
0.0223537938 0.0262051841 -0.0380901236
0.0217751285 0.0277755429 -0.0380385019
-0.0270401880 0.0130148124 -0.0371524128
0.0144278486 0.0432870775 -0.0378817218
-0.0173521234 0.0363164529 -0.0395086043
0.0234569368 0.0193326168 -0.0413601047
-0.0263323631 0.0142353657 -0.0394316238
-0.0110978040 0.0423672430 -0.0400226851
0.0132004469 0.0393392152 -0.0409635789
-0.0187847152 0.0324903729 -0.0400288181
-0.0147939697 0.0338404644 -0.0430936546
-0.0284194611 -0.0018389791 -0.0395058554
-0.0226447360 -0.0170588861 -0.0410918853
-0.0068388020 -0.0275762318 -0.0401331682
0.0238552431 -0.0153447103 -0.0404502832
0.0092923768 -0.0267728629 -0.0399688169
-0.0275521033 0.0065037953 -0.0416430956
-0.0050923881 0.0430704607 -0.0410619298
-0.0088106816 0.0403113637 -0.0420426070
-0.0196170431 0.0265014486 -0.0423303783
0.0182804388 0.0277963240 -0.0431922940
0.0199649933 0.0260318282 -0.0421462715
0.0257589039 0.0136107961 -0.0414718763
0.0271648193 -0.0067484448 -0.0425286664
0.0152296470 0.0342609068 -0.0426383838
-0.0233062006 -0.0160020583 -0.0415695946
-0.0036370631 0.0403549457 -0.0427636931
0.0028260960 0.0411773301 -0.0423306093
-0.0224173475 -0.0172292645 -0.0414574448
0.0096949917 -0.0259561353 -0.0430089670
-0.0198590936 -0.0196806996 -0.0428084580
-0.0128231360 0.0343381966 -0.0439745872
0.0033047984 -0.0277401887 -0.0421202572
-0.0202325273 0.0239906182 -0.0429431265
0.0193583157 0.0234910850 -0.0441247315
-0.0027277592 0.0388923183 -0.0436232062
-0.0249847953 -0.0117363413 -0.0436334214
-0.0158954628 0.0312509476 -0.0436730690
-0.0245039180 0.0138275530 -0.0433570836
-0.0270553446 -0.0064096910 -0.0430142629
-0.0099263138 0.0382783686 -0.0429236644
-0.0091586735 -0.0259224788 -0.0434115349
0.0198474567 -0.0191629836 -0.0436584495
-0.0265352468 0.0046302179 -0.0445105210
-0.0261160634 -0.0085586398 -0.0438429493
-0.0088654842 0.0351130313 -0.0449292918
0.0078509549 0.0380720851 -0.0435216829
-0.0169477229 0.0258321254 -0.0454440819
-0.0197792533 0.0232305282 -0.0438958155
-0.0210290576 0.0196675611 -0.0443193067
0.0267342571 0.0016235434 -0.0446420006
-0.0219645916 0.0159860830 -0.0451033160
-0.0024114076 0.0362881221 -0.0450156316
0.0047195084 0.0342412791 -0.0460338116
0.0219555396 0.0179096033 -0.0442268312
-0.0267721137 -0.0000188449 -0.0448080567
-0.0156051429 -0.0221751632 -0.0445046119
-0.0264043485 -0.0012268122 -0.0452817485
0.0248674701 -0.0076432074 -0.0459868819
-0.0122575916 -0.0228000086 -0.0457884483
-0.0141454111 0.0290708740 -0.0459615356
0.0215744782 -0.0126768313 -0.0470800034
0.0138600469 -0.0212682212 -0.0465747713
0.0257303238 0.0005056883 -0.0460160715
-0.0230977253 0.0072005710 -0.0472872091
0.0203515589 0.0177048143 -0.0458978134
0.0149734207 -0.0203136708 -0.0466738187
0.0003746362 -0.0241794742 -0.0466144579
0.0167234700 -0.0179227205 -0.0474582510
-0.0093053015 -0.0232254125 -0.0465208050
0.0086164645 0.0287892611 -0.0481442063
0.0140355782 0.0265607398 -0.0470896692
0.0236306428 -0.0009010845 -0.0478642889
-0.0230276733 -0.0099237492 -0.0469919695
-0.0051035000 0.0316392681 -0.0472645674
-0.0044686372 0.0310689587 -0.0475657568
-0.0172891991 0.0184959255 -0.0479571390
0.0159270689 0.0202848507 -0.0482559919
-0.0151294791 -0.0191038004 -0.0474766054
0.0210360226 0.0102426554 -0.0480006546
-0.0217677623 -0.0047514197 -0.0487881546
0.0063935849 -0.0196864815 -0.0492864853
-0.0082794101 -0.0204703193 -0.0485144873
0.0180225045 -0.0156337883 -0.0479971127
-0.0218642065 -0.0094528583 -0.0480324022
-0.0219234667 0.0017492726 -0.0488157930
-0.0075941022 0.0271313398 -0.0489031732
0.0119596960 -0.0190862982 -0.0486635592
0.0149577842 0.0208416747 -0.0486371114
-0.0169489015 0.0168312743 -0.0486619822
0.0182954936 0.0145535498 -0.0485387298
0.0148457545 -0.0150682548 -0.0497056394
-0.0166336642 -0.0118387866 -0.0500150453
-0.0215454435 -0.0008732688 -0.0491496845
0.0029463754 0.0254762878 -0.0499295770
0.0178174746 0.0049230867 -0.0505646120
-0.0203402789 0.0015791431 -0.0497082635
-0.0005425362 -0.0199686035 -0.0494186961
-0.0037926742 -0.0194171969 -0.0496043750
-0.0029905018 0.0253172087 -0.0499798539
0.0193972271 -0.0027638675 -0.0500995604
-0.0137787070 0.0143178076 -0.0507521831
-0.0185074931 -0.0040539489 -0.0504208921
-0.0075940792 0.0242475992 -0.0499527220
0.0184163609 -0.0072872262 -0.0501276524
-0.0180274460 -0.0080044278 -0.0502632233
-0.0069024253 -0.0158253189 -0.0509785996
-0.0079206189 0.0216874870 -0.0506883429
0.0033873057 0.0218343194 -0.0510724249
0.0169831112 -0.0082172778 -0.0505580767
0.0078624046 -0.0144214320 -0.0514270074
-0.0140121634 -0.0102187568 -0.0511971107
0.0134454878 -0.0109126383 -0.0511673606
-0.0180489240 -0.0008634074 -0.0507436620
0.0007657647 0.0208618707 -0.0513718676
0.0041866903 -0.0156348055 -0.0512684206
0.0075061030 0.0185069414 -0.0515380159
-0.0165557822 0.0054624088 -0.0510417423
0.0152710228 -0.0051464412 -0.0514971394
-0.0097993339 0.0152160521 -0.0518079725
-0.0091993308 0.0106202032 -0.0525727700
0.0115932005 0.0088794307 -0.0522145039
0.0066923805 0.0183702310 -0.0516634176
0.0024062541 -0.0134175668 -0.0521112038
-0.0033525139 -0.0139271044 -0.0518947423
0.0149030591 0.0005832127 -0.0517981158
-0.0135646781 -0.0021155727 -0.0520913716
-0.0058897276 0.0161335724 -0.0522342255
-0.0105328064 0.0071658015 -0.0525719827
0.0094992003 -0.0090823880 -0.0524535612
0.0122953024 0.0062456988 -0.0522560688
-0.0113624967 0.0038229833 -0.0526084123
-0.0056627941 0.0151554475 -0.0523980633
-0.0053388581 0.0136686499 -0.0526233512
0.0033556106 0.0152611473 -0.0525639492
0.0064069470 0.0090557202 -0.0531414701
-0.0109033790 -0.0028042138 -0.0527684446
-0.0004500886 -0.0079555504 -0.0534891136
-0.0080908634 -0.0063301802 -0.0530385386
0.0003762812 0.0101994006 -0.0534207597
0.0064149423 -0.0083467332 -0.0530752731
0.0072041588 -0.0050210131 -0.0532281937
-0.0070992512 0.0041642907 -0.0533242811
-0.0059872728 0.0008520597 -0.0535535208
-0.0026945329 0.0012457222 -0.0538492575
0.0002460171 0.0082115504 -0.0536065370
0.0043252857 0.0012375187 -0.0537341093
0.0007351709 -0.0049915798 -0.0538381722
-0.0008438469 -0.0018718357 -0.0539288664
