0.0057333931 -0.0037375415 -0.0051468264
0.0049361281 -0.0038385782 -0.0046177137
0.0132664338 -0.0034776492 -0.0065078399
0.0158164374 -0.0032732023 -0.0075784948
0.0109253241 -0.0034370659 -0.0067203678
0.0120069475 -0.0035744189 -0.0060010728
0.0065186019 -0.0036429947 -0.0056419524
0.0090197412 -0.0035323728 -0.0062212613
0.0050663567 -0.0036856230 -0.0054187150
0.0073999907 -0.0034944742 -0.0064197299
0.0067467086 -0.0036633860 -0.0055351665
0.0084685303 -0.0036173296 -0.0057763563
0.0100350918 -0.0036205587 -0.0057594463
0.0072264613 -0.0036670824 -0.0055158089
0.0103690031 -0.0033655954 -0.0070946473
0.0224034161 -0.0030766576 -0.0015749355
0.0223781450 -0.0003223639 -0.0089860587
0.0223792596 -0.0000296565 -0.0089102686
0.0223841106 -0.0006820864 -0.0085804064
0.0155815104 0.0006606733 -0.0092261266
0.0213810256 0.0008566388 -0.0092038220
0.0222513324 -0.0006638399 -0.0092004749
0.0136643920 -0.0000939839 -0.0092334997
0.0204353478 0.0000834967 -0.0092074590
0.0155341806 0.0000578430 -0.0092263086
0.0214430147 -0.0011893751 -0.0092035836
0.0179548895 0.0010823936 -0.0092169987
0.0223263033 0.0010326151 -0.0092001866
0.0165677107 0.0001380187 -0.0092223337
0.0190028622 0.0002074988 -0.0092129683
0.0199167784 -0.0000460695 -0.0092094534
0.0207521138 0.0000027580 -0.0092062408
0.0154026629 -0.0034991953 -0.0063564365
0.0191552063 -0.0033713042 -0.0057305457
0.0214254356 -0.0032851942 -0.0072450309
0.0125611566 -0.0036009444 -0.0057672056
0.0176681912 -0.0034235580 -0.0056374256
0.0184850588 -0.0033950603 -0.0056437115
0.0090346641 -0.0037265146 -0.0051890793
0.0170440550 -0.0034425813 -0.0062285762
0.0206034987 -0.0033137093 -0.0072732467
0.0111765508 0.0034018491 -0.0069047849
0.0118754563 0.0035925341 -0.0059062011
0.0202366822 0.0033066154 -0.0074035070
0.0087500071 0.0034061706 -0.0068821537
0.0103122338 0.0032614369 -0.0076400989
0.0171535197 0.0033456996 -0.0071988299
0.0095572605 0.0034823743 -0.0064830887
0.0060022087 0.0037156625 -0.0052613995
0.0063801847 0.0036392983 -0.0056613050
0.0144909282 0.0034176984 -0.0068217848
0.0099652987 0.0034782853 -0.0065045016
0.0096515704 0.0036438393 -0.0056375250
0.0145030184 0.0035063458 -0.0063575542
0.0153058130 0.0034765734 -0.0065134666
0.0177862796 0.0032607708 -0.0076435867
-0.0007350510 0.0039404371 -0.0036208786
-0.0015099865 0.0038437895 -0.0038221838
0.0024772807 0.0037425620 -0.0048430747
-0.0014612516 0.0036967330 -0.0043357435
-0.0001391978 0.0037156528 -0.0044938884
0.0017086567 0.0037820903 -0.0045775009
0.0007574448 0.0036901808 -0.0047327691
-0.0022229284 0.0038539927 -0.0036667794
-0.0013024409 0.0032430777 -0.0050908216
0.0061065228 0.0032548879 -0.0068904557
-0.0026900887 0.0030943884 -0.0049804539
0.0004589996 0.0032270700 -0.0055477939
0.0012392336 0.0028047236 -0.0063928696
-0.0030495706 0.0033423044 -0.0045085690
-0.0030396601 0.0031608848 -0.0047917695
-0.0042778522 0.0037958906 -0.0035052101
-0.0007369249 0.0034063467 -0.0049769017
0.0224092221 0.0029796397 -0.0007176761
0.0223907482 0.0031255811 0.0035987825
0.0224232134 -0.0011429032 -0.0059036725
0.0224190517 0.0000425761 -0.0060999640
0.0223868278 0.0014470591 -0.0083529180
0.0224205106 0.0002256053 -0.0059747118
0.0224158860 0.0025623928 -0.0058534073
-0.0114235016 -0.0035123548 -0.0000694076
-0.0088416570 -0.0038438080 -0.0012647380
-0.0080653594 -0.0039434678 -0.0015437069
-0.0198456992 -0.0024311262 -0.0001530765
-0.0119751941 -0.0034415294 0.0008762383
-0.0111352671 -0.0035493579 0.0003243532
-0.0086971205 -0.0038623633 -0.0004502263
-0.0164366962 -0.0028687687 -0.0004676794
-0.0163720030 -0.0028770739 0.0007046068
-0.0165836447 -0.0028499037 -0.0001208877
-0.0081521442 -0.0039323265 0.0007572693
-0.0199054935 -0.0024234499 -0.0003150427
-0.0128208702 -0.0033329628 -0.0006342450
-0.0179559208 -0.0026737330 0.0003225999
-0.0156808273 -0.0029658060 0.0008397137
-0.0091422180 -0.0038052224 -0.0003615926
-0.0115676179 -0.0034938534 -0.0006619579
-0.0175763768 -0.0025655340 -0.0012918828
-0.0198342760 -0.0024156671 -0.0004187667
-0.0111403745 -0.0035208297 -0.0016380295
-0.0215165488 -0.0019961754 -0.0010171602
0.0023246557 -0.0037303339 -0.0048051273
0.0025895822 -0.0038223910 -0.0045685859
0.0003884363 -0.0038324529 -0.0041035567
0.0011654868 -0.0038332844 -0.0042539738
0.0015236923 -0.0037204472 -0.0046784003
0.0075148811 -0.0033839375 -0.0069136247
0.0033052967 -0.0031030489 0.0064863868
0.0031684488 -0.0034848410 0.0056961934
0.0005084642 -0.0032988780 0.0054051344
-0.0004350301 -0.0028930369 0.0059751436
0.0046972079 -0.0031796898 0.0066796345
0.0000326932 -0.0035225580 0.0048441151
0.0038929255 -0.0032493945 0.0063421756
0.0032966182 -0.0031036167 0.0064831108
0.0046604944 -0.0031079606 0.0068126169
0.0094449847 -0.0034848696 0.0064700352
0.0058851113 -0.0037059718 0.0053121591
0.0160113495 -0.0033970716 0.0069298188
0.0059096137 -0.0036761447 0.0054683585
0.0119432413 -0.0033517478 0.0071671725
0.0112288483 -0.0036053456 0.0058391219
0.0139473577 -0.0033705037 0.0070689507
0.0181851897 -0.0033124393 0.0073730245
0.0092450627 -0.0036953873 0.0053675882
0.0188834107 -0.0033626860 0.0071098909
0.0184846659 -0.0033517847 0.0071669789
0.0066255732 -0.0036502639 0.0056038922
0.0188309715 -0.0033584577 0.0071320336
0.0092732557 -0.0036569981 0.0055686261
0.0179827470 -0.0033827809 0.0070046572
-0.0032351301 -0.0038090649 0.0034633242
0.0019446030 -0.0039345326 0.0040898739
-0.0035125986 -0.0038790602 0.0031891598
0.0009455609 -0.0037868632 0.0043562593
-0.0008675345 -0.0039155775 0.0035955262
0.0033447399 -0.0036005028 0.0054132028
0.0198245199 -0.0033444894 0.0067089636
0.0180089563 -0.0034090357 0.0064140281
0.0179534637 -0.0034109303 0.0064168458
0.0187488484 -0.0033847948 0.0062222464
0.0197833247 -0.0033427224 0.0071908378
0.0203456000 -0.0033239359 0.0071002551
0.0075160225 0.0034334339 0.0067393882
0.0211760441 0.0032848586 0.0075174509
0.0111152632 0.0035247510 0.0062611767
0.0126656134 0.0034951231 0.0064163325
0.0178057228 0.0032550272 0.0076736725
0.0118941608 0.0034558982 0.0066217464
0.0137646092 0.0033428180 0.0072139274
0.0107493975 0.0035582142 0.0060859359
0.0106279551 0.0035809630 0.0059668043
0.0104092093 0.0032987245 0.0074448377
0.0147452758 0.0032701597 0.0075944265
0.0203988614 0.0032913237 0.0074835944
0.0146832485 0.0032984855 0.0074460892
0.0145749500 0.0033711205 0.0070657124
0.0065823330 0.0036334003 0.0056921993
0.0189265159 0.0033741076 0.0069116841
0.0096951787 0.0037055960 0.0049134440
0.0167538917 0.0034542811 0.0061153245
0.0141469435 0.0035460711 0.0058266353
0.0147753212 0.0035237228 0.0059299747
0.0194461239 0.0033569959 0.0067902769
-0.0151847576 0.0029469364 -0.0016217918
-0.0216051084 0.0020261262 -0.0008496956
-0.0201926807 0.0022805070 -0.0009208357
-0.0140835793 0.0032317351 -0.0015124917
-0.0165522446 0.0025589883 -0.0017712205
-0.0203549680 0.0016966831 -0.0018157724
-0.0150991599 0.0020887392 -0.0027927114
-0.0036708065 0.0030127740 -0.0048240944
-0.0102566756 0.0028452204 -0.0031795623
-0.0059525597 0.0032564015 -0.0038625823
-0.0128900006 0.0029894778 -0.0022476828
-0.0085737835 0.0025432563 -0.0040475035
-0.0114705009 0.0032280300 -0.0023392647
-0.0152464139 0.0021724160 -0.0026424181
-0.0105859616 0.0030438717 -0.0028285006
-0.0167942326 0.0024231579 -0.0018791825
-0.0158356103 0.0021745246 -0.0024730887
-0.0159883480 0.0019497222 -0.0027218201
-0.0165959604 0.0019714662 -0.0025217863
-0.0092102908 0.0037321111 -0.0023237494
-0.0110634703 0.0027554290 -0.0030680453
-0.0075662396 0.0027118887 -0.0041134021
0.0085567254 0.0029663092 -0.0078612964
0.0093168375 0.0019337302 -0.0090075692
0.0084957918 0.0023774987 -0.0084409945
0.0047735047 0.0019782051 -0.0082835405
0.0010250892 0.0024216102 -0.0068476945
0.0068745086 0.0028083780 -0.0076984344
0.0052452409 0.0021589896 -0.0081713886
0.0019613397 0.0018247448 -0.0078472667
0.0075908866 0.0028592169 -0.0077980746
0.0038967903 0.0028974942 -0.0068905085
0.0062134737 0.0028634710 -0.0074728020
-0.0098188750 0.0015893922 -0.0048723562
-0.0083474829 0.0018233106 -0.0050001601
-0.0021147160 0.0022322715 -0.0062401041
-0.0047897999 0.0020992213 -0.0056569343
-0.0152490821 0.0016303351 -0.0033151894
-0.0046360716 0.0015014855 -0.0064171960
-0.0032465589 0.0015598316 -0.0067330324
-0.0098176816 0.0021008215 -0.0042587269
-0.0051076585 0.0020602922 -0.0056153958
-0.0153478239 0.0015652124 -0.0033659465
-0.0035656539 0.0022035289 -0.0058716711
-0.0061434840 0.0018618072 -0.0055660154
-0.0168699049 0.0018440218 -0.0026085463
-0.0121068485 0.0015534851 -0.0042800719
0.0224018482 -0.0030517799 -0.0047091486
0.0223911682 -0.0028173560 -0.0071716018
0.0067006568 -0.0018760467 -0.0086862609
0.0086640792 -0.0018024675 -0.0090444717
0.0081971346 -0.0021523277 -0.0086269195
0.0079891437 -0.0027747919 -0.0079743027
0.0088588024 -0.0024092393 -0.0084659276
0.0070228140 0.0024175637 0.0081914484
0.0084175662 0.0022695061 0.0085416984
0.0092684338 0.0022798857 0.0086546664
0.0068624162 0.0022996221 0.0082861374
-0.0180378182 0.0023924544 0.0015555275
-0.0158705181 0.0029149639 0.0014128517
-0.0202298327 0.0020127791 0.0014163298
-0.0033605150 0.0038020797 0.0036531547
-0.0021572475 0.0038170777 0.0038047256
0.0056377736 0.0035454412 0.0060539355
-0.0021944293 0.0039612365 0.0033030733
-0.0045870762 0.0039066659 0.0030867228
-0.0034740111 0.0038289636 0.0035416155
-0.0016870017 0.0038633540 0.0037250815
0.0037798810 0.0036681585 0.0053186319
0.0114257324 0.0019342463 0.0090157548
0.0112056586 0.0020641373 0.0088858639
0.0105214835 0.0026935284 0.0082564738
-0.0171597120 -0.0026833745 0.0010871180
-0.0138996317 -0.0031909756 0.0011662687
-0.0174682164 -0.0027241083 0.0007194782
-0.0188022465 -0.0024215762 0.0010717947
-0.0070633086 -0.0029484903 0.0038746033
-0.0091696817 -0.0027729015 0.0035197006
-0.0128785259 -0.0031075560 0.0018514122
-0.0074107281 -0.0038779961 0.0022627740
-0.0193884820 -0.0020053005 0.0016614076
-0.0160039888 -0.0025732698 0.0017684352
-0.0136145567 -0.0025534228 0.0025259936
-0.0058627396 -0.0036735999 0.0030639638
-0.0076672082 -0.0039397661 0.0020848060
-0.0036673980 -0.0031330596 0.0046064355
-0.0112270837 -0.0024624501 0.0033982235
-0.0192806809 -0.0020946066 0.0015494048
-0.0099293258 -0.0024700525 0.0037798821
-0.0136819325 -0.0023261791 0.0028738107
-0.0102441818 -0.0025202334 0.0036029735
-0.0091969335 -0.0029847523 0.0031681018
-0.0108449389 -0.0028236641 0.0029288528
-0.0017880492 -0.0029736490 0.0054353173
0.0200723037 0.0004004049 0.0092088559
0.0190016838 -0.0005891598 0.0092129738
0.0143807353 0.0004801889 0.0092307470
0.0197347573 -0.0005588274 0.0092101542
0.0181941330 -0.0011289536 0.0092160798
0.0190864868 -0.0003630376 0.0092126476
0.0185922604 -0.0008595476 0.0092145485
0.0178550217 0.0009273240 0.0092173841
0.0105743560 0.0001513981 0.0092453871
0.0201806010 -0.0011653780 0.0092084394
0.0163730072 0.0000736177 0.0092230842
0.0204375928 -0.0003309962 0.0092074510
0.0117305996 -0.0021798270 0.0087701752
0.0094382575 -0.0029859575 0.0079640463
0.0095709876 -0.0027160449 0.0082339579
0.0119505181 0.0036247039 -0.0052300670
0.0213767714 0.0032870404 -0.0072120791
0.0113445439 0.0036442382 -0.0055734026
0.0143540102 0.0035364953 -0.0061929627
0.0134150869 0.0035707242 -0.0058666054
0.0118445664 0.0036267346 -0.0055901278
0.0048147626 0.0038775664 -0.0043258699
0.0163984864 0.0034664965 -0.0059213771
0.0120587797 0.0036203076 -0.0053651044
0.0224108988 0.0016561209 0.0067471402
0.0224076126 0.0022711517 0.0066817226
0.0224238482 0.0023816483 0.0055545541
0.0224231864 0.0026764009 0.0041548153
0.0224180648 -0.0026648636 -0.0055851178
0.0223910022 -0.0031149298 0.0062095661
0.0056718344 -0.0009194677 0.0092130442
0.0074477890 -0.0024312470 0.0082305004
0.0085033244 -0.0026377980 0.0081818274
0.0074318453 -0.0019760183 0.0086833427
0.0036732932 -0.0015611903 0.0085359995
0.0048941871 -0.0013927596 0.0088869163
0.0024947692 -0.0020389931 -0.0077278314
0.0023821387 -0.0020754758 -0.0076573437
0.0051144021 -0.0024120554 -0.0078281410
0.0012703658 -0.0019784027 -0.0075375953
0.0052968124 -0.0026304866 -0.0075926457
0.0002340488 -0.0028237466 -0.0062468897
0.0036370493 -0.0020696096 -0.0079379528
0.0017050893 -0.0001413916 -0.0089955258
-0.0057527368 -0.0001908646 -0.0068590304
-0.0151615336 -0.0003021812 -0.0041460976
-0.0127150191 -0.0002768780 -0.0048544688
-0.0057776294 -0.0005095163 -0.0067609856
-0.0042991985 -0.0005449542 -0.0071720299
-0.0153989521 -0.0009171493 -0.0038501047
-0.0089281078 -0.0009172628 -0.0057079047
-0.0223507371 -0.0004342457 -0.0020373192
-0.0213841757 -0.0008677870 -0.0021504087
-0.0074381734 -0.0008150456 -0.0061744452
-0.0216186203 -0.0009477444 -0.0020527736
-0.0163128510 -0.0004846860 -0.0037517263
-0.0207486817 -0.0004990194 -0.0024727197
-0.0196341540 -0.0014099708 -0.0022725829
-0.0209793675 -0.0015947840 -0.0016835207
-0.0171523712 -0.0016998396 -0.0026472781
-0.0172074137 -0.0017952224 -0.0025240456
-0.0211662540 -0.0018915537 -0.0012956799
-0.0203926309 -0.0014322357 -0.0020329404
-0.0164935688 -0.0015324047 -0.0030222179
-0.0065867067 -0.0014439834 -0.0059205751
-0.0073677828 -0.0013449653 -0.0058112718
0.0020378049 -0.0014612595 -0.0083377594
-0.0064380010 -0.0020022134 -0.0053347329
-0.0051388158 -0.0012998310 -0.0064917680
-0.0059410552 -0.0023063279 -0.0051330861
-0.0067832529 -0.0018112966 -0.0054519204
-0.0147575960 -0.0012717219 -0.0038058648
0.0012925022 -0.0017779941 -0.0077709558
-0.0065575357 -0.0018404874 -0.0054828589
0.0004399024 -0.0019985388 -0.0072820256
-0.0051607650 -0.0013671560 -0.0064098447
-0.0046653913 -0.0018725264 -0.0059813964
0.0008455973 -0.0014642548 -0.0079975655
-0.0110793526 -0.0017080612 -0.0043542885
-0.0144336259 0.0019175355 0.0031973516
-0.0031068242 0.0019160239 0.0063493283
-0.0157511318 0.0017841743 0.0029920974
-0.0073491408 0.0016380195 0.0055054390
-0.0062778141 0.0020252585 0.0053354222
-0.0010002575 0.0022660424 0.0065122071
-0.0004322022 0.0024275769 0.0064749813
-0.0144160522 0.0018987363 0.0032249574
-0.0003152336 0.0026278185 0.0062655251
-0.0207409401 0.0016104307 0.0018143232
-0.0195788189 0.0015556606 0.0022037144
-0.0103397525 0.0015833644 0.0047397552
-0.0139830098 0.0018224011 0.0034376421
-0.0052137509 0.0021505762 0.0054799106
-0.0040702700 0.0021143145 0.0058417508
-0.0012985468 0.0028201142 0.0057453829
-0.0063468296 0.0027230809 0.0044439025
-0.0068674992 0.0028927476 0.0040763295
-0.0053389032 0.0024896514 0.0050320642
-0.0198376531 0.0018736871 0.0017322161
-0.0109191017 0.0024536820 0.0035008718
-0.0087435504 0.0030725274 0.0033123634
-0.0042479130 0.0027768657 0.0049675608
-0.0071888982 0.0032693098 0.0034964118
-0.0063403401 0.0033339793 0.0036523720
-0.0168342994 0.0024007369 0.0018969981
-0.0096242448 0.0022948955 0.0040732306
-0.0116737319 0.0028481640 0.0027751776
-0.0101124862 0.0032485609 0.0026966590
-0.0081947104 0.0034285942 0.0030051391
-0.0074015296 0.0027259863 0.0041418931
-0.0067030179 0.0024635424 0.0046802427
-0.0078591827 0.0031635379 0.0034442409
0.0057479483 0.0027533463 0.0075094422
0.0049810359 0.0025050495 0.0076570366
0.0027167378 0.0026836117 0.0068973552
0.0066297412 0.0025073989 0.0080366127
0.0044070949 0.0028021379 0.0071342561
0.0048981507 0.0021856862 0.0080565799
0.0056025887 0.0029785959 0.0071803355
-0.0061042851 0.0038511540 0.0029715936
-0.0021679424 0.0036601295 0.0042331319
-0.0039949442 0.0032550708 0.0044126054
-0.0029337217 0.0034730682 0.0043351364
-0.0016930510 0.0032577533 0.0049730849
-0.0000431519 0.0028842123 0.0059565788
0.0025448740 0.0029896622 0.0064280104
0.0061707221 0.0032148800 0.0069684360
0.0027266513 0.0032750871 0.0060303445
0.0218918950 0.0027587768 0.0081912252
0.0217724804 0.0023953562 0.0085546450
0.0224075027 -0.0015865283 0.0069883085
0.0223884112 -0.0023999701 0.0077527997
0.0223246617 -0.0027880837 0.0081619193
0.0194990617 -0.0020089239 0.0089410783
0.0223255413 -0.0020752974 0.0088747030
0.0058312759 0.0010391910 -0.0092027553
0.0063824617 0.0011929304 -0.0091869447
-0.0138804311 0.0009802414 -0.0042458947
-0.0216050389 0.0013702641 -0.0017663432
-0.0169816132 0.0007980773 -0.0034842530
-0.0215560512 0.0012908916 -0.0018351473
-0.0093061402 0.0008789130 -0.0056247357
0.0003508744 0.0010271857 -0.0082856735
-0.0182506104 0.0012699303 -0.0027954431
-0.0078102302 0.0008451831 -0.0060719187
0.0053297452 -0.0012600765 0.0090710000
0.0046265394 -0.0010481401 0.0091071746
0.0027046288 -0.0022807352 0.0074647403
0.0071892707 -0.0028154976 0.0077699219
0.0071618347 -0.0028594825 0.0077086257
0.0032026972 -0.0022280766 0.0076395469
0.0018601852 -0.0024957122 0.0070102907
0.0065981359 -0.0026496552 0.0078496108
0.0074491585 -0.0028825905 0.0077422045
-0.0122540533 -0.0022993621 0.0033498360
-0.0113001007 -0.0010750747 0.0049573163
0.0011220451 -0.0031265608 -0.0058977609
-0.0016919963 -0.0036193233 -0.0042246763
-0.0000854486 -0.0036062742 -0.0046488903
0.0009461489 -0.0029436435 -0.0062161691
-0.0001782442 -0.0030921831 -0.0056433583
0.0076070714 -0.0032221410 -0.0073167303
-0.0032953482 -0.0035470637 -0.0039700961
-0.0000101210 -0.0035167616 -0.0048447315
0.0063011649 -0.0031270474 -0.0071787486
-0.0106323149 -0.0030438602 -0.0026378406
-0.0109028073 -0.0031774535 -0.0023387924
-0.0202615651 -0.0021429469 -0.0011733491
-0.0073147319 -0.0027417908 -0.0041364851
-0.0042161735 -0.0027344200 -0.0050902367
-0.0139868554 -0.0029055285 -0.0018427727
-0.0063191528 -0.0028028379 -0.0043400006
-0.0085427197 -0.0027656765 -0.0037244770
-0.0077408027 -0.0036228988 -0.0025768679
-0.0113994742 -0.0027868405 -0.0028218325
-0.0055759877 -0.0032257975 -0.0038793807
-0.0151782941 -0.0024733269 -0.0021821430
-0.0110484874 -0.0026405812 -0.0031659045
-0.0151387379 -0.0024094848 -0.0022977872
-0.0090316509 -0.0026141344 -0.0038218353
-0.0064457723 -0.0031270325 -0.0037753191
-0.0082201038 -0.0038902620 -0.0019972334
-0.0128611438 -0.0022855721 -0.0031908422
0.0035844697 0.0007021019 0.0091490556
0.0063402354 0.0011824517 0.0091794601
0.0033854119 0.0013862014 0.0086941576
-0.0133324557 0.0007914591 -0.0045286116
-0.0010673087 0.0004800580 -0.0081421101
-0.0120339853 0.0006579370 -0.0049523484
-0.0014650158 0.0005157054 -0.0080144742
-0.0215710347 0.0005045468 -0.0022388295
-0.0114085142 0.0005290649 -0.0051650282
-0.0183122263 0.0002401985 -0.0032102238
-0.0103191199 0.0003580361 -0.0054997944
-0.0085008035 0.0004365686 -0.0060143580
-0.0216259874 0.0004044462 -0.0022351447
-0.0187219897 -0.0000167954 -0.0031233209
-0.0083246181 0.0000607913 -0.0061094469
-0.0019671980 -0.0000005439 -0.0079437428
-0.0064654242 0.0001049269 -0.0066398625
-0.0111388034 0.0015062021 -0.0046050411
-0.0153432774 0.0015135924 -0.0034253474
-0.0080270428 0.0013445676 -0.0056341812
0.0019183914 0.0013447529 -0.0084070242
-0.0117921861 0.0014176373 -0.0045113565
0.0058131623 0.0013591779 -0.0090578882
-0.0138355736 -0.0010171299 0.0042592948
-0.0106891330 -0.0009492541 0.0051878748
-0.0062930270 -0.0009173647 0.0064594561
-0.0137120769 -0.0010198235 0.0042935452
-0.0215662557 -0.0011591735 0.0019877500
-0.0076070607 -0.0005342403 0.0062346271
-0.0206607811 -0.0005669634 0.0024724483
-0.0097749025 -0.0006646281 0.0055624507
-0.0221431587 -0.0007228303 0.0019875131
-0.0131120893 -0.0005376636 0.0046519725
-0.0197163378 -0.0008602398 0.0026325214
-0.0115735102 -0.0008330544 0.0049819132
-0.0045309606 -0.0003343145 0.0071878277
-0.0105916990 -0.0001878718 0.0054709533
-0.0183766875 -0.0018965090 0.0020782754
-0.0175380662 -0.0018043701 0.0024192982
-0.0080252297 -0.0024177510 0.0044155539
-0.0158689487 -0.0020679111 0.0025935663
-0.0085430377 -0.0024366550 0.0042478675
-0.0158628405 -0.0017030052 0.0030071850
-0.0120985377 -0.0022608106 0.0034414615
0.0063874167 -0.0013449925 -0.0091281887
0.0042383369 -0.0005089445 -0.0092321374
0.0057952446 -0.0014852163 -0.0089376352
-0.0155685256 -0.0012108335 -0.0036389669
-0.0002299088 -0.0011218659 -0.0080212950
-0.0199658348 -0.0011678515 -0.0024399134
-0.0013648463 -0.0011550694 -0.0076747719
-0.0108134742 -0.0010362626 -0.0051196629
-0.0112469692 0.0003125054 0.0052424800
-0.0130438573 0.0001990991 0.0047375886
-0.0182337019 -0.0001592041 0.0032830757
-0.0154295653 0.0005250226 0.0040093938
-0.0118717371 0.0000125038 0.0050985709
-0.0198078502 -0.0001047073 0.0028220898
-0.0204742873 0.0004725425 0.0025596363
-0.0126270042 -0.0001440976 0.0048925359
-0.0083832555 -0.0001024552 0.0061088987
-0.0130003358 0.0014206729 0.0041730669
-0.0039010107 0.0013590729 0.0067870280
-0.0043157420 0.0013650365 0.0066652489
0.0001366280 0.0010650510 0.0081699444
-0.0217057683 0.0008372474 0.0021051569
-0.0214500089 0.0008844649 0.0021456501
-0.0028960707 0.0008249159 0.0074886729
-0.0165475789 0.0011978756 0.0033302230
-0.0043647616 0.0009317722 0.0069952267
-0.0208274633 0.0011826449 0.0021177287
-0.0062892496 0.0008393137 0.0065091100
-0.0028678030 0.0010247448 0.0073574148
-0.0006278238 0.0004451463 0.0082613112
0.0015935639 0.0005413195 0.0088606081
-0.0025224009 0.0007062424 0.0076350300
-0.0023173370 0.0006272886 0.0077198299
-0.0083875748 -0.0013836496 0.0054693969
0.0012904300 -0.0015069284 0.0080578486
-0.0065587530 -0.0017158263 0.0056139789
-0.0030525622 -0.0019717976 0.0063160241
-0.0015114351 -0.0020619677 0.0066495248
-0.0044264139 -0.0017779353 0.0061453055
0.0002838733 -0.0019985272 0.0072259687
-0.0028121439 -0.0026000823 0.0056829050
-0.0094199477 -0.0018108159 0.0047021185
-0.0018391615 -0.0018432716 0.0068011657
-0.0005503590 -0.0014531795 0.0075993163
0.0000020587 -0.0018317206 0.0073326600
-0.0072369717 -0.0020588703 0.0050402901
-0.0082657295 -0.0017082830 0.0051415957
0.0008604066 -0.0015383244 0.0079017042
-0.0129380846 -0.0011344485 0.0044482257
0.0019024322 -0.0010765396 0.0086695405
0.0018398447 -0.0010077780 0.0087206880
-0.0071130890 -0.0013201491 0.0058968555
-0.0010267686 -0.0013022092 0.0076222758
0.0110414945 -0.0023215391 -0.0086284592
0.0112641574 -0.0027847882 -0.0081652096
0.0140301282 -0.0022329871 -0.0087170114
0.0159584283 -0.0017515416 -0.0091984575
0.0117251848 -0.0018928146 -0.0090571843
0.0142256805 -0.0018206734 -0.0091293256
0.0158538851 -0.0023836390 -0.0085663593
0.0111544947 -0.0030805778 -0.0078694196
0.0220511992 -0.0021236050 -0.0088263937
0.0185199275 -0.0025957370 -0.0083542611
0.0119502158 -0.0030088139 -0.0079411836
0.0207850378 -0.0022648734 -0.0086851250
0.0169585505 -0.0025240411 -0.0084259570
0.0177650039 -0.0023566363 -0.0085933620
0.0122686162 -0.0030694130 -0.0078805845
0.0057381432 -0.0007620646 -0.0092282244
0.0113401078 -0.0011753076 -0.0092164181
0.0087300319 -0.0014044094 -0.0092098727
0.0117394287 -0.0010626077 -0.0092196379
0.0110501965 -0.0016665224 -0.0092023842
0.0072886657 -0.0011763299 -0.0092163889
0.0155255663 -0.0015059820 -0.0092069708
0.0179481006 -0.0011610675 -0.0092168249
0.0072374563 -0.0001742893 -0.0092450170
0.0057281625 -0.0001739512 -0.0092450266
0.0204249429 -0.0033250030 -0.0012347054
0.0209767670 -0.0033037791 0.0051489068
0.0206695714 -0.0033155943 0.0008887063
0.0207169859 -0.0033137706 0.0061931354
0.0202812565 -0.0033305294 -0.0002118678
0.0203422915 -0.0033281819 0.0033081694
0.0198887101 -0.0033456273 -0.0007738905
0.0217620609 -0.0032735755 0.0048893557
0.0203739245 -0.0033269653 0.0008977887
0.0208826002 -0.0033074009 -0.0054416603
0.0210500345 -0.0033009611 -0.0049981017
0.0219653358 -0.0032657572 0.0026053268
0.0213425247 -0.0032897115 -0.0054124543
0.0218626780 -0.0032697056 -0.0031836240
0.0222853782 -0.0032534479 0.0040968422
0.0223590357 -0.0032506150 0.0058939811
0.0199645507 -0.0033427104 -0.0057467152
0.0222390970 -0.0032552280 -0.0058578673
0.0217815246 -0.0032728269 -0.0030187786
0.0202528025 -0.0033316238 -0.0058053916
0.0043620289 0.0002185425 -0.0092437527
0.0083636689 0.0006953088 -0.0092301316
0.0086474800 0.0005205199 -0.0092351253
0.0120348646 0.0007335115 -0.0092290401
0.0101158294 0.0003814307 -0.0092390990
0.0134570787 0.0009420322 -0.0092230827
0.0124353126 0.0006596280 -0.0092311510
0.0107676150 0.0010128252 -0.0092210602
0.0121022268 0.0004528412 -0.0092370588
0.0111874745 0.0003811525 -0.0092391069
0.0170248410 0.0025035813 -0.0084464159
0.0188105223 0.0019781084 -0.0089718901
0.0151866162 0.0020179135 -0.0089320849
0.0223742935 0.0019063851 -0.0090436137
0.0153376439 0.0020432594 -0.0089067390
0.0146957474 0.0021101840 -0.0088398142
0.0208910308 0.0026817219 -0.0082682748
0.0132507866 0.0030541089 -0.0078958870
0.0156512715 0.0029154225 -0.0080345737
0.0126492630 0.0025696828 -0.0083803143
0.0176978966 0.0029912881 -0.0079587079
0.0134092435 0.0029567471 -0.0079932490
0.0114563281 0.0020165383 -0.0089334601
0.0095038800 0.0018952380 -0.0090547607
0.0100755856 0.0030775409 -0.0078724549
0.0186924823 -0.0033882419 0.0048633311
0.0057285136 -0.0038462081 0.0041941762
0.0145725909 -0.0035337815 -0.0029916737
0.0146862864 -0.0035297651 0.0001931361
0.0196398134 -0.0033547764 -0.0025444865
0.0136706440 -0.0035656438 -0.0017881481
0.0186028283 -0.0033914090 -0.0046502084
0.0175339419 -0.0034291686 -0.0016323315
0.0082383062 -0.0037575470 0.0033391096
0.0159156279 -0.0034863373 -0.0033546589
0.0128387919 -0.0035950299 0.0019770812
0.0123602761 -0.0036119339 0.0025877105
0.0138894720 -0.0035579134 0.0025400589
0.0157404010 -0.0034925274 -0.0017452970
0.0120698308 -0.0036221942 0.0003662042
0.0195938782 -0.0033563991 -0.0027235385
0.0102051905 -0.0036880647 -0.0004317553
0.0192943996 -0.0033669785 0.0000504769
0.0196738169 -0.0033535752 0.0031835505
0.0047800406 -0.0038797140 0.0037629170
0.0189152616 -0.0033803720 0.0030509132
0.0108635947 -0.0036648058 -0.0002099539
0.0094805728 -0.0037136626 0.0047756638
0.0143860432 -0.0035403715 0.0054133402
0.0163074139 -0.0034724970 0.0050225572
0.0161342672 -0.0034786136 -0.0014647159
0.0117023368 -0.0036351764 0.0044552112
0.0190437320 -0.0033758336 0.0019363232
0.0071320544 -0.0037966265 0.0017824994
0.0091364353 -0.0037258196 0.0028773124
0.0086048097 -0.0037445998 0.0021077302
0.0150510448 -0.0035168796 -0.0012444155
0.0101446145 -0.0036902046 0.0007751720
0.0188022134 -0.0033843655 0.0011431805
0.0079014562 -0.0037694466 0.0012825972
0.0191844952 -0.0033708610 -0.0011019169
0.0122666037 -0.0036152430 0.0014681915
0.0129269307 -0.0035919163 0.0003527306
0.0125139160 -0.0036065064 0.0042479925
0.0167114643 -0.0034582235 -0.0039199335
0.0193858244 -0.0033637489 0.0040460528
0.0190338199 -0.0033761838 -0.0025601779
0.0166421543 -0.0034606720 0.0055042295
0.0079344675 -0.0037682804 0.0035486286
0.0104365332 -0.0036798922 0.0020879563
0.0106203951 -0.0036733971 0.0028779928
0.0166324645 -0.0034610143 -0.0036371872
0.0150113399 -0.0035182823 0.0024022113
0.0152718538 -0.0035090793 -0.0009171794
0.0100215179 -0.0036945531 0.0001886379
0.0174144100 -0.0034333912 0.0036987328
0.0150249940 -0.0035177999 0.0014302780
0.0124319531 -0.0036094019 -0.0013616108
0.0196274870 -0.0033552119 0.0045914054
0.0097160903 -0.0037053427 0.0017663010
0.0162382180 -0.0034749415 0.0014157995
0.0105970558 -0.0036742216 0.0009582765
0.0177102685 -0.0034229397 -0.0029052323
0.0066304833 -0.0038143451 0.0028061173
0.0100314084 -0.0036942037 0.0006216218
0.0147187002 -0.0035286201 0.0011936613
0.0101762771 -0.0036890861 -0.0010192180
0.0093080085 -0.0037197586 -0.0044983384
0.0044720770 -0.0038905931 -0.0031720703
0.0060525140 -0.0038347625 -0.0007462565
0.0056921452 -0.0038474929 -0.0008078604
0.0018603993 -0.0039828534 -0.0038193439
0.0077433351 -0.0037750324 -0.0002793565
0.0113178778 -0.0036487578 -0.0023138300
0.0089465832 -0.0037325263 -0.0018076465
0.0155150809 -0.0035004871 -0.0046002171
0.0025529956 -0.0039583867 -0.0017905238
0.0015869724 -0.0039925125 -0.0014319938
0.0087687501 -0.0037388085 -0.0011959828
0.0037422088 -0.0039163765 0.0021154958
0.0046594100 -0.0038839754 0.0011866210
0.0083741443 -0.0037527484 -0.0006929827
0.0098907065 -0.0036991742 -0.0017083139
0.0056016665 -0.0038506891 0.0008170641
0.0026167932 -0.0039561330 0.0026128917
0.0024914536 -0.0039605608 -0.0034639904
0.0160018422 -0.0034832917 -0.0040499729
0.0034515788 -0.0039266433 -0.0033433739
0.0070396908 -0.0037998894 -0.0017235321
0.0051872514 -0.0038653288 -0.0005519426
0.0075735321 -0.0037810308 -0.0013984188
0.0085533309 -0.0037464184 -0.0012918180
0.0022406418 -0.0039694210 -0.0023358063
0.0023435404 -0.0039657860 -0.0002311460
0.0048569134 -0.0038769983 0.0004878520
0.0100554523 -0.0036933543 -0.0040074235
0.0112201987 -0.0036522084 -0.0027329834
0.0031933591 -0.0039357652 0.0002436519
0.0019405883 -0.0039800207 -0.0029350289
0.0101093255 -0.0036914512 -0.0009992457
0.0055932981 -0.0038509847 -0.0030714001
0.0076051758 -0.0037799130 -0.0040561672
0.0139586592 -0.0035554693 -0.0028199857
0.0035500763 -0.0039231638 -0.0009919185
0.0030736445 -0.0039399942 0.0008402319
-0.0069018303 -0.0040000007 -0.0021418591
0.0011813059 -0.0040000007 0.0009566678
-0.0025762003 -0.0040000007 0.0010823538
-0.0063588158 -0.0040000007 -0.0017027827
-0.0007409231 -0.0040000007 -0.0032103315
-0.0039757732 -0.0040000007 0.0000280853
-0.0018908830 -0.0040000007 -0.0019490121
0.0000700434 -0.0040000007 0.0010938298
0.0009767411 -0.0040000007 -0.0022660297
-0.0015938066 -0.0040000007 -0.0007480158
-0.0050897778 -0.0040000007 -0.0021459590
0.0010522135 -0.0040000007 -0.0000358165
0.0001189910 -0.0040000007 -0.0005909063
-0.0027272038 -0.0040000007 0.0001819360
-0.0010908777 -0.0040000007 0.0000652550
0.0002306363 -0.0040000007 0.0004446418
0.0002746108 -0.0040000007 0.0019239462
-0.0033019861 -0.0040000007 -0.0010359058
0.0004494308 -0.0040000007 0.0023636597
-0.0072795347 -0.0040000007 -0.0009214168
-0.0011792659 -0.0040000007 0.0031667896
-0.0055810859 -0.0040000007 -0.0003239161
-0.0036695014 -0.0040000007 0.0005527542
-0.0058323066 -0.0040000007 0.0021293901
-0.0058657936 -0.0040000007 0.0005478196
-0.0057237626 -0.0040000007 0.0023147915
-0.0045688260 -0.0040000007 0.0020635865
-0.0053512973 -0.0040000007 0.0008806748
-0.0041905048 -0.0040000007 0.0002627089
-0.0028540396 -0.0040000007 0.0014463498
0.0223945402 -0.0011057307 0.0078712030
0.0223960310 -0.0013864777 0.0077698344
0.0223923304 0.0001722058 0.0080214684
0.0223946190 0.0000027175 0.0078658488
0.0223926238 0.0009045236 0.0080015176
0.0224089564 0.0014277346 0.0068909220
-0.0157452378 0.0030238775 0.0010920614
-0.0223407426 0.0020514008 0.0004381351
-0.0158090534 0.0030144682 0.0011057431
-0.0111137543 0.0037067683 0.0001126826
-0.0092518696 0.0039812946 -0.0006056592
-0.0106701227 0.0037721797 -0.0007441295
-0.0154813618 0.0030627848 -0.0008448104
-0.0093631432 0.0039648878 0.0004559282
-0.0134815751 0.0033576441 -0.0014646495
-0.0112611077 0.0036850417 0.0011670835
-0.0094871602 0.0039466021 0.0007198185
-0.0134348205 0.0033645378 0.0003581986
-0.0212497904 0.0022122567 -0.0006308044
-0.0133299122 0.0033800061 -0.0010171710
-0.0169140192 0.0028515461 -0.0007920671
-0.0126319293 0.0034829204 0.0010489830
-0.0197391231 0.0024349976 -0.0004849253
-0.0174156542 0.0027775823 -0.0007274311
-0.0096781811 0.0039184369 -0.0000101288
-0.0070212177 0.0040000007 -0.0018710797
-0.0037001359 0.0040000007 -0.0023869219
-0.0089109790 0.0040000007 0.0007843497
-0.0071846870 0.0040000007 -0.0016607287
-0.0074746266 0.0040000007 -0.0018374846
-0.0087015654 0.0040000007 -0.0005448231
-0.0034836077 0.0040000007 -0.0016933095
-0.0064434355 0.0040000007 -0.0013221324
-0.0038245136 0.0040000007 -0.0011553943
-0.0054898416 0.0040000007 -0.0013172738
-0.0005707727 0.0040000007 -0.0029571170
0.0001026767 0.0040000007 -0.0017057867
-0.0015884951 0.0040000007 -0.0008250975
-0.0030301232 0.0040000007 -0.0007416845
-0.0024956194 0.0040000007 0.0022528625
-0.0052068633 0.0040000007 -0.0000730342
0.0005882097 0.0040000007 0.0014386771
-0.0018377348 0.0040000007 0.0008897557
0.0006571850 0.0040000007 0.0030962473
-0.0017789398 0.0040000007 0.0003070274
-0.0042073029 0.0040000007 0.0026496141
-0.0053741571 0.0040000007 0.0013255217
-0.0013855713 0.0040000007 -0.0001275017
-0.0003739318 0.0040000007 0.0001370457
-0.0052577857 0.0040000007 0.0018388843
-0.0001869141 0.0040000007 0.0031372127
-0.0022942345 0.0040000007 -0.0008898596
-0.0021502157 0.0040000007 -0.0007964907
-0.0000135763 0.0040000007 0.0002986667
0.0011012420 0.0040000007 -0.0028413244
-0.0001722600 0.0040000007 0.0009337820
-0.0021102403 0.0040000007 -0.0001927936
0.0001518251 0.0040000007 -0.0016987637
-0.0018821198 0.0040000007 0.0011413848
0.0168669722 0.0013807992 0.0092105480
0.0157104657 0.0008943340 0.0092244473
0.0208369123 0.0015873092 0.0092046477
0.0157773658 0.0010509252 0.0092199732
0.0095531952 0.0012396222 0.0092145817
0.0128701589 0.0011354591 0.0092175579
0.0044446497 0.0004044662 0.0092384437
0.0080839312 0.0002639030 0.0092424599
0.0044048813 0.0002509509 0.0092428300
0.0128533952 -0.0011789860 0.0092163142
0.0099264108 -0.0010869171 0.0092189448
0.0094319638 -0.0015557338 0.0092055498
0.0130352701 -0.0007071031 0.0092297968
0.0146262263 -0.0008345708 0.0092261548
0.0169704190 -0.0013573792 0.0092112172
0.0140166662 -0.0008315885 0.0092262400
0.0065274256 -0.0008672976 0.0092252198
0.0086208058 -0.0000955867 0.0092472690
0.0090513364 -0.0012622057 0.0092139365
0.0198280078 0.0033479602 -0.0001310449
0.0208609140 0.0033082331 0.0040975633
0.0213556997 0.0032892029 0.0028093064
0.0204929321 0.0033223862 -0.0018078880
0.0200371103 0.0033399178 -0.0033010499
0.0209424697 0.0033050963 0.0065118483
0.0206112602 0.0033178351 -0.0012444168
0.0212000429 0.0032951897 0.0031218812
0.0206460255 0.0033164980 0.0046003195
0.0223520281 0.0032508826 -0.0024486492
0.0220378517 0.0032629663 0.0056763540
0.0218042857 0.0032719496 -0.0065947676
0.0210540649 0.0033008042 -0.0009869662
0.0221723556 0.0032577931 -0.0067650388
0.0213592821 0.0032890651 -0.0038628073
0.0222629244 0.0032543097 0.0057220916
0.0215855812 0.0032803613 -0.0047316133
0.0218687608 0.0032694698 0.0035285732
0.0221861769 0.0032572615 -0.0020977683
0.0223100456 0.0032524973 -0.0016701428
0.0031681967 0.0039366539 0.0027666181
0.0034471223 0.0039268005 -0.0006958067
0.0056599996 0.0038486280 -0.0008956076
0.0156830507 0.0034945519 -0.0045985522
0.0078181691 0.0037723881 -0.0037999744
0.0160353904 0.0034821051 -0.0052740042
0.0087840982 0.0037382655 -0.0034419251
0.0060625497 0.0038344075 0.0009401388
0.0161390900 0.0034784418 -0.0046430316
0.0047404359 0.0038811127 -0.0035996353
0.0053809573 0.0038584855 -0.0020062068
0.0036787300 0.0039186187 -0.0023751900
0.0133088928 0.0035784218 -0.0047168513
0.0068325300 0.0038072070 -0.0013512375
0.0111685330 0.0036540326 -0.0028365935
0.0041853823 0.0039007206 -0.0024647928
0.0179198870 0.0034155330 -0.0048430761
0.0028742410 0.0039470382 -0.0013093528
0.0019522118 0.0039796100 0.0022105066
0.0094091884 0.0037161835 -0.0020567252
0.0080780182 0.0037632086 -0.0039017526
0.0079576516 0.0037674607 -0.0003618610
0.0064669679 0.0038201209 -0.0009765116
0.0087369322 0.0037399317 -0.0037343993
0.0058828295 0.0038407563 -0.0010932144
0.0017831346 0.0039855829 -0.0037453356
0.0023371313 0.0039660123 0.0027486276
0.0107491701 0.0036688471 -0.0045681534
0.0028224208 0.0039488688 -0.0027467511
0.0081832314 0.0037594919 -0.0023190093
0.0092854036 0.0037205563 -0.0027519811
0.0095097328 0.0037126316 -0.0023988758
0.0160942144 0.0034800270 -0.0043954055
0.0125804586 0.0036041546 -0.0020452458
0.0049906416 0.0038722739 -0.0040964989
0.0161380681 0.0034784779 -0.0048896046
0.0036927651 0.0039181229 -0.0034024999
0.0048033760 0.0038788893 -0.0007391255
0.0076180104 0.0037794590 -0.0035309283
0.0180696866 0.0034102412 0.0048741397
0.0195783272 0.0033569466 -0.0022301762
0.0144449221 0.0035382902 -0.0005910137
0.0139146496 0.0035570227 0.0009535682
0.0119950108 0.0036248363 0.0002691004
0.0175755967 0.0034276955 0.0000838707
0.0190555959 0.0033754127 0.0044630793
0.0160295572 0.0034823111 -0.0012497814
0.0055625723 0.0038520697 0.0037031140
0.0125628336 0.0036047772 0.0038564143
0.0138193147 0.0035603906 -0.0003695482
0.0154501381 0.0035027798 -0.0015647871
0.0157429835 0.0034924347 0.0017456690
0.0131602588 0.0035836725 0.0018460537
0.0100285804 0.0036943027 0.0038270916
0.0063966776 0.0038226040 0.0036086528
0.0088099298 0.0037373530 0.0046170804
0.0078530896 0.0037711545 0.0022973222
0.0074752579 0.0037845019 0.0034714278
0.0152849181 0.0035086164 0.0047445563
0.0072792081 0.0037914276 0.0030149653
0.0117544743 0.0036333335 -0.0008163257
0.0050820690 0.0038690441 0.0020946983
0.0195541111 0.0033578021 -0.0047534058
0.0152140842 0.0035111187 -0.0030127518
0.0131053232 0.0035856132 0.0001874104
0.0114130114 0.0036453961 0.0011936091
0.0108622836 0.0036648512 0.0003426108
0.0116271417 0.0036378317 0.0014835690
0.0138975457 0.0035576270 0.0036340505
0.0028793781 0.0039468568 0.0031010591
0.0110553759 0.0036580300 0.0048868589
0.0035693812 0.0039224816 0.0036954659
0.0113146245 0.0036488717 -0.0011760951
0.0158962342 0.0034870209 -0.0012177246
0.0160063280 0.0034831317 0.0026771203
0.0119212511 0.0036274419 0.0042551893
0.0184885585 0.0033954440 0.0039405590
0.0190104913 0.0033770061 0.0015524310
0.0085449609 0.0037467133 0.0034692160
0.0165527455 0.0034638289 -0.0000022846
0.0038562107 0.0039123490 0.0032166664
0.0111627795 0.0036542358 0.0021594840
0.0182171668 0.0034050312 0.0040066589
0.0139694699 0.0035550862 0.0017462536
0.0060524709 0.0038347635 0.0023025890
0.0194923145 0.0033599851 0.0051120248
0.0139891663 0.0035543904 0.0018549642
0.0177050064 0.0034231239 -0.0019976694
0.0060982402 0.0038331466 0.0033031230
0.0150763863 0.0035159830 0.0029627831
0.0079838420 0.0037665355 0.0004428149
0.0154295929 0.0035035056 0.0047594330
0.0183061725 0.0034018870 -0.0015220248
0.0098009697 0.0037023434 0.0027807981
0.0175314480 0.0034292551 0.0032460138
0.0189748410 0.0033782655 0.0031571088
0.0188216126 0.0033836785 0.0039192246
0.0099605864 0.0036967047 0.0032154532
0.0108190555 0.0036663783 0.0009523991
0.0113004017 0.0036493741 -0.0012396438
0.0151290268 0.0020063779 0.0089436250
0.0134812189 0.0024010275 0.0085489753
0.0160916665 0.0022456962 0.0087043067
0.0175605661 0.0023000537 0.0086499492
0.0184297071 0.0021486470 0.0088013558
0.0204586602 0.0028922024 0.0080578004
0.0119575894 0.0032151039 0.0077348990
0.0159749684 0.0029885492 0.0079614537
0.0190947438 0.0031206023 0.0078294005
0.0153745909 0.0018829500 0.0090670515
0.0134704912 0.0019204464 0.0090295559
0.0150578059 -0.0020003092 0.0089496937
0.0112545508 -0.0028356453 0.0081143588
0.0186401521 -0.0031270265 0.0078229780
0.0136398431 -0.0031488273 0.0078011773
0.0139618090 -0.0026287888 0.0083212149
0.0134254225 -0.0032313289 0.0077186758
0.0145061305 -0.0025699570 0.0083800468
0.0193662178 -0.0028022924 0.0081477116
0.0190221884 -0.0026849231 0.0082650808
0.0111836187 -0.0017740579 0.0091759416
-0.0224249959 -0.0008695518 0.0017458580
-0.0224249959 -0.0009463937 -0.0008777834
-0.0224249959 -0.0008765675 0.0010971848
-0.0224249959 -0.0002073827 0.0009026931
-0.0224249959 0.0016753534 -0.0001543262
-0.0224249959 0.0006031130 -0.0005083956
-0.0224249959 -0.0011485181 0.0013394143
-0.0224249959 -0.0013910029 -0.0006989239
0.0224249996 0.0023378349 0.0023754489
0.0224249996 0.0005303918 0.0034663186
0.0224249996 0.0021062168 0.0015079667
0.0224249996 -0.0012169929 0.0042011136
0.0224249996 -0.0001839063 0.0029613816
0.0224249996 0.0017742572 0.0000211138
0.0224249996 0.0007162704 0.0007998763
0.0224249996 -0.0006666141 0.0027687934
0.0224249996 -0.0027070841 0.0005356537
0.0224249996 -0.0004026530 -0.0037009219
0.0224249996 0.0000001353 -0.0004075361
0.0224249996 -0.0016123471 0.0014131452
0.0224249996 -0.0009790022 -0.0034692026
0.0224249996 -0.0010715866 -0.0038306258
0.0224249996 -0.0005406043 -0.0009420425
0.0224249996 -0.0016349332 -0.0000128458
0.0224249996 -0.0013888068 -0.0009758495
0.0224249996 -0.0015139310 0.0003080084
0.0224249996 -0.0016040839 0.0024642429
0.0224249996 -0.0013363010 0.0013521025
0.0224249996 -0.0013007349 0.0017347205
0.0224249996 0.0020342846 0.0039921649
0.0224249996 0.0013126556 0.0048441118
0.0224249996 0.0020837093 0.0047416320
0.0224249996 0.0015754771 0.0050996111
0.0224249996 0.0021582486 -0.0036585490
0.0224249996 0.0023157119 -0.0031677617
0.0224249996 0.0025132750 -0.0029982192
0.0224249996 0.0012351334 -0.0009796899
0.0224249996 -0.0027780930 0.0030865254
0.0224249996 0.0018357025 -0.0032917434
0.0224249996 -0.0025219051 -0.0047661888
0.0224249996 -0.0018795423 -0.0055155343
0.0224249996 -0.0023813439 0.0010433692
0.0224249996 -0.0023820656 -0.0031611597
