0.0216904574 -0.0047940186 -0.0575000002
0.0262547240 0.0000129204 -0.0575000008
0.0220302455 -0.0024904587 -0.0575000003
0.0133752202 -0.0160632316 -0.0574999991
0.0204549451 -0.0088923895 -0.0575000000
0.0283420332 0.0018816108 -0.0439078671
0.0282958845 -0.0025316467 -0.0439344856
0.0215404181 0.0093907912 -0.0432400055
0.0232484959 0.0094223161 -0.0432400055
0.0225046937 0.0136590590 -0.0432400045
0.0282567652 -0.0028850814 -0.0478921797
0.0213686297 -0.0103138962 -0.0574999991
0.0178922543 -0.0128519590 -0.0574999992
0.0280477312 0.0047273184 -0.0462407085
0.0273834759 -0.0015943437 -0.0551877493
0.0277692261 0.0046068629 -0.0549306938
0.0276621768 -0.0049876157 -0.0503775430
0.0205432270 0.0057965913 -0.0432400054
0.0192463535 0.0097349380 -0.0432400050
0.0272380705 -0.0080569540 -0.0496623514
0.0215347756 -0.0009609360 -0.0575000002
0.0082258220 -0.0175368051 -0.0574999985
0.0214207551 0.0025864476 -0.0575000003
0.0267866438 0.0085087499 -0.0524092522
0.0122378133 -0.0196715084 -0.0574999973
0.0256494668 0.0123264809 -0.0486748794
0.0265392975 -0.0092709294 -0.0558755553
0.0269999895 -0.0016336280 -0.0548772077
0.0248557596 0.0013625580 -0.0524870584
0.0261694765 -0.0110973712 -0.0461440171
0.0059282175 0.0009697215 -0.0432400016
0.0051722300 0.0017542456 -0.0432400017
0.0247863660 -0.0106750648 -0.0432400055
-0.0164156159 0.0146561994 -0.0432399970
0.0227542863 -0.0024043057 -0.0432400055
0.0146752498 0.0099693585 -0.0432400031
0.0091729462 0.0235568635 -0.0432400004
0.0127223953 0.0236708460 -0.0432400032
0.0145366414 0.0140960640 -0.0432400023
0.0133684948 0.0100547440 -0.0432400031
0.0230698370 -0.0046802454 -0.0432400060
0.0083817612 0.0182683480 -0.0432400015
0.0096790671 0.0099593985 -0.0432400031
0.0230029626 -0.0055036711 -0.0432400061
-0.0002781968 0.0252436389 -0.0432400002
-0.0036183728 0.0247085568 -0.0432400001
0.0154789596 0.0020428993 -0.0432400041
-0.0008854260 0.0196370066 -0.0432399999
-0.0087439574 0.0206217155 -0.0432399972
-0.0095728367 0.0220604639 -0.0432399968
0.0082086052 0.0065975686 -0.0432400018
-0.0032959110 0.0172875897 -0.0432399984
-0.0025830086 0.0110114170 -0.0432399997
0.0089477986 0.0025987197 -0.0432400026
0.0106516426 0.0014301479 -0.0432400030
0.0123146138 0.0017614620 -0.0432400032
-0.0071054522 0.0129917738 -0.0432399988
0.0002810824 0.0071420217 -0.0432400007
-0.0127356454 0.0154050770 -0.0432399976
0.0062102860 0.0019230327 -0.0432400023
0.0205288676 0.0049613995 -0.0575000003
0.0116727606 -0.0084555813 -0.0574999991
0.0197604648 0.0041003811 -0.0575000002
0.0251174135 0.0126089306 -0.0518860299
0.0141062312 -0.0233261981 -0.0574999973
0.0200760198 -0.0160690956 -0.0574999973
0.0076956485 -0.0271021391 -0.0574999973
0.0248800490 -0.0131156651 -0.0519700416
0.0254152068 0.0128915236 -0.0487988855
0.0012318674 -0.0054488325 -0.0432400001
-0.0082922797 -0.0004310863 -0.0432399986
0.0223022269 -0.0168939646 -0.0432400032
0.0098708774 -0.0093375938 -0.0432400013
-0.0173582022 0.0137291985 -0.0432399967
0.0046060943 -0.0009531896 -0.0432400001
-0.0227872049 0.0134209068 -0.0432399961
-0.0180397899 0.0119700511 -0.0432399967
0.0133182619 -0.0070536033 -0.0432400015
-0.0213580717 0.0093431396 -0.0432399965
-0.0158474137 0.0091323002 -0.0432399972
-0.0127240978 0.0054270358 -0.0432399977
-0.0209104132 0.0112996124 -0.0432399964
0.0021740927 -0.0225542607 -0.0574999978
0.0210369594 0.0096825516 -0.0575000006
0.0193607112 0.0112978980 -0.0575000005
0.0154899538 0.0036470560 -0.0574999999
0.0227683426 0.0165212138 -0.0521636575
0.0230617127 -0.0162166910 -0.0538284701
0.0217875926 0.0182298381 -0.0460047496
0.0212527031 -0.0188859130 -0.0443697382
0.0055354779 -0.0121506488 -0.0432400011
0.0139994419 -0.0135327222 -0.0432400021
-0.0020635158 -0.0050993899 -0.0432399997
0.0178148469 -0.0169224928 -0.0432400028
0.0196503263 0.0193424216 -0.0575000010
0.0082868817 -0.0055672116 -0.0574999990
0.0089704419 -0.0057596789 -0.0574999991
0.0141510227 0.0033236049 -0.0574999998
0.0205440071 -0.0180419184 -0.0509084399
0.0174803712 -0.0220588289 -0.0500411818
0.0198791854 0.0199633046 -0.0557427203
0.0185665292 0.0215042233 -0.0471178348
0.0188802433 -0.0193035109 -0.0548163021
0.0175485223 -0.0223511793 -0.0447501662
0.0078451174 -0.0151575974 -0.0432400016
0.0030092200 -0.0126195217 -0.0432400009
0.0134251247 -0.0222724737 -0.0432400029
0.0165254974 -0.0231030989 -0.0464764757
0.0172779006 0.0182866141 -0.0516911198
0.0164829508 0.0231940574 -0.0570894931
-0.0006656420 -0.0281491197 -0.0574999974
0.0112752077 0.0046517154 -0.0575000000
0.0130897458 0.0143692082 -0.0575000021
0.0163999577 0.0232516043 -0.0564570888
0.0172327802 -0.0223102685 -0.0516090117
0.0149170661 -0.0238196851 -0.0533604925
0.0141554426 0.0246239108 -0.0453569535
0.0149200960 -0.0163407348 -0.0521720327
0.0041133664 -0.0189004471 -0.0432400018
-0.0090697375 -0.0049827280 -0.0432399991
0.0080987091 -0.0202274830 -0.0432400023
-0.0066157935 -0.0089642265 -0.0432399998
0.0100169932 0.0170422411 -0.0575000036
0.0100476542 0.0217065449 -0.0575000041
0.0038807045 -0.0062154492 -0.0575000003
0.0086513265 0.0183224765 -0.0575000036
0.0133461271 0.0247911349 -0.0512944528
0.0100489562 -0.0266283047 -0.0566994715
0.0090005555 -0.0267463478 -0.0499999970
0.0107255227 0.0263124265 -0.0491129785
0.0006367778 -0.0210445978 -0.0432399991
-0.0021182260 -0.0181764938 -0.0432399986
0.0073945368 -0.0232479458 -0.0432400026
0.0069167852 -0.0275961385 -0.0489099201
0.0057730669 0.0113613286 -0.0575000027
0.0074459061 0.0208981451 -0.0575000039
0.0032422159 -0.0024146710 -0.0575000008
0.0074460862 0.0238225008 -0.0575000043
0.0090224707 0.0266652239 -0.0533920310
0.0058892056 -0.0274831829 -0.0550505160
0.0039603036 0.0281658580 -0.0437876001
0.0056700670 -0.0278881751 -0.0433930233
-0.0032732632 -0.0208964105 -0.0432399978
-0.0024571881 -0.0217510142 -0.0432399977
-0.0261856257 0.0091344871 -0.0432399959
-0.0181269791 -0.0020379047 -0.0432399969
-0.0199017657 0.0002369953 -0.0432399967
-0.0163232258 -0.0059024847 -0.0432399971
-0.0157063073 -0.0078905649 -0.0432399972
-0.0122189332 -0.0105017992 -0.0432399976
-0.0198657118 -0.0113084046 -0.0432399954
-0.0212011148 -0.0105001247 -0.0432399952
0.0001790541 -0.0245321789 -0.0432399989
-0.0089828252 -0.0191154194 -0.0432399979
-0.0232986245 -0.0140310241 -0.0432399961
-0.0085386212 -0.0224344539 -0.0432399977
-0.0104331389 -0.0234149574 -0.0432399971
-0.0054133074 -0.0263314649 -0.0432399992
0.0049244938 -0.0279915619 -0.0491026540
-0.0096647373 0.0171379524 -0.0575000033
-0.0118128398 0.0137662366 -0.0575000029
-0.0081841883 0.0002182339 -0.0575000011
-0.0072016433 0.0003893752 -0.0575000012
0.0003107906 0.0061762337 -0.0575000019
-0.0002751268 0.0053468734 -0.0575000018
-0.0181535392 -0.0071008162 -0.0575000002
-0.0172443804 -0.0013078713 -0.0575000010
-0.0046135372 0.0149615448 -0.0575000031
-0.0113004391 -0.0160544942 -0.0574999990
-0.0004926482 -0.0232873377 -0.0574999980
-0.0010934984 -0.0102396868 -0.0574999997
-0.0036824446 0.0178585168 -0.0575000035
-0.0087326965 0.0002739902 -0.0575000012
-0.0108402241 0.0106152555 -0.0575000025
-0.0145390506 -0.0075630111 -0.0575000001
-0.0012614934 0.0060826965 -0.0575000019
-0.0170795555 -0.0045451855 -0.0575000005
-0.0027736129 -0.0109663763 -0.0574999996
-0.0126965192 -0.0013950232 -0.0575000009
-0.0091613957 -0.0162059111 -0.0574999990
-0.0035319464 -0.0126047840 -0.0574999994
0.0003112048 -0.0121698117 -0.0574999995
-0.0008216444 -0.0139340864 -0.0574999992
-0.0233519706 -0.0002140149 -0.0575000011
-0.0081096804 -0.0016159384 -0.0575000009
-0.0030523606 0.0082273421 -0.0575000022
-0.0011915227 -0.0205255420 -0.0574999984
-0.0243728916 -0.0041737984 -0.0575000006
0.0041340272 0.0278672538 -0.0521100685
0.0023992514 -0.0283633872 -0.0570642868
-0.0000364405 0.0284144505 -0.0495079017
0.0005746747 -0.0284292878 -0.0439700928
0.0014993843 -0.0241057399 -0.0530022499
-0.0275727557 0.0029427940 -0.0575000011
-0.0059086238 0.0219736974 -0.0575000039
-0.0019800830 0.0277018938 -0.0575000046
-0.0039327331 0.0251020266 -0.0575000042
-0.0260969977 0.0019341539 -0.0575000013
0.0001957508 -0.0241450822 -0.0544475436
-0.0002876349 -0.0227413316 -0.0544229293
-0.0009965276 0.0272789044 -0.0505058379
-0.0209988842 -0.0090477457 -0.0574999999
-0.0118593451 -0.0202910623 -0.0574999984
-0.0019826717 0.0270000007 -0.0546888668
-0.0036104104 0.0281737847 -0.0467645195
-0.0026517771 0.0273048604 -0.0536240538
-0.0043457755 -0.0280905664 -0.0480666769
-0.0131917296 0.0196901908 -0.0575000032
-0.0190839891 0.0167042116 -0.0575000022
-0.0177546714 0.0202532330 -0.0575000019
-0.0048580924 0.0280473491 -0.0566241768
-0.0064209862 0.0273618147 -0.0526589802
-0.0066876890 -0.0273095874 -0.0534497707
-0.0166714506 -0.0162493281 -0.0574999989
-0.0104414353 0.0264937172 -0.0439467344
-0.0123162394 0.0250368990 -0.0575000041
-0.0089099940 -0.0269921827 -0.0486222947
-0.0108299893 0.0259348135 -0.0504554714
-0.0101991692 -0.0262490530 -0.0532281675
-0.0191800523 -0.0142284173 -0.0574999991
-0.0134233620 0.0250394610 -0.0433459338
-0.0136693572 -0.0249045632 -0.0443537839
-0.0141032586 0.0243225987 -0.0557478335
-0.0155131274 -0.0238634623 -0.0562904304
-0.0161105651 -0.0222325618 -0.0574999976
-0.0156629664 -0.0175239566 -0.0536869654
-0.0178304202 0.0221439962 -0.0467702791
-0.0158549630 -0.0151096065 -0.0538291643
-0.0169595131 -0.0173618353 -0.0515762272
-0.0166917050 -0.0230482801 -0.0446793425
-0.0175130848 -0.0154305151 -0.0531022908
-0.0187766103 0.0167776112 -0.0533228280
-0.0183499134 -0.0214100553 -0.0554515651
-0.0203971609 -0.0191388049 -0.0574999975
-0.0205620228 0.0195959110 -0.0459900552
-0.0206605641 -0.0195239557 -0.0472625310
-0.0204802051 -0.0193674308 -0.0502166555
-0.0221869059 -0.0013959114 -0.0533070663
-0.0255265490 -0.0103139164 -0.0574999986
-0.0223508738 0.0171580180 -0.0527415261
-0.0226879028 0.0171255040 -0.0464474310
-0.0237889730 -0.0011874104 -0.0521383738
-0.0239131142 -0.0153351833 -0.0469820235
-0.0232269927 0.0159788839 -0.0505463221
-0.0258906804 -0.0110628704 -0.0508335601
-0.0264903266 0.0104175141 -0.0473951779
-0.0259244645 0.0117451416 -0.0572074622
-0.0267228712 -0.0096837485 -0.0499175374
-0.0270859852 0.0078143470 -0.0500904574
-0.0265480320 -0.0092823841 -0.0540065897
-0.0267615501 0.0097421883 -0.0468117740
-0.0270670572 0.0025068844 -0.0540515332
-0.0275084498 0.0057681936 -0.0558867554
-0.0272421875 -0.0083218858 -0.0457420858
-0.0275726426 -0.0058580830 -0.0532555276
-0.0282999084 0.0024954488 -0.0451608019
-0.0283626989 0.0024798180 -0.0565670700
-0.0282568903 -0.0034251612 -0.0491065102
0.0283974530 -0.0016139953 -0.0305866084
0.0283495160 0.0017460000 -0.0396053440
0.0284748244 -0.0005252477 -0.0373049541
0.0282917920 0.0027923059 -0.0288957244
-0.0201039634 0.0188886561 -0.0252399950
-0.0075477947 0.0138715748 -0.0252399983
-0.0155450837 0.0170408124 -0.0252399962
0.0089857149 0.0081173051 -0.0252400025
-0.0216012737 0.0089853284 -0.0252399943
0.0187872265 -0.0024680236 -0.0252400039
0.0028846652 0.0030302097 -0.0252400004
0.0199963782 -0.0016120227 -0.0252400046
-0.0136784759 0.0098851825 -0.0252399971
0.0187007593 0.0011920660 -0.0252400052
0.0086138750 0.0032995068 -0.0252400025
-0.0009204722 0.0065223434 -0.0252400003
-0.0229135677 0.0146505426 -0.0252399951
0.0030865663 0.0065879238 -0.0252400015
-0.0043903187 0.0085326734 -0.0252399997
-0.0023930195 0.0084185786 -0.0252400001
0.0047681732 0.0108240979 -0.0252400011
0.0206377000 0.0031856379 -0.0252400056
-0.0061588270 0.0175201870 -0.0252399978
0.0163004586 0.0074439936 -0.0252400032
0.0161463923 0.0080884438 -0.0252400027
0.0234996883 0.0050632999 -0.0252400039
0.0279832850 -0.0053560164 -0.0348850383
0.0025576922 0.0185714078 -0.0432399996
0.0112259824 0.0131006957 -0.0432400021
0.0186748559 0.0063373398 -0.0432400042
0.0163572278 0.0064261026 -0.0432400036
0.0202053685 0.0023788444 -0.0432400047
0.0182188832 0.0032224315 -0.0432400042
0.0277099080 0.0062347574 -0.0380963650
0.0281104987 0.0044472554 -0.0281472544
0.0275516000 0.0069411638 -0.0313797181
0.0036593193 0.0167872425 -0.0252399988
0.0047613987 0.0163887265 -0.0252399991
0.0106627885 0.0128384489 -0.0252400003
0.0107497465 0.0162637772 -0.0432400022
0.0191022912 0.0102689082 -0.0432400045
0.0267828324 -0.0096668756 -0.0252786194
0.0171092140 -0.0052094529 -0.0252400035
-0.0022653537 0.0029236948 -0.0252399987
0.0032820676 -0.0001056712 -0.0252400001
0.0166898696 -0.0026992307 -0.0252400033
0.0092016522 -0.0003871294 -0.0252400015
0.0271161003 -0.0084882959 -0.0390904268
0.0084454403 0.0093323058 -0.0432400015
0.0168231015 0.0026597286 -0.0432400039
0.0069020872 0.0113659675 -0.0432400010
0.0271952596 0.0085206618 -0.0398049153
0.0271265871 0.0086897410 -0.0319416650
0.0258165048 0.0119152355 -0.0284839458
0.0253970135 0.0101035328 -0.0252400042
0.0156981527 0.0152663846 -0.0252400030
0.0000200661 0.0215714728 -0.0432399990
-0.0053645802 0.0243234143 -0.0432399975
0.0257072709 -0.0120768117 -0.0264246701
0.0255326015 -0.0124469421 -0.0295608187
0.0032696975 -0.0024140277 -0.0252400003
0.0248519188 -0.0095918111 -0.0252400055
-0.0146443402 0.0050194974 -0.0252399959
0.0233044325 -0.0097616183 -0.0252400052
0.0253885147 -0.0127522665 -0.0335187127
0.0239081374 -0.0107967977 -0.0432400044
0.0216546668 -0.0107182629 -0.0432400027
0.0080805601 0.0067872262 -0.0432400008
0.0251307800 -0.0127567952 -0.0432400044
0.0237280154 0.0156362762 -0.0386191921
0.0237777717 0.0155553352 -0.0308580191
0.0237797939 0.0142858972 -0.0252400057
0.0114911135 0.0190755732 -0.0252400025
0.0094742730 0.0183891733 -0.0252400017
0.0056860979 0.0216699122 -0.0432399996
-0.0087470800 0.0012666340 -0.0252399975
0.0047377000 -0.0068459121 -0.0252400011
-0.0193239854 0.0060409706 -0.0252399948
0.0142779433 -0.0109047788 -0.0252400035
0.0245637829 -0.0144200859 -0.0308879394
0.0235264908 -0.0159160693 -0.0322467582
0.0238990811 -0.0153787167 -0.0416715075
0.0007054501 0.0100166076 -0.0432399987
-0.0011731496 0.0136962689 -0.0432399981
-0.0096658824 0.0233035367 -0.0432399963
-0.0106419724 0.0250307880 -0.0432399960
0.0103361020 -0.0006634472 -0.0432400006
-0.0150915687 0.0240799303 -0.0432399958
0.0216986893 -0.0115546897 -0.0432400027
0.0197304096 -0.0101304661 -0.0432400024
0.0191361842 -0.0132365664 -0.0432400026
0.0122431787 -0.0077300837 -0.0432400015
-0.0030769318 0.0006707838 -0.0432399992
-0.0022825260 -0.0001284672 -0.0432399993
-0.0243231574 0.0145353188 -0.0432399959
-0.0145529926 0.0094026137 -0.0432399973
-0.0152772565 0.0104318631 -0.0432399971
-0.0140668312 0.0082344015 -0.0432399974
0.0177205823 -0.0088773051 -0.0432400021
-0.0022750850 0.0053762198 -0.0432399989
-0.0112998046 0.0132768930 -0.0432399973
-0.0162707478 0.0150125526 -0.0432399967
0.0213468947 0.0187358641 -0.0414409088
0.0213098181 0.0187784366 -0.0422214512
0.0217991224 0.0182166049 -0.0264400873
0.0198676570 0.0191361616 -0.0252400034
0.0065306626 0.0207917016 -0.0252400004
0.0144277050 0.0208922052 -0.0432400018
0.0073393085 -0.0130494146 -0.0252400014
-0.0056017955 -0.0033289597 -0.0252399983
-0.0116394064 0.0010596512 -0.0252399969
0.0023486816 -0.0093140187 -0.0252400002
0.0212287484 -0.0189105393 -0.0287266848
0.0212787747 -0.0188591148 -0.0311535459
0.0196465408 -0.0205369611 -0.0326637685
0.0020797722 -0.0087751619 -0.0432400003
-0.0052069229 -0.0073808797 -0.0432399993
-0.0090373643 -0.0038921791 -0.0432399987
0.0020178875 -0.0104377127 -0.0432400003
-0.0255215570 0.0085269233 -0.0432399960
-0.0241517443 0.0066972017 -0.0432399963
0.0010007758 -0.0060512629 -0.0432400001
-0.0127064549 0.0008777501 -0.0432399980
-0.0032360323 -0.0016532381 -0.0432399993
0.0120601201 -0.0119032926 -0.0432400017
0.0011627256 -0.0057274933 -0.0432400001
-0.0180147432 0.0054187984 -0.0432399971
-0.0135362589 -0.0132617880 -0.0432399978
0.0053091007 -0.0153428259 -0.0432400007
-0.0067541031 -0.0131063379 -0.0432399989
-0.0231057783 -0.0077706064 -0.0432399952
-0.0118615674 -0.0096970860 -0.0432399967
-0.0132968497 -0.0081913758 -0.0432399955
-0.0179896993 -0.0064551309 -0.0432399947
0.0105125467 -0.0138741847 -0.0432400015
-0.0274412797 -0.0019220831 -0.0432399941
-0.0001255536 -0.0115009320 -0.0432399987
0.0011718252 -0.0203615313 -0.0432399998
0.0126694693 -0.0187378983 -0.0432400016
-0.0221952483 -0.0176563312 -0.0432399959
0.0063857629 -0.0178084859 -0.0432400007
-0.0235759298 -0.0150404103 -0.0432399959
-0.0193761173 -0.0169528817 -0.0432399964
0.0028278422 -0.0166219579 -0.0432400002
0.0185748066 0.0214974088 -0.0357740690
0.0177114619 0.0222084313 -0.0310906218
0.0173357200 0.0225178801 -0.0286824427
0.0037604888 0.0226844590 -0.0252399989
-0.0026132444 0.0253311345 -0.0432399980
-0.0144711274 0.0004726522 -0.0252399961
0.0069374983 -0.0160026289 -0.0252400016
0.0109650963 -0.0176030061 -0.0252400024
-0.0106184112 -0.0028654553 -0.0252399971
0.0158874310 -0.0235720782 -0.0286013742
0.0151222193 -0.0241345062 -0.0358639194
0.0170272983 -0.0227342783 -0.0392086202
-0.0013757269 -0.0271643911 -0.0432400001
0.0059540177 -0.0235948640 -0.0432400017
0.0019897532 -0.0226099362 -0.0432399999
-0.0124957724 -0.0253787265 -0.0432399990
-0.0116209058 -0.0227296275 -0.0432399969
0.0128115782 0.0253997918 -0.0427352028
0.0157568807 0.0236993226 -0.0332070317
0.0139827788 0.0247236013 -0.0285217045
0.0128155805 0.0240364727 -0.0252400016
0.0079359601 0.0251737973 -0.0432400015
0.0059371340 -0.0198873981 -0.0252400002
0.0138281636 -0.0240800235 -0.0252400034
-0.0107445500 -0.0038375704 -0.0252399968
-0.0190981103 0.0036219577 -0.0252399949
0.0145851515 -0.0244515205 -0.0333448695
0.0116574928 -0.0259330882 -0.0316720400
0.0095181089 -0.0260961903 -0.0432400026
0.0088816149 0.0270028012 -0.0416469788
0.0095376911 0.0267571624 -0.0308089729
-0.0009246686 0.0259920978 -0.0252399992
0.0067124982 0.0262165818 -0.0432400011
-0.0050527690 -0.0120639036 -0.0252399974
0.0013291635 -0.0181076454 -0.0252399986
-0.0102016173 -0.0065787346 -0.0252399963
0.0085511477 -0.0270849494 -0.0317595805
0.0064368455 -0.0277462524 -0.0430424654
0.0072517171 -0.0274913799 -0.0330809302
0.0056080110 0.0278440054 -0.0405678712
0.0056932168 0.0278273636 -0.0283472148
0.0060034263 0.0274871002 -0.0252400019
0.0048034785 0.0280001449 -0.0432399996
-0.0203574321 0.0018602231 -0.0252399945
-0.0062031377 -0.0170325195 -0.0252399981
-0.0178319104 -0.0011364445 -0.0252399951
0.0060726995 -0.0278323420 -0.0293570047
0.0038822913 -0.0281360822 -0.0352859686
0.0033739072 -0.0282065786 -0.0402705310
0.0021078368 0.0283553437 -0.0379108939
-0.0000302859 0.0284142805 -0.0352934331
-0.0008875873 -0.0271816412 -0.0252400001
-0.0059750132 -0.0226533314 -0.0252399992
-0.0042909683 -0.0232095731 -0.0252399993
-0.0017443457 -0.0283653636 -0.0285046532
0.0008833945 -0.0284377972 -0.0317243378
-0.0005601092 -0.0283980071 -0.0352033316
-0.0017644724 0.0284297567 -0.0303530854
-0.0042626768 0.0280833363 -0.0297727491
-0.0263955717 0.0081730218 -0.0252399931
-0.0134510411 -0.0129362443 -0.0252399972
-0.0154963043 -0.0083355310 -0.0252399964
-0.0232217478 -0.0045297587 -0.0252399944
-0.0214719606 -0.0062320701 -0.0252399949
-0.0157554918 -0.0153957176 -0.0252399973
-0.0227744803 -0.0086428549 -0.0252399957
-0.0041622632 -0.0273521909 -0.0252400001
-0.0218438408 -0.0134926915 -0.0252399959
-0.0075130926 -0.0266861295 -0.0252399977
-0.0054793648 -0.0278691370 -0.0276245037
-0.0054540951 -0.0278740753 -0.0430365097
-0.0066207078 -0.0276461955 -0.0365159687
-0.0074094405 0.0274420523 -0.0319117328
-0.0082523061 0.0271784242 -0.0330749006
-0.0099853989 -0.0261468512 -0.0252399965
-0.0092364987 -0.0268699366 -0.0347131200
-0.0094531534 -0.0267888199 -0.0399181652
-0.0104650819 -0.0264099451 -0.0392300355
-0.0110354486 0.0262478859 -0.0383869936
-0.0124095950 0.0255524868 -0.0306195527
-0.0206104958 -0.0175771219 -0.0252399954
-0.0133825613 -0.0250701433 -0.0369426998
-0.0142922499 -0.0245449342 -0.0347666371
-0.0149902730 0.0242314960 -0.0331483003
-0.0177896988 0.0221739257 -0.0312443569
-0.0171429736 0.0226492668 -0.0272435779
-0.0188741569 -0.0212508844 -0.0260869067
-0.0182093303 -0.0217984159 -0.0412434262
-0.0198242103 -0.0204684535 -0.0270112659
-0.0198505589 0.0203272549 -0.0342658641
-0.0210084440 0.0191370122 -0.0281796357
-0.0205118455 -0.0196947158 -0.0333106646
-0.0209757295 -0.0191620667 -0.0320132898
-0.0229305512 -0.0169174677 -0.0284627300
-0.0227522252 0.0170327346 -0.0317022471
-0.0245296492 0.0144693316 -0.0345997758
-0.0244221324 0.0146243941 -0.0396081747
-0.0235391587 -0.0159435315 -0.0266484297
-0.0245632193 -0.0142775801 -0.0425075391
-0.0255620711 0.0123845202 -0.0337617708
-0.0259319135 0.0116008117 -0.0408036926
-0.0265234774 0.0103472610 -0.0371130779
-0.0265760847 -0.0100451363 -0.0301688567
-0.0260705972 -0.0112896779 -0.0384649544
-0.0271494503 -0.0086334860 -0.0412891715
-0.0277109754 0.0063846332 -0.0425360435
-0.0269680722 0.0090118261 -0.0252577723
-0.0277347525 -0.0061239548 -0.0296548186
-0.0273419660 -0.0078766404 -0.0277273245
-0.0281639268 -0.0042089015 -0.0338510212
-0.0281358767 0.0039774563 -0.0315897924
-0.0283765422 0.0018030218 -0.0263901769
-0.0283961628 -0.0009007492 -0.0294351874
-0.0283588377 -0.0015772942 -0.0336301480
-0.0284368934 -0.0001625327 -0.0396902965
0.0273509193 -0.0115695001 -0.0123374861
0.0351093628 -0.0165236750 -0.0106116459
0.0347553178 -0.0181020013 -0.0154959667
0.0280411085 -0.0136847563 -0.0119984878
0.0303848058 -0.0160806175 -0.0104926279
0.0250607827 -0.0133668668 -0.0087678281
0.0311106631 -0.0172597949 -0.0143871156
0.0279793717 -0.0169524177 -0.0158921657
0.0241319003 -0.0150786370 -0.0103159524
0.0295492884 -0.0185568802 -0.0140774782
0.0272902741 -0.0181280914 -0.0153379689
0.0329319606 -0.0212601467 -0.0108649364
0.0327554359 0.0170355058 -0.0149908780
0.0275808923 0.0234475722 -0.0096437712
0.0299340045 0.0206432423 -0.0104389914
0.0316217374 0.0186318835 -0.0066477450
0.0289735314 -0.0201540916 -0.0145647481
0.0300130780 -0.0215294023 -0.0114291870
0.0321970254 0.0159205530 -0.0149182791
0.0295487112 0.0137766559 -0.0160058616
0.0301182822 0.0204236277 -0.0151473992
0.0285594339 0.0222813909 -0.0134060033
0.0278687405 0.0137240988 -0.0182252118
0.0276766292 0.0163139803 -0.0036091371
0.0276858575 0.0233224783 -0.0184877564
0.0288530111 0.0219315190 -0.0173646869
0.0276032304 0.0187464063 -0.0035000126
0.0238107268 0.0232718105 -0.0035000112
0.0290915089 0.0192591671 -0.0195000116
0.0281136016 -0.0044891440 -0.0053798954
0.0283361825 -0.0019291296 -0.0168829526
0.0284397064 -0.0007294251 -0.0047542488
0.0282097209 0.0033522144 -0.0029353139
0.0282872208 0.0025489632 -0.0099996013
0.0281936459 0.0034455872 -0.0228045939
0.0283970785 0.0013630526 -0.0215473526
0.0275754490 0.0026921279 -0.0240000112
0.0132998677 0.0090311068 -0.0240000084
0.0256432283 0.0051321546 -0.0240000109
0.0181193603 0.0031822018 -0.0240000086
-0.0087282919 0.0169159799 -0.0240000037
-0.0022846253 0.0146297605 -0.0240000052
0.0136546560 0.0044628311 -0.0240000074
0.0277558364 -0.0060989926 -0.0211830833
0.0277907435 -0.0059993254 -0.0072990332
0.0279638208 -0.0052182872 -0.0045476885
-0.0023536915 0.0124863845 -0.0240000050
0.0209624957 -0.0026181501 -0.0240000099
0.0052903312 0.0076720449 -0.0240000065
0.0274657696 -0.0072782447 -0.0060445020
0.0270305114 0.0088400064 -0.0175657617
0.0273919433 0.0074973505 -0.0131940859
0.0275662360 0.0068296516 -0.0067080923
0.0264226749 0.0066608877 -0.0240000111
0.0137938592 0.0124218230 -0.0240000086
0.0011108906 0.0165554404 -0.0240000060
0.0269340369 0.0091974723 -0.0107657258
0.0276154371 -0.0028180589 -0.0028207691
0.0265932343 -0.0044443244 -0.0017262170
0.0263994952 -0.0106983685 -0.0194882281
0.0176698394 -0.0031145499 -0.0240000110
0.0218686220 -0.0058821300 -0.0240000120
0.0219687743 -0.0113804379 -0.0240000125
-0.0107377810 0.0166348391 -0.0240000039
0.0266589961 0.0115226515 -0.0055286494
0.0253336330 -0.0077717466 0.0000000014
0.0263497436 0.0107548690 -0.0232278578
0.0079710477 0.0167675829 -0.0240000085
0.0121438274 0.0161864771 -0.0240000097
0.0266408262 0.0100944761 -0.0019960350
0.0262529859 -0.0046346741 -0.0033005577
0.0257189906 -0.0031088146 -0.0060000113
0.0255216440 -0.0126448862 -0.0052257376
0.0250805024 -0.0134094773 -0.0006292611
0.0252259921 0.0010497694 0.0000000004
0.0252245048 0.0131048165 -0.0003582403
0.0126462075 -0.0120310680 -0.0060000085
0.0161660464 -0.0139498441 -0.0060000094
0.0183956103 -0.0087643201 -0.0060000100
0.0142709220 -0.0190083342 -0.0060000090
0.0142975481 -0.0090331231 -0.0060000089
0.0209886040 -0.0027672259 -0.0060000107
0.0184479406 -0.0018268872 -0.0060000104
-0.0057052821 0.0108986437 -0.0240000054
0.0019005353 0.0039495311 -0.0240000075
-0.0088305593 0.0114521144 -0.0240000049
0.0088410614 -0.0015310864 -0.0240000092
0.0003561985 -0.0000452425 -0.0240000077
-0.0165019609 0.0101436976 -0.0240000039
-0.0237151795 0.0146998906 -0.0240000022
-0.0194008402 0.0164135899 -0.0240000027
0.0175418061 -0.0090690896 -0.0240000115
0.0247294902 -0.0141642766 -0.0188540325
-0.0109226378 0.0057895297 -0.0240000052
0.0239429087 0.0153971736 -0.0221883566
0.0222098931 0.0173834621 -0.0240000104
0.0087373393 0.0193552495 -0.0240000073
0.0021878019 -0.0184085403 -0.0060000059
-0.0019922776 0.0086147646 -0.0060000053
0.0155538460 0.0076815641 -0.0060000090
-0.0021221280 -0.0122699346 -0.0060000049
0.0025955683 -0.0000042190 -0.0060000063
0.0028893508 0.0014636956 -0.0060000064
0.0057821643 0.0006021625 -0.0060000072
0.0007745626 -0.0089448670 -0.0060000057
-0.0021495305 -0.0028595727 -0.0060000050
0.0063370476 -0.0128421226 -0.0060000072
-0.0073999109 -0.0035310789 -0.0060000036
0.0113349924 -0.0071120694 -0.0060000086
0.0183824749 -0.0009996763 -0.0060000105
-0.0095604289 0.0076231722 -0.0060000032
0.0166329652 -0.0008866703 -0.0060000100
-0.0056666798 -0.0034145794 -0.0060000041
0.0016648345 0.0073067855 -0.0060000061
0.0125357333 0.0061333077 -0.0060000090
0.0155044089 0.0043851800 -0.0060000098
0.0021090759 -0.0085776725 -0.0060000061
-0.0007703660 -0.0025508081 -0.0240000069
0.0052484403 -0.0037716345 -0.0240000088
-0.0222558668 0.0084505728 -0.0240000017
-0.0131565645 0.0038125217 -0.0240000039
-0.0175744121 0.0061999347 -0.0240000029
-0.0187983604 -0.0080100044 -0.0240000018
-0.0206603390 -0.0088762154 -0.0240000022
0.0001102715 -0.0104938116 -0.0240000065
-0.0243408714 -0.0044999505 -0.0240000000
-0.0093600535 -0.0056332699 -0.0240000049
-0.0135724302 -0.0062848019 -0.0240000031
-0.0170751564 -0.0051653577 -0.0240000023
-0.0006925285 -0.0074224647 -0.0240000070
-0.0274087772 0.0035042106 -0.0240000004
0.0142544187 -0.0110097144 -0.0240000107
-0.0159943643 -0.0000366631 -0.0240000032
0.0145118782 -0.0108968599 -0.0240000108
-0.0140197882 -0.0000857237 -0.0240000037
-0.0146265729 0.0009230359 -0.0240000035
-0.0107645812 -0.0008286570 -0.0240000045
-0.0253062242 0.0077101388 -0.0240000007
0.0011680506 -0.0175014339 -0.0240000069
-0.0113605840 -0.0184673422 -0.0240000039
-0.0195612520 -0.0165266491 -0.0240000029
0.0096598678 -0.0150718414 -0.0240000098
-0.0044993371 -0.0155173549 -0.0240000065
-0.0235399690 -0.0119224015 -0.0240000026
0.0174553744 -0.0140268472 -0.0240000117
-0.0157068181 -0.0132696556 -0.0240000042
-0.0034657222 -0.0128875445 -0.0240000071
-0.0093295171 -0.0220956088 -0.0240000042
-0.0116654745 -0.0211378959 -0.0240000025
0.0170153307 -0.0188806579 -0.0240000120
0.0089507781 -0.0203751416 -0.0240000099
0.0231582117 -0.0164740715 -0.0224730764
0.0243785004 -0.0147200787 -0.0027860371
0.0231262995 0.0230083121 -0.0195000116
0.0210481442 0.0228777206 -0.0035000100
0.0223600938 0.0084352108 -0.0060000117
0.0224997549 -0.0150899102 0.0000000023
0.0185299076 0.0079256794 -0.0055000116
0.0229294946 -0.0002610941 -0.0012113712
0.0229075140 -0.0014688026 -0.0052386742
0.0228143515 0.0119689536 -0.0016366545
0.0217824051 -0.0183675832 -0.0224939724
0.0165789936 -0.0120668993 -0.0055000091
0.0167071599 -0.0128786593 -0.0055000090
0.0191829910 -0.0004599262 -0.0055000105
0.0223757938 -0.0126180682 -0.0045000110
0.0222812798 0.0292457716 -0.0164546231
0.0221580426 -0.0025975685 -0.0021686470
0.0213425952 -0.0173335159 -0.0148924520
0.0212053583 0.0189822893 -0.0234257348
0.0187752694 0.0188830273 -0.0240000090
-0.0136127755 0.0218376248 -0.0240000029
0.0211199593 -0.0178870376 -0.0089103574
0.0147060203 -0.0220585888 -0.0240000077
0.0204892806 -0.0196786539 -0.0212875933
0.0204592061 0.0282632763 -0.0116692121
0.0184799374 0.0266024721 -0.0096113238
0.0209194294 -0.0192656623 -0.0038276372
0.0209686003 -0.0192862065 -0.0102854603
0.0206831909 -0.0174901234 0.0000000026
0.0203508890 -0.0038257107 0.0000000010
0.0194916975 0.0153250715 -0.0000000013
0.0187686987 -0.0213795841 -0.0161593980
0.0195210397 -0.0206737526 -0.0091654736
0.0195979275 0.0124565946 -0.0001383243
0.0189140339 0.0214135262 -0.0018607507
0.0157796053 -0.0175713612 0.0000000026
0.0157090874 -0.0122556048 0.0000000020
0.0129868244 -0.0099992814 0.0000000017
0.0174465669 0.0011086310 0.0000000004
0.0176507026 -0.0025351155 0.0000000008
0.0111276138 -0.0058731984 0.0000000012
0.0133071430 0.0096773665 -0.0000000007
0.0149173491 0.0137262862 -0.0000000011
0.0126570480 0.0201348919 -0.0000000019
0.0163731315 0.0152542446 -0.0000000013
0.0161724543 0.0233985655 -0.0222353465
0.0111350119 0.0229163755 -0.0240000084
0.0150727323 0.0238476702 -0.0000000023
0.0158534755 -0.0226959265 -0.0240000075
0.0166021639 -0.0230355668 -0.0162392487
0.0151186974 -0.0240573707 -0.0228761534
0.0160215887 -0.0234400386 -0.0008607635
0.0159489297 -0.0234874247 -0.0033493583
-0.0104407109 0.0153827057 -0.0060000032
-0.0051171451 0.0151699734 -0.0060000043
-0.0026935433 0.0158296317 -0.0060000048
-0.0084216640 0.0184264123 -0.0060000036
-0.0073251159 0.0132474961 -0.0060000038
-0.0126672118 0.0111628137 -0.0060000027
0.0153588010 0.0194349532 -0.0060000103
0.0162906522 0.0120084537 -0.0060000093
0.0162849568 0.0119865971 -0.0055282540
-0.0045815224 0.0244451284 -0.0060000054
0.0094814235 0.0121583154 -0.0060000074
-0.0003667703 0.0179045445 -0.0060000052
0.0110206293 0.0121039971 -0.0060000076
0.0158386524 -0.0212096373 -0.0060000091
0.0147691805 -0.0218772130 -0.0060000089
0.0053785445 0.0241732000 -0.0060000071
0.0131986788 0.0151652807 -0.0060000085
0.0067108657 -0.0205359704 -0.0060000070
-0.0085855733 0.0069323730 -0.0055000057
0.0039361805 0.0117735945 -0.0055000075
0.0071093896 0.0132847115 -0.0055000080
-0.0027306480 0.0072018923 -0.0055000063
0.0036602188 0.0070352826 -0.0055000068
-0.0046785829 0.0061151676 -0.0055000059
0.0147906725 0.0112344283 -0.0055000084
0.0064289837 -0.0080579981 -0.0055000084
0.0071608362 -0.0046574171 -0.0055000064
-0.0037690726 -0.0082492944 -0.0055000059
-0.0069152849 -0.0086096873 -0.0055000055
-0.0148955047 -0.0071579395 -0.0055000044
0.0038093400 -0.0005062511 -0.0055000069
-0.0164066050 -0.0125561477 -0.0055000042
0.0061400799 0.0055074982 -0.0055000071
0.0055480776 0.0014622065 -0.0055000071
-0.0030355861 0.0006315810 -0.0055000059
-0.0220210784 -0.0029919035 -0.0055000034
-0.0129131303 -0.0093823400 -0.0055000047
-0.0166681992 -0.0061262088 -0.0055000041
0.0056804885 0.0007838595 -0.0055000071
-0.0091203785 -0.0165044871 -0.0055000049
-0.0069518449 -0.0162656280 -0.0055000049
0.0064869849 -0.0044400556 -0.0055000064
0.0077954835 0.0011606782 -0.0055000072
-0.0013306477 -0.0084970084 -0.0055000059
0.0140666166 -0.0104549681 -0.0055000084
0.0127321299 0.0001839887 -0.0055000084
0.0131850355 0.0026491294 -0.0055000084
0.0143068666 -0.0016902040 -0.0055000084
0.0078421951 -0.0147156547 -0.0055000084
0.0116183664 -0.0052982558 -0.0055000084
0.0148546621 0.0244972338 -0.0109786329
0.0142664763 0.0246721555 -0.0042731250
0.0137077086 0.0249351375 -0.0176719586
0.0052885206 0.0256584322 -0.0240000056
0.0110342412 0.0261839055 -0.0063096640
0.0116379832 0.0259028170 -0.0050836681
0.0136862776 0.0249508466 -0.0135267962
0.0123679673 -0.0255671405 -0.0237424797
0.0126781394 -0.0254093908 -0.0087994644
0.0112568836 -0.0260696478 -0.0074446078
0.0106608301 -0.0263535353 -0.0017653528
0.0119898362 -0.0235083768 0.0000000033
0.0123683633 -0.0185550720 -0.0016392349
0.0106529053 -0.0195508409 -0.0055000084
0.0048631086 -0.0197399510 -0.0055000084
0.0116342350 -0.0198221469 -0.0021324575
0.0101942833 -0.0265702276 -0.0025890177
0.0102747734 -0.0165331370 0.0000000025
0.0075890659 -0.0131120835 0.0000000021
0.0099651331 -0.0008183184 0.0000000006
0.0085770491 0.0130328523 -0.0000000010
0.0061447120 0.0109312906 -0.0000000008
-0.0071113827 0.0094654692 -0.0055000062
0.0070619313 0.0275012899 -0.0132581066
0.0062847271 0.0277102121 -0.0072529720
0.0082224556 0.0271884871 -0.0074448492
0.0011837031 0.0265113410 -0.0240000061
0.0073865413 0.0187431531 -0.0000000017
0.0055475836 -0.0279125010 -0.0072210069
0.0072963735 -0.0274433216 -0.0062866111
0.0081401602 -0.0272286025 -0.0190713618
0.0070431824 -0.0275042851 -0.0016796611
0.0012894087 0.0165291628 -0.0055000082
0.0087451159 0.0017591932 -0.0030476017
-0.0033926722 0.0039322377 -0.0035000043
0.0029778168 -0.0008599729 -0.0035000068
-0.0045725142 0.0143127858 -0.0055000051
0.0034549217 0.0208467013 -0.0055000057
0.0082236118 0.0232632495 -0.0055433882
0.0062511851 0.0049571980 -0.0035000069
0.0078700542 0.0218978593 -0.0020449271
-0.0023475667 0.0009759666 -0.0035000057
0.0056307370 -0.0048707417 -0.0035000076
0.0060914632 -0.0216911539 -0.0004990961
0.0064049128 -0.0256252906 -0.0042858204
-0.0109409247 0.0109698860 -0.0055000045
0.0050484272 -0.0204852630 0.0000000029
0.0059718758 -0.0089928815 0.0000000016
0.0059852083 0.0232231875 -0.0000000023
0.0051456528 0.0280214717 -0.0195107020
-0.0010232232 -0.0062561964 -0.0035000058
-0.0040364035 -0.0009111000 -0.0035000040
0.0049286974 0.0079416102 -0.0000619566
0.0046410589 0.0280909857 -0.0080402471
0.0043065207 0.0281175577 -0.0158440915
-0.0021185195 0.0276553662 -0.0240000069
0.0044600380 -0.0251249550 0.0000000035
0.0023937975 -0.0283818777 -0.0210958611
0.0036752568 0.0077067878 -0.0035000073
0.0038701441 -0.0287517622 -0.0122058931
0.0033492004 -0.0299552737 -0.0147718242
0.0028782330 -0.0326262686 -0.0087212393
0.0023221101 -0.0354810873 -0.0071799450
0.0000243385 0.0225488118 -0.0055000058
0.0017809044 -0.0282803530 0.0000000039
0.0015272098 -0.0196767200 0.0000000028
-0.0030931726 -0.0192097536 0.0000000028
-0.0045623896 -0.0170354477 0.0000000025
0.0011513621 -0.0113208205 0.0000000018
-0.0093583135 -0.0132820072 0.0000000021
0.0002667982 0.0154710358 -0.0000000013
-0.0031082553 0.0127896953 -0.0000000010
-0.0008149562 0.0177325245 -0.0000000016
-0.0068799635 0.0218384377 -0.0000000021
-0.0095665030 0.0117625960 -0.0000000009
-0.0065995276 0.0134958474 -0.0000000011
0.0007650480 0.0284346519 -0.0030048678
0.0015010291 -0.0285744648 -0.0027492012
-0.0019401881 0.0075214367 -0.0035000063
0.0015592331 -0.0240517170 -0.0009454953
0.0002923179 -0.0284908723 -0.0229637320
-0.0121827808 -0.0346102911 -0.0148296907
-0.0001036471 -0.0367401663 -0.0127247511
-0.0018417289 -0.0364336976 -0.0088421661
-0.0086939601 -0.0352254642 -0.0093109006
-0.0111880047 -0.0347856981 -0.0178772024
-0.0002455940 -0.0088988342 -0.0031987756
-0.0042338105 -0.0111225440 -0.0060000045
-0.0067757434 -0.0355636965 -0.0063553235
-0.0027102054 0.0282613812 -0.0158781193
-0.0047066445 0.0280884689 -0.0007519750
-0.0001175214 0.0284779216 -0.0210584425
-0.0024173618 0.0282882066 -0.0005377511
-0.0018454683 -0.0188537091 -0.0060000053
-0.0160022371 -0.0131879745 -0.0060000036
-0.0157931690 -0.0148942369 -0.0060000034
-0.0175744485 -0.0066349601 -0.0060000019
-0.0220135175 -0.0025882085 -0.0060000011
-0.0149151825 -0.0111785176 -0.0060000019
-0.0234186101 0.0014978872 -0.0060000007
-0.0178596640 0.0057013388 -0.0060000015
-0.0220719568 -0.0004802807 -0.0060000010
-0.0124299558 -0.0068473663 -0.0060000030
-0.0196146534 0.0006265973 -0.0060000014
-0.0167540068 0.0051070835 -0.0060000018
-0.0022970065 0.0247868303 -0.0057775131
-0.0075835712 0.0199352441 -0.0055000054
-0.0080941763 0.0186712713 -0.0055000053
-0.0067713420 -0.0268509809 -0.0240000055
-0.0042689211 0.0229372874 -0.0000000022
-0.0034059418 -0.0309638873 -0.0035000066
-0.0010350908 -0.0232505284 -0.0035839990
-0.0021540765 0.0262231483 -0.0000000026
-0.0015357523 0.0249787309 -0.0027361606
-0.0072611292 -0.0256079540 0.0000000035
-0.0073858837 -0.0336731339 -0.0035000041
-0.0074125831 -0.0328555123 -0.0195000056
-0.0074602593 -0.0350270989 -0.0037158883
-0.0062872202 -0.0356498372 -0.0047684482
-0.0055899393 -0.0204517176 -0.0060000048
-0.0063379231 -0.0219324797 -0.0055000043
-0.0041091198 -0.0288747341 -0.0200192770
-0.0051369682 -0.0304688326 -0.0035000063
-0.0083514250 0.0271654321 -0.0223464279
-0.0062798101 0.0277018510 -0.0209183379
-0.0051477290 0.0280056272 -0.0104615603
-0.0048789300 0.0280708824 -0.0191647001
-0.0095113519 -0.0268452874 -0.0238306102
-0.0065074921 -0.0282344330 -0.0027533859
-0.0089965154 -0.0313594669 -0.0035000043
-0.0089116320 -0.0055617971 0.0000000012
-0.0088991532 0.0044067172 -0.0000000000
-0.0088357452 0.0012910249 -0.0014164175
-0.0094557541 -0.0278822185 -0.0198448184
-0.0096234618 0.0268162894 -0.0222419221
-0.0118311299 0.0258116684 -0.0237398874
-0.0098113928 -0.0295111468 -0.0194939865
-0.0107287289 0.0204287669 -0.0055000055
-0.0113261672 -0.0201301290 0.0000000029
-0.0143177193 -0.0114897558 0.0000000019
-0.0108494542 0.0013820231 0.0000000003
-0.0149663001 0.0070740330 -0.0000000003
-0.0151026757 0.0034715810 0.0000000001
-0.0123681424 0.0161484677 -0.0000000014
-0.0123112294 0.0255949605 -0.0081579543
-0.0113315993 -0.0289542075 -0.0191141436
-0.0117227437 0.0201174675 -0.0016381976
-0.0138027447 0.0249105762 -0.0180482614
-0.0124617485 -0.0225402197 -0.0024196029
-0.0123759554 -0.0256634659 -0.0024981170
-0.0126741255 0.0230677796 -0.0037088006
-0.0135792359 -0.0313842001 -0.0055225379
-0.0160011505 -0.0201582171 -0.0060000023
-0.0137534015 0.0215678920 -0.0000000021
-0.0135914674 -0.0281314819 -0.0117160995
-0.0137528161 -0.0290465343 -0.0126676410
-0.0136645850 -0.0252749813 -0.0080536982
-0.0142056276 -0.0247070543 -0.0214257683
-0.0153673273 0.0238908501 -0.0197838097
-0.0169505774 0.0228093245 -0.0187121345
-0.0171241375 -0.0226729646 -0.0236621367
-0.0173692415 -0.0224992435 -0.0031368831
-0.0161616472 -0.0233477205 -0.0116413895
-0.0163473660 -0.0232183998 -0.0157451305
-0.0159245309 0.0158550296 -0.0060000024
-0.0206622499 -0.0087424659 -0.0055000033
-0.0173955290 -0.0166485549 0.0000000025
-0.0165226505 -0.0105352457 0.0000000017
-0.0161039751 -0.0051214264 0.0000000011
-0.0161442121 -0.0073836964 0.0000000014
-0.0192950639 0.0089639534 -0.0000000006
-0.0206633744 -0.0036817423 0.0000000009
-0.0187852194 0.0186881766 -0.0000000017
-0.0177741520 0.0222374790 -0.0162903172
-0.0165183190 -0.0187421366 -0.0034954751
-0.0179288171 0.0074402364 -0.0055000041
-0.0227450638 0.0028408446 -0.0060000008
-0.0190065368 0.0211183680 -0.0187250082
-0.0190971941 0.0210290776 -0.0178034533
-0.0184398674 0.0216992591 -0.0065804548
-0.0199474838 -0.0202066107 -0.0234717866
-0.0183306568 -0.0218133246 -0.0167609426
-0.0209950030 -0.0191620521 -0.0106641723
-0.0215230742 0.0069212402 -0.0060000012
-0.0196333977 -0.0119675233 -0.0005587294
-0.0198487613 0.0113602487 -0.0037073851
-0.0209247047 0.0138411905 -0.0022804545
-0.0241307457 -0.0099499359 0.0000000017
-0.0246825986 -0.0078981516 0.0000000014
-0.0213015836 0.0070001333 -0.0000000003
-0.0239471356 0.0014310940 -0.0055000028
-0.0216220998 0.0185444095 -0.0078675854
-0.0225107298 0.0173297986 -0.0149570362
-0.0224414670 0.0174250367 -0.0166945586
-0.0222632062 -0.0176938690 -0.0219416791
-0.0221337613 -0.0178720713 -0.0137451991
-0.0236739256 -0.0156958659 -0.0071790154
-0.0220969118 -0.0019639387 -0.0008424207
-0.0229644381 -0.0041726653 -0.0033410676
-0.0242879553 0.0112469722 -0.0000000008
-0.0242903538 0.0148331797 -0.0093975203
-0.0242760208 -0.0001346014 -0.0041037282
-0.0247850635 0.0054813550 -0.0000000002
-0.0263043703 -0.0107771853 -0.0118822070
-0.0257336650 -0.0119991825 -0.0231690518
-0.0250371513 -0.0134675778 -0.0153045225
-0.0247775494 -0.0140381106 -0.0048414613
-0.0248602168 0.0139248458 -0.0164559873
-0.0255064266 0.0124965084 -0.0156012795
-0.0257376262 0.0119935213 -0.0218045667
-0.0263708040 0.0050427175 -0.0000000001
-0.0260140694 0.0113635087 -0.0079274869
-0.0259199472 -0.0048012233 -0.0003861056
-0.0268718130 -0.0093656629 -0.0151201813
-0.0270860861 -0.0085811312 -0.0211928049
-0.0276453884 -0.0065539124 -0.0150279080
-0.0273774801 -0.0034846804 -0.0009362536
-0.0279359538 0.0054393376 -0.0002366661
-0.0278506667 0.0057687729 -0.0067912598
-0.0279995122 0.0051976043 -0.0036360667
-0.0277969839 -0.0059998624 -0.0129956512
-0.0280121749 -0.0051810411 -0.0082562904
-0.0281831447 -0.0036025379 -0.0172460181
-0.0284487054 -0.0007637402 -0.0151741614
-0.0284308594 -0.0009791651 -0.0161528482
-0.0284451585 0.0006542065 -0.0020275376
-0.0284327528 0.0007761111 -0.0005535733
-0.0284887042 -0.0000534847 -0.0152000432
-0.0284158189 0.0008403211 -0.0200426394
