0.0004719645 0.0870996952 0.0409213955
-0.0030838296 0.1019999981 0.0400282760
-0.0015474391 0.1019999981 0.0338671518
0.0050857889 0.1019999981 0.0354577238
-0.0058600018 0.1009090342 0.0403404352
0.0085044409 0.0904072764 0.0398991754
-0.0082456106 0.0903836503 0.0399370263
0.0094435347 0.0950660642 0.0393740399
0.0044706963 0.0950658644 0.0404310471
-0.0038401956 0.0932818086 0.0404770412
-0.0079896923 0.0931827145 0.0396830629
0.0073929611 0.1019999981 0.0349829616
0.0113513035 0.1013956104 0.0391510289
0.0096296861 0.0860617027 0.0397244195
0.0130138465 0.0813451441 0.0381516971
-0.0116716017 0.1019999981 0.0332368815
-0.0070761379 0.1019999981 0.0306132861
-0.0037222410 0.0789654503 0.0390532783
0.0020750563 0.0779083847 0.0384389009
-0.0169142748 0.0878645719 0.0371329665
0.0148581799 0.0964809430 0.0376923522
-0.0179008179 0.0979334675 0.0363376801
-0.0192763581 0.0923428621 0.0357252490
0.0109687570 0.0782015617 0.0368674076
-0.0189957496 0.0819997702 0.0356965778
0.0168766726 0.1019999981 0.0273073745
0.0163959900 0.1019999981 0.0336316897
-0.0155373219 0.0809196487 0.0370456955
-0.0118626034 0.0768291881 0.0350769154
0.0177844749 0.0786766992 0.0344087877
-0.0195915468 0.1019999981 0.0310054942
-0.0218396714 0.1015006562 0.0344236880
0.0222961843 0.0888736707 0.0342383497
-0.0268720345 0.0907364309 0.0308832612
-0.0082835176 0.0756500623 0.0345887128
-0.0144652014 0.0769515263 0.0342716690
0.0212417612 0.0917454978 0.0345993312
-0.0268037467 0.0970104128 0.0305583095
0.0181898457 0.0776479453 0.0331970961
0.0220252754 0.1019999981 0.0279321489
0.0236712874 0.1019999981 0.0323931541
0.0246146232 0.0990527434 0.0325979131
0.0231750318 0.0786143638 0.0308781690
-0.0072069387 0.0744421480 0.0325148223
0.0019242399 0.0735063594 0.0311752801
-0.0059861947 0.0728026440 0.0283366548
-0.0251357719 0.1019999981 0.0296997685
-0.0160847852 0.0735226804 0.0261947177
0.0114044997 0.0731420422 0.0273789730
-0.0001424751 0.0980811838 0.0307739768
0.0055163388 0.0973113203 0.0303353189
-0.0059452610 0.0973709993 0.0302295991
-0.0027617041 0.0954442481 0.0307739768
0.0009827481 0.0920000002 0.0291304323
0.0012705487 0.0920000002 0.0290574536
0.0060758758 0.0920000002 0.0297421942
0.0082225009 0.0920000002 0.0271511600
-0.0039092327 0.0920000002 0.0193761440
-0.0043582253 0.0920000002 0.0147668216
-0.0067972676 0.0960435602 0.0300195980
0.0283897679 0.0910000578 0.0291550564
-0.0314846734 0.0892567639 0.0260395034
0.0223066211 0.0758006703 0.0275105601
0.0283419841 0.0944369524 0.0290150245
-0.0298716531 0.0956840112 0.0273161566
0.0288367602 0.0847374385 0.0289642874
0.0174139602 0.0990890313 0.0256153888
-0.0127574243 0.0979501810 0.0280593296
0.0163340245 0.0920000002 0.0259843745
0.0090108224 0.0920000002 0.0146915991
-0.0063768418 0.0920000002 0.0097158505
-0.0157599914 0.0920000002 0.0262050386
-0.0154379025 0.0960456968 0.0266525049
-0.0247075668 0.0750581394 0.0239511383
0.0201689919 0.0746293393 0.0265123721
0.0279175623 0.1019999981 0.0152144731
0.0345906402 0.1008518648 0.0218260498
-0.0057280998 0.0720137176 0.0255544910
-0.0077640864 0.0694161233 0.0161171222
-0.0118945328 0.0729542218 0.0267256459
0.0036931993 0.0712604926 0.0233742501
0.0067755546 0.0699196252 0.0178790027
-0.0314513023 0.0797038505 0.0240344273
-0.0133774711 0.0723103399 0.0241252813
0.0109464415 0.0702098150 0.0179747532
0.0151566577 0.0718829800 0.0215206445
0.0328782871 0.0815137504 0.0232778327
0.0193957109 0.0979538497 0.0239305014
-0.0197392639 0.1017165806 0.0236261391
-0.0213135229 0.1019999981 0.0243724538
0.0074230464 0.0920000002 0.0069292676
0.0184147618 0.0920000002 0.0245381646
-0.0100319490 0.0920000002 0.0123671476
-0.0176671570 0.0920000002 0.0225702381
-0.0201590403 0.0963777148 0.0232542499
-0.0290078992 0.1019999981 0.0201389463
-0.0346484029 0.1011947569 0.0214760608
-0.0328017355 0.0869656813 0.0245924014
0.0350285262 0.0795846769 0.0183496090
-0.0368999309 0.0902701423 0.0176636190
-0.0333046403 0.0849632403 0.0238280045
0.0344566538 0.0939845521 0.0212734097
-0.0342558664 0.0915288858 0.0216211816
-0.0190144104 0.0707980974 0.0167681250
0.0165940524 0.0713036513 0.0191042922
0.0200231518 0.0718280095 0.0187238768
-0.0336863471 0.0760783280 0.0147335780
0.0321102078 0.1019999981 0.0135429139
0.0336744448 0.1019999981 0.0160264755
0.0359261708 0.0842162283 0.0194474513
0.0274392886 0.1019488019 0.0144206856
-0.0235213391 0.0985226634 0.0200968121
-0.0300639505 0.1019999981 0.0183284483
0.0210891997 0.0920000002 0.0156631576
0.0240851833 0.0920000002 0.0161737792
-0.0130972298 0.0920000002 0.0113669343
-0.0167783387 0.0920000002 0.0129009007
-0.0262334430 0.0930567708 0.0161676499
-0.0219128641 0.0692632894 0.0107704371
0.0193921856 0.0703557683 0.0147305975
-0.0007729850 0.0697587138 0.0180131508
-0.0305264374 0.0732127020 0.0127967372
-0.0372660397 0.0802933593 0.0141645869
-0.0370893528 0.0990842873 0.0173052977
0.0218161880 0.0686141006 0.0090771302
0.0371151071 0.0779351120 0.0108303568
-0.0396527982 0.0862944680 0.0102171960
-0.0357561235 0.0764987294 0.0109969677
0.0397080143 0.0969877941 0.0087777503
-0.0386081287 0.0957172169 0.0121628557
-0.0076254393 0.0322440128 0.0164610241
-0.0019002268 0.0308358622 0.0164610241
-0.0014056281 0.0396308617 0.0164610241
0.0061577929 0.0317362341 0.0164610241
0.0096219902 0.0363849103 0.0164610241
-0.0126278813 0.0347329363 0.0164610241
-0.0117471104 0.0306185021 0.0164610241
0.0144014757 0.0322446692 0.0164610241
0.0185197932 0.0341381568 0.0164610241
-0.0204559330 0.0298909918 0.0164610241
-0.0156159525 0.0286475068 0.0164610241
0.0218947707 0.0324054005 0.0164610241
0.0241534552 0.0314660094 0.0164610241
-0.0293212199 0.0237498531 0.0164610241
-0.0320037737 0.0245209938 0.0164610241
-0.0321033467 0.0129824778 0.0164610241
-0.0271230656 0.0176079768 0.0164610241
-0.0255305483 0.0223217568 0.0164610241
-0.0026909732 0.0306732520 0.0099036600
-0.0039881878 0.0305157414 0.0151875508
0.0102903732 0.0290101450 0.0127708559
0.0046891138 0.0304306336 0.0081340957
-0.0087080130 0.0296102526 0.0157925136
0.0258369990 0.0255679605 0.0164610241
0.0292055334 0.0279885048 0.0136593932
0.0112751887 0.0286366547 0.0111847337
-0.0174777812 0.0253291249 0.0096606434
-0.0360960431 0.0164674228 0.0164610241
0.0212891468 0.0223771802 0.0150950970
0.0181929454 0.0248354822 0.0067826731
-0.0230044076 0.0204410522 0.0092536972
-0.0238433782 0.0194940509 0.0128238670
0.0359605669 0.0181819052 0.0154984909
0.0258527678 0.0169616843 0.0130122503
0.0238194398 0.0195210746 0.0117726828
0.0349183892 0.0126010009 0.0164610241
-0.0284025832 0.0121034196 0.0098282414
0.0382067740 0.0101973757 0.0164610241
0.0296880743 0.0081423251 0.0105168551
0.0258543445 0.0169586802 0.0070745147
0.0310305906 0.0058512126 0.0164610241
-0.0295436900 0.0087281066 0.0136420106
-0.0330080031 0.0053039515 0.0164610241
0.0396922670 0.0001313544 0.0164610241
0.0307739750 -0.0002373792 0.0127964362
0.0302184992 0.0059902994 0.0117302629
0.0367227273 -0.0032263976 0.0164610241
-0.0307739750 -0.0018959107 0.0150930648
-0.0332782955 -0.0006909200 0.0164610241
-0.0302490430 -0.0079202410 0.0164610241
-0.0374261621 -0.0090307980 0.0164610241
-0.0396592423 -0.0072310866 0.0143792077
0.0307739750 0.0015839751 0.0085433553
0.0371460919 -0.0119205758 0.0164610241
0.0366901142 -0.0071030942 0.0164610241
-0.0299612365 -0.0070340501 0.0142369558
-0.0362616600 -0.0167931489 0.0164610241
-0.0367790219 -0.0166990797 0.0134965840
0.0275062151 -0.0138113088 0.0118843929
0.0281673288 -0.0132346910 0.0164610241
0.0368098511 -0.0146989536 0.0164610241
-0.0278757533 -0.0131072069 0.0153496831
0.0384184324 -0.0128081159 0.0146491462
0.0279729548 -0.0129220122 0.0064543982
0.0246652013 -0.0191574304 0.0164610241
0.0306057128 -0.0196033851 0.0164610241
-0.0236945843 -0.0196620044 0.0141984148
-0.0334063880 -0.0213582022 0.0164610241
-0.0255880062 -0.0223887149 0.0164610241
0.0351997292 -0.0198412353 0.0153143608
0.0218834033 -0.0217064044 0.0112971612
0.0209148607 -0.0312722531 0.0164610241
-0.0162722005 -0.0261612789 0.0063457221
-0.0148355165 -0.0271529522 0.0141519863
-0.0237293272 -0.0269225401 0.0164610241
-0.0302274413 -0.0266901596 0.0148627711
0.0094172105 -0.0293412911 0.0137646727
0.0114487358 -0.0302501104 0.0164610241
0.0118328347 -0.0353917100 0.0164610241
0.0208345873 -0.0319549522 0.0164610241
-0.0076139884 -0.0300251603 0.0104528543
-0.0197685700 -0.0299797653 0.0164610241
-0.0125516099 -0.0291839470 0.0164610241
0.0043254317 -0.0304747927 0.0124141141
-0.0009269996 -0.0388218295 0.0164610241
0.0056260437 -0.0369084618 0.0164610241
-0.0059068210 -0.0302827768 0.0137648280
-0.0095745497 -0.0347671522 0.0164610241
-0.0075436223 -0.0333436784 0.0164610241
0.0010445566 -0.0308731634 0.0101243007
-0.0211033438 -0.0343109162 0.0145398506
-0.0170512643 -0.0365939183 0.0148635832
-0.0099077411 -0.0392306963 0.0153490642
0.0010426740 -0.0402853924 0.0140499416
-0.0064147735 0.0684530329 0.0135453060
0.0018452369 0.0670547038 0.0097676110
0.0246189772 0.0692423479 0.0087335877
-0.0262869248 0.0695792956 0.0083171822
0.0284543724 0.0976898942 0.0117558320
0.0295349447 0.1007555369 0.0089065979
-0.0280534782 0.0956443787 0.0128128932
-0.0355325559 0.1019999981 0.0077821353
0.0155905205 0.0920000002 0.0072770500
0.0269530891 0.0920000002 0.0103278362
-0.0166937095 0.0920000002 0.0074613305
-0.0220327159 0.0920000002 0.0065780434
-0.0212721908 0.0920000002 0.0081837528
-0.0122330023 0.0664099585 0.0074010557
0.0122938019 0.0674258732 0.0097366813
-0.0388537955 0.0843602471 0.0126954151
0.0002219059 0.0399643406 0.0119460145
0.0071567072 0.0393457445 0.0120478113
-0.0090458044 0.0389299247 0.0069017059
0.0051193872 0.0397941907 0.0069678736
-0.0196516138 0.0349423763 0.0074434967
0.0184717274 0.0354882511 0.0071688081
0.0244327865 0.0316272718 0.0121058281
-0.0256948563 0.0306678712 0.0083587604
0.0277303629 0.0290851358 0.0067523338
-0.0295151954 0.0269838655 0.0130675351
0.0329612679 0.0229268426 0.0097724261
-0.0369299947 0.0156620780 0.0076110125
-0.0333499493 0.0224147661 0.0103572963
0.0387155985 0.0099426222 0.0131878660
-0.0374928279 0.0143466355 0.0100464412
0.0388557386 0.0094378838 0.0090297723
-0.0399858844 0.0006853430 0.0108246903
0.0399981115 -0.0031304598 0.0134710101
0.0398919415 -0.0036958507 0.0113917764
-0.0393836088 -0.0067965308 0.0078844904
0.0388125263 -0.0102799888 0.0087790865
-0.0362854901 -0.0169017242 0.0120493417
0.0376464019 -0.0134860903 0.0065874852
0.0342831674 -0.0206500649 0.0101303036
-0.0325897591 -0.0231476519 0.0072334855
0.0284446720 -0.0281034305 0.0130425752
-0.0248921064 -0.0314685987 0.0071168183
0.0290521343 -0.0275280117 0.0070494548
-0.0190409923 -0.0351840311 0.0102391687
-0.0204543935 -0.0343336171 0.0087874086
0.0125673634 -0.0379374712 0.0116525683
-0.0155298237 -0.0369393036 0.0122256877
0.0112632565 -0.0383768749 0.0109385678
-0.0068352883 -0.0394566142 0.0096544875
0.0067572039 -0.0394651063 0.0066350615
0.0348750883 0.0753183563 0.0104471120
0.0334981057 0.1019999981 0.0095315023
0.0397951820 0.0996562416 0.0088326308
-0.0179745110 0.0674730434 0.0084639132
-0.0383730107 0.0798818193 0.0108047389
-0.0392759848 0.0791498370 0.0051457042
0.0338868465 0.0733794673 0.0071677964
0.0310374572 0.0704186264 0.0042861772
-0.0334859945 0.0717753136 0.0036554510
-0.0201234571 0.0654466699 0.0030828745
0.0038674074 0.0644924348 0.0046414354
0.0055492309 0.0638162387 0.0033279241
0.0402309463 0.0895011759 0.0075986449
0.0402949565 0.0963315897 0.0038537414
0.0399924729 0.0929839498 0.0067316630
-0.0134910061 0.0654242713 0.0053285395
0.0092670465 0.0641693339 0.0037608192
0.0301402208 0.1003848596 0.0070809328
0.0340230147 0.1019999981 0.0040305678
-0.0306053954 0.0988896140 0.0032498511
-0.0360848805 0.1019999981 0.0003817446
0.0180963774 0.0920000002 0.0032813742
0.0135010912 0.0920000002 0.0000130182
-0.0235065842 0.0920000002 0.0037215777
-0.0021702493 0.0920000002 0.0005185261
-0.0307848439 0.0977593153 0.0017719617
0.0402434778 0.0823574178 0.0061239708
-0.0368668893 0.0741268011 0.0002293177
0.0090248039 0.0396024105 0.0064264636
0.0157552334 0.0367927947 0.0064710104
0.0219843439 0.0346458558 0.0047180520
0.0257629456 0.0317078666 0.0041335295
0.0286150175 0.0288712720 0.0047032410
-0.0334283778 0.0228771496 0.0045103608
0.0367411235 0.0170024249 0.0010630987
0.0383956418 0.0128544205 0.0060265878
-0.0381786395 0.0132957669 -0.0011338580
0.0398470925 0.0071192144 0.0049705727
-0.0403053473 0.0033836456 -0.0002212422
0.0404815409 0.0003161053 -0.0019823849
0.0404997078 -0.0000229330 -0.0224889649
0.0403493486 -0.0028210136 -0.0282190318
0.0397787817 -0.0068880838 -0.0085248953
0.0399386273 -0.0056685517 -0.0083683484
0.0404300420 -0.0016361252 0.0028910146
0.0396173081 -0.0078737304 0.0006907480
0.0403546518 -0.0024548928 -0.0064529141
0.0404208436 -0.0019342251 -0.0340201618
-0.0404565121 -0.0011683412 -0.0315868969
-0.0403672286 -0.0025894523 -0.0554674574
-0.0401482165 -0.0045164914 -0.0372004057
-0.0400743535 -0.0049805441 -0.0365875273
-0.0397045760 -0.0071148517 0.0031525251
-0.0399128317 -0.0058071178 -0.0130269911
-0.0402903701 -0.0029096705 -0.0114572845
-0.0397533410 -0.0074156616 -0.0362491538
-0.0404949740 -0.0003601866 -0.0059827715
0.0394456787 -0.0091189111 -0.0542163522
0.0395684157 -0.0084584037 -0.0371647835
0.0397672592 -0.0073836842 -0.0409373504
0.0369669515 -0.0163827326 0.0006809573
0.0385786837 -0.0118930254 -0.0125658854
0.0389612023 -0.0108044776 -0.0131308318
0.0378227348 -0.0141012824 -0.0178467784
0.0389531871 -0.0107666322 -0.0063143786
0.0389227787 -0.0110027478 -0.0323515992
0.0391424619 -0.0102557284 -0.0372901147
-0.0372951129 -0.0155447996 -0.0104835769
-0.0370395538 -0.0162265724 -0.0050305125
-0.0385189894 -0.0119258769 0.0029114219
-0.0367538884 -0.0169715215 0.0029785250
-0.0392566789 -0.0098028628 0.0044782188
-0.0394271505 -0.0092525776 -0.0006947933
-0.0393099566 -0.0096351409 -0.0244136650
-0.0391959941 -0.0100900240 -0.0164848275
-0.0396434686 -0.0081731651 -0.0407176940
0.0370897507 -0.0161586803 -0.0434271230
0.0374078677 -0.0153810160 -0.0558549100
0.0379443522 -0.0140417150 -0.0438088193
0.0339590840 -0.0217896326 -0.0121152069
0.0333395311 -0.0227342514 0.0051687103
0.0362603180 -0.0179088483 0.0004342084
0.0345975580 -0.0206897948 -0.0038653147
0.0345097775 -0.0209236012 -0.0220333709
0.0355948740 -0.0192075760 -0.0490073613
-0.0338859067 -0.0219655163 -0.0170710706
-0.0337909452 -0.0221351793 -0.0190307813
-0.0352298634 -0.0196156483 0.0023059776
-0.0357217376 -0.0189887540 -0.0285755390
-0.0345450626 -0.0208183383 -0.0084366271
-0.0374279031 -0.0153372836 -0.0432814668
-0.0375639246 -0.0149980715 -0.0498831239
-0.0371531162 -0.0160621914 -0.0416200264
-0.0365634520 -0.0173375711 -0.0393839521
-0.0359709804 -0.0185143375 -0.0468426517
0.0325304924 -0.0241003205 -0.0203022087
0.0333141414 -0.0229403234 -0.0277727464
0.0331732772 -0.0231484374 -0.0383160027
0.0312571919 -0.0256631999 -0.0176953465
0.0296433381 -0.0273166282 -0.0005923563
0.0304425304 -0.0265878831 -0.0269350584
0.0302424347 -0.0266481297 0.0039183453
0.0293054366 -0.0279039325 -0.0448711841
0.0306326918 -0.0264178378 -0.0521719487
0.0323416258 -0.0243757137 -0.0204534975
0.0320885984 -0.0246784529 -0.0377331751
-0.0300352081 -0.0269118181 -0.0049525799
-0.0316367325 -0.0251671905 -0.0010154702
-0.0312929397 -0.0256088134 -0.0162778055
-0.0304912263 -0.0265837070 -0.0400629792
-0.0301203685 -0.0269178591 -0.0259704316
-0.0329128036 -0.0235305743 -0.0149931586
-0.0331936493 -0.0231224204 -0.0303773760
-0.0331004690 -0.0233140748 -0.0503435390
-0.0318042561 -0.0250104222 -0.0359860518
-0.0314406313 -0.0254695278 -0.0374438381
0.0268482826 -0.0303080084 -0.0432395423
0.0273680398 -0.0298037875 -0.0077462223
0.0217232335 -0.0341089827 -0.0234442050
0.0239937679 -0.0323925310 0.0015993018
0.0228372927 -0.0333162344 -0.0229243783
0.0257599874 -0.0311765186 -0.0072879072
0.0226672906 -0.0335179844 -0.0422292515
0.0263384504 -0.0307378801 -0.0153719873
0.0246083002 -0.0321042089 -0.0552675367
0.0259718774 -0.0310278971 -0.0509933795
-0.0265017041 -0.0305953346 -0.0193248255
-0.0256857777 -0.0312688432 -0.0300887405
-0.0241157979 -0.0323642372 -0.0138342709
-0.0228195306 -0.0332516785 -0.0054763948
-0.0232677377 -0.0329315102 -0.0049327408
-0.0235336039 -0.0328702699 -0.0377796889
-0.0237238472 -0.0327368205 -0.0381798072
-0.0284473029 -0.0287321014 -0.0380436123
-0.0277725503 -0.0293951739 -0.0199021222
-0.0281324320 -0.0290804030 -0.0520069803
0.0204980398 -0.0348951971 -0.0518084375
0.0215809343 -0.0342081432 -0.0527463132
0.0174466336 -0.0363894426 -0.0073759883
0.0144176089 -0.0377196390 -0.0098246354
0.0178046090 -0.0362474444 -0.0114656464
0.0179180059 -0.0362249936 -0.0192490771
0.0129985360 -0.0383150730 -0.0029801851
0.0174336036 -0.0365028062 -0.0468591087
0.0194584358 -0.0354932233 -0.0542481941
-0.0202440905 -0.0350674055 -0.0211795268
-0.0189173397 -0.0357721288 -0.0281138023
-0.0196930472 -0.0353686943 -0.0130258960
-0.0157410015 -0.0371324533 -0.0086258448
-0.0152533274 -0.0373297193 -0.0036229470
-0.0189153624 -0.0357031332 0.0056190839
-0.0168707080 -0.0367098064 -0.0312743996
-0.0169284063 -0.0367255813 -0.0444690657
-0.0216629801 -0.0341336828 -0.0267081288
-0.0220284831 -0.0339093020 -0.0421269190
-0.0216693243 -0.0341440658 -0.0367193583
0.0141984630 -0.0378725394 -0.0504713880
0.0141691512 -0.0378837155 -0.0307356815
0.0159007617 -0.0372191117 -0.0496761225
0.0099845881 -0.0391068780 -0.0054662453
0.0084200390 -0.0394301583 -0.0044268096
0.0098817826 -0.0391196636 -0.0026453087
0.0075108774 -0.0396040444 0.0007251367
0.0070789634 -0.0397460355 -0.0161559742
0.0122535098 -0.0385996975 -0.0531571853
0.0103010585 -0.0391126759 -0.0418256506
-0.0071489013 -0.0397340454 -0.0176938551
-0.0094617019 -0.0392114987 -0.0043129488
-0.0112650480 -0.0388064218 0.0053279821
-0.0071150595 -0.0396692254 0.0063908749
-0.0083483901 -0.0395584208 -0.0427135395
-0.0149478265 -0.0375752447 -0.0484171293
-0.0142038084 -0.0378790146 -0.0477507771
-0.0123132790 -0.0385713554 -0.0099574318
-0.0121148975 -0.0386188474 -0.0250179190
-0.0110021099 -0.0389409938 -0.0318296930
0.0048022635 -0.0401857653 -0.0375048540
0.0059017591 -0.0400149029 -0.0355573465
0.0030353745 -0.0403300704 -0.0141327173
0.0010755529 -0.0403811329 -0.0379715778
0.0019065154 -0.0403441173 -0.0206905816
-0.0021709580 -0.0403102070 -0.0048593610
0.0020092745 -0.0403341422 -0.0160336650
0.0029855585 -0.0403463716 -0.0218102628
0.0036378775 -0.0403127779 -0.0112745682
-0.0020509152 -0.0404053491 -0.0296078029
0.0002186724 -0.0404787598 -0.0545293631
-0.0058407416 -0.0400077671 -0.0201729973
-0.0058307723 -0.0400171966 -0.0262513550
-0.0044649672 -0.0402268965 -0.0431988009
-0.0030214688 -0.0403459088 -0.0389616387
0.0141275242 0.0644941558 0.0035945221
-0.0009654928 0.0106980251 0.0061710202
-0.0002555450 0.0307594810 0.0061710202
-0.0044095311 0.0243396494 0.0061710202
0.0044968342 0.0282602411 0.0061710202
0.0009827851 0.0151507140 0.0061710202
0.0107633448 0.0284586925 0.0061710202
0.0073091696 0.0178459625 0.0061710202
-0.0062342431 0.0219251912 0.0061710202
-0.0103538454 0.0285137581 0.0061710202
0.0153398836 0.0247195962 0.0061710202
0.0128014237 0.0159895282 0.0061710202
-0.0126502061 0.0211568786 0.0061710202
-0.0101289862 0.0157428032 0.0061710202
-0.0173781964 0.0226322440 0.0061710202
0.0149200039 0.0156968668 0.0061710202
0.0076114993 0.0084481942 0.0061710202
-0.0086742559 0.0064445025 0.0061710202
-0.0218297443 0.0193741854 0.0061710202
0.0148048272 0.0100631414 0.0061710202
0.0184671209 0.0089444752 0.0061710202
-0.0138172385 0.0085339434 0.0061710202
-0.0268304191 0.0119832376 0.0061710202
0.0265416243 0.0066445248 0.0061710202
0.0030042794 0.0004650565 0.0061710202
0.0250752733 0.0067705891 0.0061710202
-0.0137791066 0.0039299321 0.0061710202
-0.0163588783 0.0045643241 0.0061710202
0.0197960877 -0.0004084708 0.0061710202
0.0055097978 -0.0005874035 0.0061710202
-0.0221388243 0.0021021230 0.0061710202
-0.0177470458 -0.0017311326 0.0061710202
0.0190873596 -0.0203707117 0.0061710202
0.0067903090 -0.0067892852 0.0061710202
0.0186603839 -0.0073998215 0.0061710202
0.0136004169 -0.0054372520 0.0061710202
0.0261753459 -0.0049891245 0.0061710202
0.0270344400 -0.0082120683 0.0061710202
0.0271934779 -0.0081404888 0.0061710202
0.0007181062 -0.0111371571 0.0061710202
0.0064007183 -0.0293284730 0.0061710202
0.0126956198 -0.0268107906 0.0061710202
0.0031143946 -0.0059497575 0.0061710202
0.0125185450 -0.0199366673 0.0061710202
0.0048198950 -0.0069775794 0.0061710202
-0.0166913547 -0.0234758069 0.0061710202
-0.0052978393 -0.0095342307 0.0061710202
-0.0062514505 -0.0233822567 0.0061710202
-0.0109672840 -0.0246170590 0.0061710202
-0.0106224593 -0.0276804846 0.0061710202
-0.0014630254 -0.0245705349 0.0061710202
-0.0024408722 -0.0247067922 0.0061710202
-0.0165326369 -0.0059509467 0.0061710202
-0.0278996340 -0.0100890619 0.0061710202
-0.0179886811 -0.0100006725 0.0061710202
-0.0226286193 -0.0117527976 0.0061710202
-0.0208342183 -0.0181079134 0.0061710202
-0.0170544313 -0.0159151862 0.0061710202
0.0097645151 0.0396622401 0.0043884617
0.0401260314 0.0052601124 0.0010017843
-0.0392524814 0.0095229901 0.0010793215
-0.0291043416 0.0287217551 -0.0013027811
-0.0231224131 0.0650133842 0.0005835343
0.0000761486 0.0405871689 0.0031150711
0.0392926943 0.1019999981 -0.0008488246
-0.0399408802 0.0800059143 0.0032211783
0.0056816947 0.0406276906 0.0017416107
0.0095308673 0.0401738665 0.0020174128
0.0294656450 0.0662496608 -0.0037469055
-0.0300483137 0.0659898544 -0.0052983727
0.0334070618 0.0230870871 -0.0032110851
0.0307043260 0.0268869788 -0.0026640928
-0.0332853829 0.0232109355 -0.0019233114
0.0044552527 0.0620914486 0.0007544243
-0.0252039755 0.0325780644 0.0002210609
0.0196867281 0.0367997192 -0.0000307614
0.0070391982 0.0627014706 0.0015143969
-0.0401994226 0.0803222889 -0.0004641127
0.0300170034 0.0277267312 -0.0018175794
-0.0116340385 0.0629853809 0.0013864397
-0.0068854861 0.0411733293 -0.0001835640
-0.0110761145 0.0617455361 -0.0002216914
0.0402391441 0.0044630403 -0.0020950440
-0.0400008370 0.0054152445 -0.0068062177
0.0268326805 0.0652000052 -0.0023320861
0.0217893723 0.0624539751 -0.0028783538
-0.0055241533 0.0614705914 -0.0000931928
0.0309860076 0.0976453434 -0.0001152655
0.0303950186 0.0985133382 -0.0049824904
0.0308495907 0.1019999981 -0.0057915853
-0.0327837511 0.1019999981 -0.0030934673
0.0398530309 0.0969233670 -0.0080583559
-0.0406902312 0.0933716217 -0.0000929432
0.0207585037 0.0920000002 -0.0040510868
0.0207975337 0.0920000002 -0.0000567028
-0.0225725746 0.0920000002 -0.0160759995
-0.0216371795 0.0920000002 -0.0174416197
-0.0223302059 0.0920000002 -0.0062098490
-0.0151454115 0.0920000002 -0.0067355849
-0.0201846247 0.0920000002 -0.0012297814
-0.0192329682 0.0920000002 -0.0044114841
-0.0247461578 0.0920000002 -0.0017929122
-0.0048690403 0.0920000002 -0.0235793593
-0.0078630588 0.0920000002 -0.0283707283
-0.0039606047 0.0920000002 -0.0061146331
-0.0115991099 0.0920000002 -0.0206612580
-0.0183492318 0.0920000002 -0.0219451388
-0.0178437905 0.0920000002 -0.0208590847
0.0049080335 0.0920000002 -0.0096450108
0.0125641218 0.0920000002 -0.0248209180
0.0041678204 0.0920000002 -0.0221972861
0.0011413907 0.0920000002 -0.0072786777
0.0004857905 0.0920000002 -0.0036229663
0.0032082394 0.0920000002 -0.0306386093
-0.0029248327 0.0920000002 -0.0273052654
0.0205376445 0.0920000002 -0.0088665180
0.0291941400 0.0920000002 -0.0084834942
0.0066280933 0.0920000002 -0.0046342296
0.0214395868 0.0920000002 -0.0150558259
0.0173897745 0.0920000002 -0.0213089453
0.0085813491 0.0920000002 -0.0096303344
-0.0308036597 0.0925698699 -0.0016170028
0.0406619159 0.0896542569 -0.0032167344
-0.0407446240 0.0895875935 -0.0026974387
0.0143264711 0.0607973842 -0.0018788168
-0.0379600579 0.0752611335 -0.0016898440
0.0366740186 0.0170873001 -0.0027234852
-0.0347968720 0.0205628934 -0.0046559557
0.0037620742 0.0421741352 -0.0016009813
-0.0109162616 0.0413507621 -0.0016771103
-0.0385401271 0.1019999981 -0.0102088309
-0.0407616362 0.1009473794 -0.0027049715
0.0024533965 0.0592365224 -0.0022166006
0.0172135278 0.0594483376 -0.0044384953
-0.0203435863 0.0372861975 -0.0027301179
0.0241084964 0.0343367099 -0.0040818251
0.0404954159 0.0834611237 -0.0045545431
0.0112434150 0.0423729595 -0.0032801842
0.0285269502 0.0299253019 -0.0067253036
-0.0118820773 0.0580925048 -0.0040724828
0.0314087112 0.0652864765 -0.0108775880
-0.0185870395 0.0599831753 -0.0045839282
-0.0353379785 0.0709920653 -0.0053659428
-0.0053553422 0.0555937353 -0.0048397431
0.0380547106 0.0134101090 -0.0152209563
-0.0388597477 0.0107289536 -0.0089488314
-0.0405118151 0.0825897914 -0.0049370251
-0.0143483934 0.0566237229 -0.0057438763
-0.0223243891 0.0606010562 -0.0061793598
0.0337761210 0.1019999981 -0.0073595169
0.0399569969 0.0980000570 -0.0079034703
-0.0003901555 0.0538710317 -0.0054268521
-0.0112307907 0.0553416862 -0.0056467832
-0.0060249511 0.0532233809 -0.0056509335
-0.0404710079 0.0008313219 -0.0108052906
-0.0282452533 0.0623951853 -0.0101052551
0.0040481682 0.0488772684 -0.0059171200
0.0113848338 0.0454591349 -0.0058603183
0.0401116482 0.0877139550 -0.0084521260
-0.0133544547 0.0551527746 -0.0062536292
-0.0124186803 0.0540778993 -0.0064589340
0.0200405982 0.0562903994 -0.0090278847
0.0377124682 0.0745328181 -0.0079814280
0.0172329307 0.0544463809 -0.0083279258
0.0323785654 0.0251765420 -0.0127646684
0.0334423365 0.0232113266 -0.0111154863
-0.0322877146 0.0249376060 -0.0083045878
0.0279732881 0.0959565370 -0.0130243489
0.0338102401 0.1019999981 -0.0102450030
-0.0291775926 0.1016025702 -0.0098488503
-0.0186925939 0.0427535031 -0.0088578213
0.0283918632 0.0305899853 -0.0099137474
-0.0263954612 0.0337659951 -0.0117212779
0.0396494825 0.0835324411 -0.0098216503
0.0375158262 0.0943363237 -0.0155246236
-0.0396716006 0.0951135713 -0.0088898291
-0.0395686262 0.0840643267 -0.0103649189
-0.0392168642 0.0873593797 -0.0116185101
0.0401400084 0.0048066157 -0.0151615027
-0.0398037920 0.0063945597 -0.0143381656
-0.0185971310 0.0436420095 -0.0093560748
0.0244672184 0.0583810200 -0.0111950800
0.0394007475 0.0860361895 -0.0106889382
0.0205342679 0.0538571669 -0.0112419257
-0.0376651358 0.1019999981 -0.0106781059
-0.0379065062 0.1016387880 -0.0150447006
0.0239388325 0.0375784212 -0.0118213128
0.0325564213 0.0665356809 -0.0118346686
0.0367009451 0.0170490298 -0.0216430588
-0.0343228881 0.0217829442 -0.0147157433
-0.0320434446 0.0647574226 -0.0167716292
0.0298634316 0.0620027308 -0.0155583977
-0.0306760458 0.0634373961 -0.0138466916
0.0244803633 0.0376063448 -0.0133887140
-0.0217179174 0.0455701533 -0.0145028670
-0.0230550500 0.0557260328 -0.0126759726
-0.0214200206 0.0480518999 -0.0142767340
0.0368567268 0.1012311438 -0.0174199915
0.0246120623 0.0388619703 -0.0159461592
0.0364096081 0.0733722046 -0.0140954082
-0.0404867372 0.0003808882 -0.0215269947
-0.0396225414 0.0075710439 -0.0193261498
-0.0333713313 0.0674824111 -0.0182546147
0.0379943286 0.0137018584 -0.0206815944
-0.0376777714 0.0142365979 -0.0212471238
-0.0361540206 0.0761931061 -0.0173393563
-0.0279090149 0.0326975509 -0.0157373440
0.0261180024 0.0965181752 -0.0163349011
0.0232055151 0.1017361947 -0.0205543678
-0.0259798133 0.1009595388 -0.0165350972
-0.0294366466 0.1019999981 -0.0211717444
-0.0323712208 0.1019999981 -0.0183628419
0.0282111308 0.0598884624 -0.0151585732
-0.0245602947 0.0546180729 -0.0158230257
0.0256249062 0.0379261718 -0.0180578748
0.0238705366 0.0428433601 -0.0179331419
0.0363844100 0.0975894260 -0.0179344401
-0.0366732636 0.0967505536 -0.0174341258
-0.0368202832 0.0910000578 -0.0174756723
0.0350037929 0.0901153829 -0.0209224483
0.0370372088 0.0846245137 -0.0174144672
0.0343125177 0.0697675477 -0.0176423651
0.0308760503 0.0292688045 -0.0252396784
-0.0338576746 0.0228972194 -0.0199509671
-0.0358104361 0.0763001824 -0.0184784805
-0.0321112555 0.0671023127 -0.0229564245
-0.0305971161 0.0620017165 -0.0197999206
0.0361069367 0.0799156773 -0.0188646375
-0.0336444048 0.0729782261 -0.0220122007
-0.0333219243 0.1018118180 -0.0235832001
0.0392844365 0.0094275162 -0.0249290259
-0.0391473152 0.0097602342 -0.0209025712
-0.0249389557 0.0440656567 -0.0211846010
-0.0343456228 0.0793476654 -0.0220971628
0.0266444248 0.0369977913 -0.0205996163
0.0328953911 0.0701905044 -0.0227196896
0.0339285141 0.0232144586 -0.0251381864
-0.0320317017 0.0270648140 -0.0259090670
0.0255673030 0.0457880820 -0.0234271765
0.0231019752 0.0949789613 -0.0206470417
0.0198374700 0.1008178920 -0.0235391397
0.0271069661 0.1019999981 -0.0213640438
-0.0180594814 0.1019992672 -0.0251142992
-0.0197858033 0.1019999981 -0.0238780631
-0.0286367202 0.1019999981 -0.0287278997
0.0285318613 0.0572573697 -0.0260873137
0.0339764085 0.1009825426 -0.0226425831
-0.0335679570 0.0803770562 -0.0234051325
0.0264332857 0.0402397868 -0.0239312290
-0.0256454519 0.0434377983 -0.0229803492
0.0401923312 0.0041774428 -0.0231419459
0.0399856414 0.0058407400 -0.0299108841
-0.0396218874 0.0078788130 -0.0293421622
0.0312188027 0.0692780904 -0.0257536329
0.0305045472 0.0652785444 -0.0264237812
-0.0295257845 0.0650871438 -0.0282999910
0.0365416583 0.0176747687 -0.0320930707
-0.0361607139 0.0184833810 -0.0292048993
0.0280958901 0.0929160822 -0.0292883420
0.0299683419 0.0926780550 -0.0272087730
-0.0278486873 0.0965239393 -0.0295628886
0.0270004885 0.0514120373 -0.0282902136
0.0325545010 0.0865489970 -0.0247824366
-0.0284716020 0.0896374396 -0.0293705350
0.0305394171 0.0770554346 -0.0274764718
0.0267885936 0.0408296681 -0.0261355003
0.0146345150 0.0955487640 -0.0270741580
0.0161134843 0.0998875139 -0.0262979350
0.0211883156 0.1019999981 -0.0286505964
-0.0159382659 0.0980822739 -0.0263898970
-0.0140037947 0.1019999981 -0.0318111263
-0.0224288821 0.1019999981 -0.0329106523
-0.0281402397 0.0560180476 -0.0265091423
-0.0313131650 0.0296241761 -0.0318985591
0.0288840612 0.0698663463 -0.0295731982
0.0289573323 0.0347877153 -0.0290152161
-0.0275476065 0.0400804104 -0.0301624942
-0.0304776732 0.0770268573 -0.0275609127
-0.0273534015 0.0535264005 -0.0310796294
0.0404772224 0.0009967453 -0.0281949732
0.0389819778 0.0104656370 -0.0314033844
-0.0380764657 0.0134444061 -0.0316515167
0.0280903635 0.0796038086 -0.0299748398
-0.0269013832 0.0441982459 -0.0293572916
-0.0276211253 0.0810612229 -0.0304743935
-0.0280597354 0.0682975379 -0.0306878646
0.0269700710 0.0568945562 -0.0327632455
0.0102109321 0.0993164427 -0.0291782047
0.0148348142 0.1019999981 -0.0306762494
0.0095833437 0.1019999981 -0.0314262745
-0.0043777980 0.1011265716 -0.0306159432
-0.0056365205 0.1019999981 -0.0390260905
-0.0152658921 0.1019999981 -0.0369409751
-0.0085513192 0.0946367884 -0.0295872629
-0.0269875929 0.0558378613 -0.0328608335
-0.0342714561 0.0230962848 -0.0343027630
-0.0317800018 0.0286083217 -0.0320847407
0.0295681934 0.0340238571 -0.0319698911
-0.0294425915 0.0343525406 -0.0331210708
0.0270933060 0.0929215492 -0.0303479359
-0.0248141008 0.0921669366 -0.0320038743
-0.0271326337 0.0832596183 -0.0307797916
0.0250667539 0.0887100636 -0.0321891013
0.0236297303 0.0822889828 -0.0334923055
-0.0270648296 0.0444233391 -0.0338460116
0.0004870497 0.0926036399 -0.0307739750
0.0087136006 0.1019999981 -0.0364256720
-0.0019454553 0.1019999981 -0.0319436578
-0.0003588154 0.1019999981 -0.0396247389
0.0252557199 0.0748794641 -0.0330486241
-0.0239635221 0.0718510490 -0.0345795273
0.0399778648 0.0058069745 -0.0352720741
-0.0392450241 0.0095992217 -0.0348588209
-0.0191751622 0.1005334424 -0.0361655725
-0.0227396636 0.0776853624 -0.0344044321
-0.0208721549 0.0901485336 -0.0352637968
-0.0357024019 0.0198384805 -0.0372751030
0.0288019564 0.0368519292 -0.0355177668
0.0232691726 0.0745619611 -0.0345961639
0.0219790796 0.0801681576 -0.0347994320
-0.0201764215 0.0682712583 -0.0378575560
0.0224302118 0.1005267950 -0.0342116585
0.0364177738 0.0180084103 -0.0365756107
-0.0313786005 0.0298901184 -0.0372628897
-0.0206793498 0.0827353307 -0.0354773593
0.0170126740 0.0919257756 -0.0367331070
-0.0127796507 0.0917242476 -0.0386177713
0.0264466579 0.0465386014 -0.0367536617
0.0184081344 0.0869915857 -0.0365433075
0.0162917353 0.0797700928 -0.0378296215
-0.0168485744 0.0820145622 -0.0374057962
-0.0404585355 0.0007955964 -0.0394279043
-0.0393426354 0.0091079763 -0.0421009398
-0.0106110468 0.0983719160 -0.0395789564
0.0380742405 0.0137521299 -0.0441025534
0.0368220203 0.0171999739 -0.0393440681
-0.0357819778 0.0197610570 -0.0409112955
0.0184331189 0.0667688013 -0.0392616440
-0.0172509464 0.0756575481 -0.0378615738
0.0230223026 0.0524900507 -0.0408270053
-0.0246489990 0.0505860557 -0.0395073697
0.0135855479 0.0830783654 -0.0387481303
0.0071121086 0.1015559680 -0.0403742535
0.0313551791 0.0301268717 -0.0386616519
0.0254520022 0.0466831985 -0.0398526315
-0.0327566556 0.0268096056 -0.0407132783
0.0072259343 0.0943264118 -0.0398454031
0.0090917780 0.0944692481 -0.0394488058
-0.0047089010 0.0968413355 -0.0403804145
0.0121176661 0.0896132021 -0.0391223542
0.0065928951 0.0876759406 -0.0404082402
0.0184948978 0.0632556663 -0.0402988169
0.0104514864 0.0803213180 -0.0397940756
-0.0167551498 0.0576701426 -0.0434037727
-0.0033303061 0.1016550333 -0.0407202719
-0.0152496961 0.0695534112 -0.0401092488
0.0119705316 0.0707662624 -0.0409849063
0.0063244092 0.0857434355 -0.0404559094
-0.0155939669 0.0632738190 -0.0418070693
0.0384074636 0.0127224756 -0.0433240323
-0.0374868540 0.0155440379 -0.0481511709
0.0066995544 0.1009508773 -0.0404097386
-0.0046381838 0.0827294802 -0.0407963842
0.0038253204 0.0971015508 -0.0404770412
0.0024820069 0.0886560383 -0.0407832867
0.0003644431 0.0848038920 -0.0409894299
-0.0027883070 0.0795686749 -0.0411621037
0.0044119976 0.0737216671 -0.0418919859
0.0105939676 0.0667423127 -0.0424149254
0.0223376429 0.0508231842 -0.0426676605
-0.0040496188 0.0742052153 -0.0418409483
-0.0404926009 0.0002510741 -0.0462349806
0.0340439398 0.0239197412 -0.0451098504
0.0186449767 0.0527608376 -0.0446942979
-0.0174340069 0.0518345667 -0.0458481908
0.0071981967 0.0637809253 -0.0441016514
-0.0139653142 0.0586053727 -0.0442785326
0.0260774447 0.0408985693 -0.0438845195
-0.0007911925 0.0687182758 -0.0432628466
0.0275742879 0.0356412116 -0.0466680199
-0.0233724392 0.0451336953 -0.0448328297
-0.0103118398 0.0594722091 -0.0450964281
0.0397889473 0.0070789039 -0.0537906292
-0.0389974091 0.0103715490 -0.0479079172
0.0031627765 0.0598983551 -0.0461089952
0.0126955379 0.0533311153 -0.0471528299
-0.0116715816 0.0554548948 -0.0464806757
-0.0321060061 0.0281202236 -0.0466178923
0.0358704515 0.0197104357 -0.0462371593
0.0237401906 0.0391948938 -0.0489518813
0.0057601928 0.0535763962 -0.0485767034
0.0270200080 0.0343485895 -0.0488669463
-0.0028959526 0.0570252939 -0.0473218475
-0.0321246889 0.0260369261 -0.0509957765
-0.0338165470 0.0242465855 -0.0486501307
0.0204592303 0.0410668219 -0.0508227691
0.0404319297 0.0021841066 -0.0489812743
-0.0396162111 0.0078946014 -0.0534067739
0.0046274329 0.0528024933 -0.0491187835
0.0382905398 0.0130725880 -0.0523874317
-0.0347987698 0.0210928636 -0.0524287227
0.0011732853 0.0509438537 -0.0503048781
0.0267750993 0.0309808673 -0.0526666406
-0.0178726754 0.0393134462 -0.0536371123
-0.0302501695 0.0261564498 -0.0536512284
0.0316590826 0.0253819390 -0.0526993501
-0.0348315457 0.0199762063 -0.0542955382
-0.0160356544 0.0397953043 -0.0541113497
0.0089535551 0.0442396717 -0.0532721096
-0.0014485220 0.0475645234 -0.0520258074
0.0108788378 0.0445757669 -0.0527269496
0.0221118225 0.0343079367 -0.0542365905
-0.0127983895 0.0407820562 -0.0545669121
-0.0373052480 0.0155781995 -0.0536354953
-0.0269551216 0.0275111313 -0.0555969986
0.0207079944 0.0354666474 -0.0545014927
-0.0316748946 0.0215722992 -0.0565835870
-0.0215941399 0.0341291650 -0.0548401496
-0.0040562748 0.0422210976 -0.0548872532
0.0367631056 0.0151425717 -0.0562427352
-0.0048479643 0.0388448379 -0.0567512314
0.0245087706 0.0254734181 -0.0586946326
0.0317570714 0.0200177951 -0.0577864597
0.0154554187 -0.0372496266 -0.0571225133
0.0279985796 -0.0291044758 -0.0565763456
-0.0377824698 -0.0144353854 -0.0560153425
0.0404056863 0.0006267363 -0.0565932221
-0.0027695581 -0.0403502880 -0.0567016347
-0.0377927637 0.0123714193 -0.0571822112
0.0099235581 -0.0390444565 -0.0573847332
0.0400971927 -0.0045576828 -0.0575939803
0.0065466768 0.0365546517 -0.0578775836
-0.0074655075 0.0327956239 -0.0597941655
0.0391431427 0.0065270471 -0.0589080594
0.0208951707 0.0260117874 -0.0601466396
-0.0026243502 0.0347938616 -0.0589943000
0.0136555224 0.0327696724 -0.0589676208
-0.0243904342 -0.0318215684 -0.0586066506
-0.0302595738 -0.0259265914 -0.0594935261
-0.0039881667 -0.0400348883 -0.0584174802
-0.0389163466 -0.0082306739 -0.0595744192
-0.0256116804 0.0237481921 -0.0592198990
0.0244606326 0.0210872189 -0.0612314233
-0.0182935042 0.0262529290 -0.0610979682
-0.0337816041 -0.0197143323 -0.0609608515
-0.0098013529 0.0322010309 -0.0598604822
0.0382244562 0.0037722645 -0.0613147991
0.0100952409 0.0299014008 -0.0609076872
-0.0083859746 0.0306719957 -0.0607242887
0.0274827197 0.0175838039 -0.0620007512
-0.0281868732 -0.0275879845 -0.0604764888
-0.0374523278 -0.0094219663 -0.0614137803
-0.0161004560 0.0242700589 -0.0625956241
0.0167987610 0.0254608847 -0.0618808517
0.0339496829 0.0126660968 -0.0612701129
-0.0376957003 -0.0022128980 -0.0622504262
-0.0017305200 -0.0385394938 -0.0615194475
-0.0384145799 0.0007726145 -0.0614739726
0.0299005802 0.0152551311 -0.0621279731
0.0112122960 -0.0356906938 -0.0628890793
-0.0214075198 -0.0316019542 -0.0622880827
-0.0168781496 0.0195388922 -0.0642337395
0.0171621568 0.0184958214 -0.0646098162
0.0334176198 -0.0157983029 -0.0630767744
0.0105596050 0.0235085373 -0.0635678100
-0.0089517417 0.0224183829 -0.0640901877
0.0360589177 0.0033386903 -0.0631709761
-0.0011257132 0.0246286532 -0.0635059198
-0.0318107631 -0.0190562733 -0.0631927192
-0.0186340981 -0.0312184715 -0.0637534370
-0.0093907081 -0.0347410802 -0.0639080663
-0.0207941239 0.0160807884 -0.0646792821
0.0355661384 -0.0064809831 -0.0635293960
0.0360388344 -0.0008083125 -0.0635084740
-0.0059131280 -0.0354727796 -0.0637792564
0.0147890300 -0.0312071094 -0.0647502495
-0.0308881488 -0.0092647278 -0.0654536106
0.0088543058 -0.0322048843 -0.0650837131
0.0191966565 0.0128311865 -0.0660136111
-0.0264008533 -0.0195272789 -0.0654537372
0.0016468187 0.0171219389 -0.0658589772
-0.0055932610 0.0181619563 -0.0655179234
-0.0195409039 -0.0287389344 -0.0647151635
-0.0020675775 0.0198433812 -0.0650915232
-0.0200985687 -0.0266940567 -0.0652583795
0.0116944418 -0.0295603763 -0.0657139584
-0.0258754018 0.0075713129 -0.0660548196
0.0124128434 0.0138369991 -0.0663890252
-0.0222889147 0.0118103294 -0.0657429824
-0.0236319875 -0.0190462094 -0.0660800315
0.0182538628 -0.0266440932 -0.0656445902
-0.0152962252 -0.0276347010 -0.0658730868
-0.0177126476 -0.0252065652 -0.0661131359
-0.0297744562 -0.0026158666 -0.0659907861
0.0040607862 -0.0296736827 -0.0661460401
-0.0264317070 0.0005030646 -0.0667063546
0.0062119537 0.0132551379 -0.0666597898
-0.0067500072 0.0142247427 -0.0664641674
-0.0191345431 0.0096085326 -0.0666142021
0.0214345044 0.0066855614 -0.0669493474
0.0264801489 -0.0117727382 -0.0663855373
-0.0023953971 0.0115344837 -0.0670485511
0.0066705957 -0.0281576340 -0.0664435564
-0.0139160055 0.0113404179 -0.0668391350
0.0157266885 0.0084826270 -0.0671237865
0.0120142818 -0.0226412813 -0.0670733584
0.0197102513 -0.0160548894 -0.0670882927
0.0120755997 -0.0214965514 -0.0671976941
-0.0152773092 -0.0202512895 -0.0671034751
0.0236339094 -0.0001393410 -0.0671437626
-0.0170059325 -0.0182557262 -0.0671743141
0.0124920844 -0.0187509727 -0.0674346285
0.0208204378 -0.0072251834 -0.0674087836
-0.0164880655 0.0038761770 -0.0675432662
0.0171082771 0.0039518893 -0.0675111184
0.0034041539 0.0082884989 -0.0674661220
-0.0053628951 0.0100500949 -0.0672671527
-0.0040296655 -0.0232673300 -0.0672819525
-0.0190791456 -0.0069653764 -0.0675637866
0.0182777183 -0.0090986461 -0.0675829345
0.0104680240 -0.0154287742 -0.0677142654
-0.0061826847 -0.0161225578 -0.0677902262
-0.0155890388 -0.0042290934 -0.0678354557
-0.0072327818 -0.0144246320 -0.0678376644
0.0040913712 -0.0153598453 -0.0678604455
-0.0130136423 0.0019980234 -0.0678702654
0.0016087267 0.0031879808 -0.0679027663
-0.0048253038 0.0021043353 -0.0679427581
-0.0106862119 -0.0067367475 -0.0679407403
0.0074787512 -0.0106632116 -0.0679390055
-0.0083349983 -0.0005702436 -0.0679907295
-0.0014639252 -0.0095033517 -0.0679841449
0.0018061691 -0.0002736410 -0.0680072720
0.0022360111 -0.0081438429 -0.0679814404
