-0.0309436814 0.0114719996 -0.0139922683
-0.0109542140 0.0114989799 -0.0154142383
-0.0269666327 0.0114266209 -0.0128653951
-0.0120500142 0.0113911506 -0.0122451970
0.0032499805 0.0111169012 -0.0091947070
0.0175586748 0.0112350901 -0.0103163181
0.0258295465 0.0114951242 -0.0151785563
0.0273252023 0.0109151437 -0.0076517225
0.0378557016 0.0108788472 -0.0074084982
-0.0322621925 0.0112504604 -0.0155999996
0.0430053114 0.0096217950 -0.0155999996
0.0289730570 -0.0109587762 -0.0155999996
-0.0249030892 -0.0115000000 -0.0140838356
-0.0151510197 -0.0115000000 -0.0136658290
-0.0158213641 -0.0115000000 -0.0037388704
-0.0076072322 -0.0115000000 -0.0036077868
0.0090063962 -0.0115000000 -0.0060422300
0.0242725418 -0.0115000000 -0.0144623204
0.0241148931 -0.0115000000 -0.0138971630
0.0314104529 -0.0115000000 -0.0046388896
0.0266887186 -0.0115000000 -0.0106565353
0.0117965967 -0.0115000000 -0.0105887794
-0.0121939534 -0.0115000000 -0.0065578199
-0.0211083037 -0.0115000000 -0.0092158235
0.0292499997 -0.0102542553 -0.0099109384
-0.0089343038 -0.0100999996 -0.0049585666
0.0181640015 -0.0100999996 -0.0051828282
0.0194446586 -0.0100999996 -0.0133706022
0.0129090536 -0.0100999996 -0.0070553636
-0.0114777465 -0.0100999996 -0.0077404065
-0.0178905273 -0.0100999996 -0.0143069048
-0.0286745929 -0.0100999996 -0.0061695343
-0.0220350516 -0.0100999996 -0.0084770555
0.0095752541 -0.0100999996 -0.0120678078
0.0235188489 -0.0100999996 -0.0097472288
-0.0258184145 -0.0106514488 -0.0129759054
-0.0232500006 -0.0107902303 -0.0098553269
-0.0157500003 -0.0107010357 -0.0092998343
-0.0097573406 -0.0108607808 -0.0123839033
-0.0082500000 -0.0105736576 -0.0113190874
0.0098400457 -0.0108000003 -0.0086092221
0.0173431277 -0.0113931285 -0.0078338103
0.0186586576 -0.0113913427 -0.0093510204
0.0256148637 -0.0108000003 -0.0061412211
-0.0202268895 -0.0098848770 -0.0059485460
0.0237006356 -0.0098371148 -0.0056086982
0.0199961793 -0.0098234976 -0.0046500000
0.0201863612 0.0083439709 -0.0063900002
0.0293981978 0.0076138693 -0.0063900002
0.0372008449 0.0073991242 -0.0063900002
0.0429908814 -0.0011312041 -0.0063900002
0.0399227046 -0.0067118128 -0.0063900002
0.0280822232 -0.0073291507 -0.0063900002
0.0285528684 -0.0094646826 -0.0063900002
0.0025151453 -0.0096941403 -0.0063900002
-0.0013416673 -0.0084524188 -0.0063900002
0.0078462080 -0.0057749888 -0.0063900002
-0.0195117057 -0.0079586976 -0.0063900002
-0.0203588840 -0.0065515767 -0.0063900002
-0.0371269867 -0.0067192438 -0.0063900002
-0.0392099881 -0.0075925243 -0.0063900002
-0.0434153304 -0.0013069284 -0.0063900002
-0.0391945330 0.0075222720 -0.0063900002
-0.0183864559 0.0083858675 -0.0063900002
-0.0251654325 0.0069545017 -0.0063900002
-0.0359289234 0.0055778548 -0.0063900002
0.0142541956 0.0052618179 -0.0055167099
0.0044201847 0.0096500004 -0.0047127203
0.0117089784 0.0096500004 -0.0042995224
-0.0203824844 0.0092722212 -0.0068160673
-0.0362128705 0.0096394769 -0.0094575175
-0.0144621770 0.0099661343 -0.0138364438
0.0316746995 0.0099656540 -0.0138679368
0.0151715033 0.0093971331 -0.0076115654
0.0062775266 0.0097802982 -0.0108492741
-0.0311018445 0.0094093141 -0.0076942683
-0.0241410098 0.0096123908 -0.0092266527
-0.0113756640 0.0095568412 -0.0087668394
0.0239225651 0.0098644553 -0.0119168382
-0.0472154739 -0.0029174115 -0.0096899997
-0.0474977523 -0.0014721376 -0.0092537624
-0.0443837714 0.0068607411 -0.0074576150
-0.0378231923 -0.0095671462 -0.0088499708
0.0099203496 0.0100835608 -0.0146000003
0.0362470114 -0.0104238336 -0.0146000003
-0.0245656657 -0.0106079019 -0.0146000003
0.0388950220 0.0099293183 -0.0140538836
0.0443472741 -0.0071799278 -0.0089886372
0.0421602183 -0.0088818383 -0.0111712105
0.0468866630 0.0004280307 -0.0143409632
0.0471491838 0.0018777318 -0.0130500002
0.0452258211 -0.0059511839 -0.0105070836
0.0482622878 -0.0016598773 -0.0120160512
0.0328509141 -0.0097334301 -0.0103401957
0.0043503523 -0.0111581444 -0.0155820840
0.0163992776 -0.0107498020 -0.0147025151
-0.0120932399 -0.0107498020 -0.0150677065
0.0425048503 -0.0097599155 -0.0152723904
-0.0317616395 0.0107498020 -0.0153948334
-0.0038058810 0.0101403417 -0.0139400000
-0.0444235603 -0.0092073247 -0.0103900004
-0.0342563039 -0.0112094726 -0.0100235050
-0.0491218870 0.0015605404 -0.0102859792
-0.0415536014 -0.0106188155 -0.0099656460
-0.0465560631 0.0069923991 -0.0086824403
-0.0438198899 -0.0072894240 -0.0003992814
-0.0436677101 -0.0081492721 -0.0025809717
-0.0426768149 0.0096543619 -0.0064455060
-0.0419315539 -0.0097839507 -0.0054045956
-0.0459041480 -0.0061173900 -0.0028678064
-0.0460547177 0.0045174970 -0.0000998538
-0.0210607013 0.0094645159 -0.0008632444
0.0284397494 0.0096431604 -0.0015010942
0.0327181152 0.0101881143 -0.0036876384
0.0376718487 0.0106844486 -0.0061927786
0.0030717373 0.0106452791 -0.0059436943
-0.0309132124 0.0105889453 -0.0056330124
-0.0117665273 0.0103185320 -0.0042893290
0.0021525850 0.0100569059 -0.0031223099
-0.0111039258 0.0099849433 -0.0028300048
0.0124227778 0.0095497235 -0.0011732213
-0.0214022806 0.0096770768 -0.0016232725
0.0074492439 0.0103017392 -0.0042146528
-0.0317280610 0.0102338794 -0.0083873618
-0.0247499999 0.0106019507 -0.0114309422
-0.0187653478 0.0110099375 -0.0124504255
-0.0142500000 0.0103396563 -0.0069099237
-0.0096432631 0.0110076223 -0.0090695979
-0.0044957113 0.0110040090 -0.0130497988
0.0007500000 0.0106687806 -0.0103909396
0.0051969208 0.0104743887 -0.0064235178
0.0112500004 0.0106684081 -0.0084331300
0.0157500003 0.0109905238 -0.0110671999
0.0196494741 0.0103000002 -0.0063535588
0.0262499992 0.0103368961 -0.0105345533
0.0307274878 0.0109050338 -0.0089247703
0.0466765628 0.0039159476 -0.0010516537
0.0394032304 0.0097246540 -0.0021856056
0.0445311473 -0.0083265549 -0.0056156084
0.0408068556 0.0100340114 -0.0047721977
0.0429250015 0.0086904671 -0.0028373340
-0.0362796128 -0.0092433554 -0.0001164229
-0.0188865338 -0.0092631241 -0.0001745289
-0.0188626727 -0.0097359077 -0.0018381468
-0.0127524956 -0.0097845976 -0.0020213660
0.0352692936 -0.0098752015 -0.0023854854
0.0071207563 -0.0095640925 -0.0012248752
-0.0037480659 -0.0097741747 -0.0019804831
0.0367018834 -0.0112446557 -0.0104101548
-0.0210786232 -0.0114958445 -0.0033111029
0.0024641764 -0.0100015385 -0.0028139764
-0.0035699167 -0.0111547338 -0.0031500000
0.0412694474 -0.0108140676 -0.0109841432
0.0477116865 -0.0047885233 -0.0070494159
0.0470737471 0.0065806499 -0.0100218676
0.0385613609 0.0110422380 -0.0086879170
0.0490094064 -0.0023141498 -0.0104625262
0.0441098969 0.0095712332 -0.0117526644
0.0400822191 -0.0108386431 -0.0085230206
0.0490314525 -0.0017032729 -0.0096029112
0.0152319367 -0.0085295797 0.0000000000
-0.0144607690 -0.0086901539 0.0000000000
0.0462984541 0.0008814233 0.0000000000
-0.0050819516 0.0087094133 0.0000000000
-0.0120354223 0.0081299087 0.0000000000
0.0424939651 -0.0066249678 -0.0002304860
0.0109884637 -0.0080100000 -0.0001351139
-0.0426251051 0.0065339156 -0.0005688926
0.0081447948 0.0080100000 -0.0000237507
0.0409032663 -0.0059238070 -0.0008050000
-0.0134500239 0.0078639917 -0.0008050000
0.0241823253 0.0075141388 -0.0008050000
-0.0401600317 0.0070140535 -0.0008050000
-0.0397691160 -0.0075284338 -0.0008050000
0.0068240936 -0.0070475075 -0.0008050000
0.0306694694 0.0070373369 -0.0008050000
0.0248005074 -0.0061510556 -0.0008050000
-0.0256985358 -0.0071904245 -0.0008050000
-0.0307885580 -0.0063285354 -0.0008050000
-0.0284161541 0.0059354685 -0.0008050000
0.0080322881 0.0086911393 -0.0033900000
0.0015683906 0.0092129214 -0.0033900000
0.0157810074 0.0051122835 -0.0056983575
0.0391224441 0.0051105341 -0.0057108049
0.0315911831 0.0054039372 -0.0036231337
0.0412800479 0.0048712024 -0.0051828654
0.0418997679 -0.0026550425 -0.0061431864
0.0374968851 -0.0057688086 -0.0010269378
0.0296876234 -0.0055229706 -0.0027761657
0.0335450415 -0.0051542056 -0.0054000659
0.0153766798 -0.0059384872 -0.0021558476
-0.0024926345 -0.0056658901 -0.0046053911
0.0031608531 -0.0054174389 -0.0063732134
-0.0065879602 -0.0057850558 -0.0009113333
-0.0126878538 -0.0055287293 -0.0027351915
-0.0218992299 -0.0052486508 -0.0047280534
-0.0330339730 -0.0052160732 -0.0049598551
-0.0077491022 -0.0052704662 -0.0045728280
-0.0418706947 -0.0048609355 -0.0022627777
-0.0419536018 -0.0018145934 -0.0057601377
-0.0220257627 0.0056508737 -0.0018660888
-0.0379707255 0.0052197775 -0.0049334974
-0.0401806258 0.0055690443 -0.0024483349
-0.0382325172 0.0055985202 -0.0022386027
-0.0200539544 0.0050503906 -0.0061387484
-0.0039041953 0.0081328351 -0.0041424682
0.0085208676 0.0059406031 -0.0026507049
0.0287609481 -0.0048082167 -0.0001000000
0.0147295747 -0.0058633592 -0.0001000000
-0.0234067094 -0.0056920320 -0.0001000000
-0.0075744884 -0.0050670099 -0.0001000000
0.0330108012 -0.0063350251 -0.0001000000
-0.0322559069 -0.0069575326 -0.0001000000
-0.0106654933 -0.0066848021 -0.0001000000
0.0295318085 -0.0045273205 -0.0001000000
0.0009910977 -0.0039567032 -0.0001000000
-0.0399439162 -0.0032750108 -0.0001000000
-0.0033315138 -0.0029165824 -0.0001000000
-0.0349830320 -0.0023689193 -0.0001000000
0.0326866902 -0.0023756254 -0.0001000000
0.0442212579 -0.0019358341 -0.0001000000
0.0119458302 -0.0011633013 -0.0001000000
-0.0420090782 -0.0007386724 -0.0001000000
-0.0171118684 -0.0004347307 -0.0001000000
-0.0379967931 0.0004038019 -0.0001000000
-0.0139489601 0.0003968458 -0.0001000000
-0.0020240419 0.0009448412 -0.0001000000
0.0406867529 0.0012851200 -0.0001000000
-0.0409344486 0.0019055054 -0.0001000000
-0.0342210580 0.0022408689 -0.0001000000
-0.0246900167 0.0027139915 -0.0001000000
0.0063311724 0.0030559394 -0.0001000000
0.0353871882 0.0034189738 -0.0001000000
0.0039795991 0.0040755284 -0.0001000000
0.0083309733 0.0044857771 -0.0001000000
0.0218366440 0.0047298303 -0.0001000000
-0.0103714022 0.0061072275 -0.0001000000
0.0067999513 0.0050279701 -0.0001000000
-0.0142578367 0.0051338400 -0.0001000000
0.0274447948 0.0071866104 -0.0001000000
0.0230154761 0.0071521173 -0.0001000000
0.0419344234 0.0061396837 -0.0001000000
0.0040701257 0.0078999996 -0.0001338404
-0.0310799302 -0.0078999996 -0.0001390393
0.0388010236 0.0075526778 -0.0006500000
0.0183074451 0.0052761182 -0.0006500000
0.0252660156 0.0057702248 -0.0006500000
-0.0209033260 0.0057715473 -0.0006500000
-0.0407350799 0.0050587840 -0.0006500000
-0.0353021678 0.0070997169 -0.0006500000
-0.0023947897 0.0077385079 -0.0006500000
-0.0390636660 0.0045098159 -0.0006500000
-0.0432074373 0.0038436661 -0.0006500000
-0.0414584610 0.0034542061 -0.0006500000
0.0067178829 0.0031783629 -0.0006500000
0.0195494516 0.0028213463 -0.0006500000
0.0110762583 0.0022816630 -0.0006500000
0.0431567161 0.0016618781 -0.0006500000
-0.0186134557 0.0013277753 -0.0006500000
0.0035256074 0.0009673629 -0.0006500000
-0.0408102624 0.0003613552 -0.0006500000
0.0272455557 0.0003008894 -0.0006500000
0.0163822715 -0.0001823526 -0.0006500000
0.0226680197 -0.0008196268 -0.0006500000
0.0091839849 -0.0011336196 -0.0006500000
-0.0400608766 -0.0019170957 -0.0006500000
-0.0453304426 -0.0021773526 -0.0006500000
0.0302241832 -0.0022606708 -0.0006500000
0.0035156983 -0.0030228568 -0.0006500000
0.0317177055 -0.0033811716 -0.0006500000
-0.0020315869 -0.0039825659 -0.0006500000
0.0432527037 -0.0044818699 -0.0006500000
0.0403880089 -0.0048488154 -0.0006500000
-0.0228916860 -0.0063110149 -0.0006500000
0.0250248300 -0.0050538963 -0.0006500000
-0.0022181776 -0.0065015922 -0.0006500000
0.0414262717 -0.0061100925 -0.0006500000
0.0332258217 -0.0064891493 -0.0006500000
0.0336748723 -0.0066786331 -0.0006500000
0.0416026804 -0.0059543071 -0.0006500000
0.0403057372 -0.0038245893 -0.0006500000
0.0436177546 0.0008763309 -0.0006500000
0.0324505175 0.0033025367 -0.0006500000
0.0267650622 0.0042172205 -0.0006500000
-0.0195836290 0.0050282816 -0.0006500000
-0.0253487267 0.0061949781 -0.0006500000
-0.0136832138 0.0055262781 -0.0006500000
0.0159583807 0.0075065885 -0.0006500000
0.0065641834 0.0061851090 -0.0006500000
0.0239770561 0.0052155844 -0.0006500000
0.0246893606 0.0057798934 -0.0006500000
0.0010195293 0.0008831511 -0.0006500000
0.0153214600 -0.0011281039 -0.0006500000
0.0180227497 -0.0042661567 -0.0006500000
0.0080250565 -0.0030576514 -0.0006500000
-0.0370753854 0.0064306460 -0.0006500000
-0.0343521704 0.0039218382 -0.0006500000
-0.0416059316 0.0020988640 -0.0006500000
-0.0431082052 -0.0028477210 -0.0006500000
-0.0330452461 -0.0024756219 -0.0006500000
-0.0210723109 -0.0014906214 -0.0006500000
-0.0318836469 0.0004286972 -0.0006500000
-0.0356233099 -0.0053738410 -0.0006500000
-0.0093493150 -0.0027872129 -0.0006500000
0.0195230191 -0.0059832776 -0.0006500000
-0.0052571140 -0.0066090193 -0.0006500000
-0.0097788730 -0.0066115643 -0.0006500000
0.0083408304 -0.0068391781 -0.0006500000
-0.0072130121 -0.0073763265 -0.0006500000
0.0241667080 0.0014193924 -0.0006500000
-0.0164521172 0.0041511655 -0.0006500000
0.0368033001 0.0058501587 -0.0006750000
0.0417691146 0.0043753992 -0.0006750000
0.0403159888 -0.0002492677 -0.0006750000
0.0321527158 -0.0026774671 -0.0006750000
0.0232297229 -0.0031115452 -0.0006750000
-0.0020635674 -0.0075314375 -0.0006750000
-0.0162507755 -0.0065557470 -0.0006750000
-0.0049984315 -0.0065697800 -0.0006750000
0.0330533469 -0.0075790841 -0.0006750000
-0.0246097758 -0.0073818493 -0.0006750000
0.0155636734 -0.0027419282 -0.0006750000
0.0268902409 -0.0053863970 -0.0006750000
0.0085599050 -0.0010935897 -0.0006750000
0.0156793003 0.0008721908 -0.0006750000
0.0131010546 0.0040151622 -0.0006750000
0.0251834079 0.0041391593 -0.0006750000
-0.0341586777 -0.0054598182 -0.0006750000
-0.0302015961 -0.0037243007 -0.0006750000
-0.0360269084 -0.0023705061 -0.0006750000
-0.0393226618 0.0020872805 -0.0006750000
-0.0302003821 0.0037919126 -0.0006750000
-0.0236277040 0.0017763271 -0.0006750000
-0.0255665680 -0.0003325169 -0.0006750000
-0.0196542523 -0.0022332206 -0.0006750000
-0.0152442452 0.0029806538 -0.0006750000
0.0067230297 0.0068549975 -0.0006750000
0.0122404222 0.0076537614 -0.0006750000
-0.0103202756 0.0054879824 -0.0006750000
0.0186552637 0.0074120231 -0.0006750000
0.0060371788 0.0052693360 -0.0006750000
0.0269454638 -0.0009689630 -0.0006750000
0.0253156007 0.0023431180 -0.0006750000
0.0449438933 -0.0006196209 -0.0006750000
0.0217912250 0.0071803245 -0.0006750000
-0.0408582281 0.0070044187 -0.0006750000
-0.0342083612 -0.0075434924 -0.0006750000
-0.0295803153 -0.0075900979 -0.0006750000
0.0371210334 -0.0066112345 -0.0006750000
0.0247920477 -0.0070855522 -0.0006750000
-0.0329186390 -0.0060892650 -0.0006750000
-0.0202496366 0.0060025232 -0.0006750000
0.0310920251 -0.0076000001 -0.0006753023
0.0419789724 -0.0061426976 -0.0008050000
-0.0146710394 -0.0071834768 -0.0008050000
-0.0431841950 -0.0030973339 -0.0008050000
-0.0299795898 0.0074647134 -0.0008050000
0.0234901611 0.0064823774 -0.0008050000
-0.0271989499 0.0059942571 -0.0008050000
-0.0350537925 -0.0058238731 -0.0008050000
0.0311723471 -0.0057998993 -0.0008050000
0.0260532041 0.0057131723 -0.0008050000
-0.0064892468 -0.0046852135 -0.0009250000
0.0071014976 -0.0024503404 -0.0009250000
0.0295972614 -0.0043588354 -0.0009250000
0.0407570640 -0.0028006149 -0.0009250000
0.0370019632 0.0048273646 -0.0009250000
0.0176846691 0.0040990059 -0.0009250000
-0.0066780499 0.0026444210 -0.0009250000
-0.0147097422 0.0046980915 -0.0009250000
-0.0328932057 0.0036914256 -0.0009250000
-0.0393379275 -0.0024899777 -0.0009250000
-0.0180179148 -0.0041135648 -0.0009250000
-0.0151608177 -0.0026024565 -0.0009250000
-0.0012667031 -0.0008967754 -0.0009250000
0.0315611304 0.0002977347 -0.0009250000
0.0269221448 0.0038443378 -0.0009250000
-0.0350153532 -0.0056245080 -0.0014550000
-0.0323106274 -0.0045966871 -0.0014550000
-0.0425041677 0.0005826721 -0.0014550000
-0.0255765990 0.0051661980 -0.0014550000
-0.0194560547 0.0052062733 -0.0014550000
0.0001554433 0.0033769034 -0.0014550000
0.0318386556 0.0046139689 -0.0014550000
0.0386284027 0.0005628783 -0.0014550000
0.0315934257 -0.0039666255 -0.0014550000
0.0267970568 -0.0033883725 -0.0014550000
-0.0038665647 -0.0030902287 -0.0014550000
-0.0149703927 0.0023294694 -0.0014550000
0.0150010083 0.0026851648 -0.0014550000
-0.0299239028 0.0024517125 -0.0014550000
0.0170845851 -0.0015401923 -0.0009656784
0.0044749876 0.0020999999 -0.0010456178
-0.0229724758 -0.0057000001 -0.0009346312
-0.0378888748 0.0057000001 -0.0012217582
0.0425500013 -0.0002306899 -0.0013560389
0.0046397735 -0.0027543880 -0.0008750000
0.0201465162 -0.0044322106 -0.0008750000
0.0175345894 -0.0055516049 -0.0008750000
0.0391012987 0.0034751714 -0.0008750000
0.0156645863 0.0050970449 -0.0008750000
0.0022351309 0.0032655813 -0.0008750000
-0.0225100549 0.0050845417 -0.0008750000
-0.0235734258 0.0048224072 -0.0008750000
-0.0417372027 0.0008041316 -0.0008750000
-0.0303020952 -0.0041987266 -0.0008750000
-0.0226720606 -0.0037874878 -0.0008750000
-0.0000144078 0.0019672160 -0.0008750000
0.0235178915 0.0028795420 -0.0008750000
-0.0319278197 0.0023423419 -0.0008750000
-0.0181867651 -0.0055274147 -0.0009250000
-0.0233625012 -0.0035042056 -0.0009250000
-0.0408084254 -0.0019032287 -0.0009250000
-0.0257869345 0.0035984664 -0.0009250000
-0.0223239784 0.0040705836 -0.0009250000
0.0013132542 0.0030980335 -0.0009250000
0.0282563664 0.0050971158 -0.0009250000
0.0388153051 0.0014278707 -0.0009250000
0.0330876588 -0.0036898684 -0.0009250000
0.0187911684 -0.0043697270 -0.0009250000
-0.0028025407 -0.0026681243 -0.0009250000
-0.0124170108 0.0025184676 -0.0009250000
0.0135592329 0.0024662000 -0.0009250000
-0.0307562889 0.0029147699 -0.0009250000
0.0425500013 -0.0003048913 -0.0008899745
0.0243067886 -0.0053355238 -0.0063600000
0.0232347696 -0.0015583872 -0.0063600000
0.0180780971 -0.0008768665 -0.0063600000
0.0369418547 -0.0053132075 -0.0063600000
0.0403468040 -0.0079427693 -0.0063600000
0.0073114794 -0.0084218727 -0.0063600000
0.0182138556 -0.0004083881 -0.0063600000
0.0328255086 0.0009907352 -0.0063600000
0.0279026821 0.0016616196 -0.0063600000
0.0304422797 0.0038630043 -0.0063600000
0.0345612850 0.0062765701 -0.0063600000
0.0141908094 0.0089805149 -0.0063600000
0.0334315183 0.0086202877 -0.0063600000
-0.0390026315 0.0059628185 -0.0063600000
-0.0177946892 -0.0050953470 -0.0063600000
-0.0274775127 -0.0008166863 -0.0063600000
-0.0240678602 -0.0023057264 -0.0063600000
-0.0062146473 -0.0013424012 -0.0063600000
0.0071110319 -0.0005554544 -0.0063600000
-0.0471934638 -0.0012980026 -0.0063600000
-0.0455350125 -0.0034261040 -0.0063600000
-0.0384525093 -0.0077466425 -0.0063600000
-0.0336965655 -0.0087796650 -0.0063600000
0.0003334913 -0.0051208566 -0.0063600000
0.0042588680 0.0062671763 -0.0063600000
0.0053720522 0.0036045794 -0.0063600000
-0.0046524380 0.0029328886 -0.0063600000
-0.0044470866 0.0025434727 -0.0063600000
-0.0404051219 0.0021610025 -0.0063600000
-0.0276757474 0.0040315964 -0.0063600000
-0.0327300832 0.0026518390 -0.0063600000
-0.0031185135 0.0011929848 -0.0063600000
0.0199429842 0.0047975243 -0.0063600000
0.0131755563 0.0032980660 -0.0063600000
-0.0308245435 0.0068215777 -0.0043600001
-0.0036359286 -0.0065810901 -0.0043600001
-0.0229767081 0.0061689371 -0.0045158049
-0.0031002970 0.0072436852 -0.0056508385
-0.0167844285 0.0076883566 -0.0062677173
-0.0180048544 0.0059711999 -0.0060828303
0.0173577385 0.0060566955 -0.0052781855
0.0224222175 0.0078578299 -0.0063444113
-0.0273358491 -0.0071652805 -0.0044483776
0.0004398053 -0.0071674862 -0.0044495476
0.0166519307 -0.0073267243 -0.0049618151
0.0112353540 -0.0059756681 -0.0048185340
-0.0104108156 -0.0073164817 -0.0057779396
0.0236678058 -0.0058579652 -0.0061108071
-0.0040294730 -0.0092231281 -0.0075076623
0.0293545467 -0.0091288850 -0.0068088391
0.0091523813 -0.0091120404 -0.0071302526
0.0324072703 -0.0087983938 -0.0131149918
-0.0312932495 -0.0090928016 -0.0074973506
-0.0156685949 -0.0090806455 -0.0077293024
-0.0358649318 -0.0090482865 -0.0083467569
0.0437513897 0.0067634719 -0.0115676715
0.0387629398 0.0090782036 -0.0070892940
0.0426976746 -0.0078441034 -0.0064513949
0.0462177996 0.0022101941 -0.0090393282
-0.0314508500 -0.0004735401 -0.0134899998
-0.0324804190 -0.0013550135 -0.0134899998
-0.0203263460 -0.0025935074 -0.0134899998
-0.0187714998 -0.0064556299 -0.0134899998
-0.0315863436 0.0039889394 -0.0134899998
-0.0200440974 -0.0064954549 -0.0134899998
-0.0304465616 0.0071171987 -0.0134899998
0.0049339330 0.0075980134 -0.0134899998
0.0201704274 0.0069500251 -0.0134899998
0.0165362330 0.0072452718 -0.0134899998
0.0172604833 0.0059833060 -0.0134899998
-0.0190688170 0.0081420508 -0.0134899998
0.0121586201 -0.0036639785 -0.0134899998
0.0023971221 0.0052811732 -0.0134899998
-0.0212472896 0.0065232989 -0.0134899998
-0.0020776229 -0.0032448024 -0.0134899998
0.0275423852 -0.0007731920 -0.0134899998
0.0204668545 -0.0026923389 -0.0134899998
0.0209090602 0.0027644205 -0.0134899998
-0.0097407111 0.0058360030 -0.0134899998
-0.0085911423 0.0058108682 -0.0134899998
-0.0024358685 -0.0025070433 -0.0134899998
0.0360269078 0.0031051826 -0.0134899998
0.0311882243 0.0033305302 -0.0134899998
0.0121604149 -0.0056619678 -0.0134899998
-0.0051955479 0.0033478246 -0.0134899998
0.0402331226 0.0003495457 -0.0134899998
0.0238099149 -0.0040778524 -0.0134899998
0.0445386156 -0.0021665354 -0.0134899998
0.0357197972 -0.0057907334 -0.0134899998
0.0392330536 -0.0061724897 -0.0134899998
0.0243847793 -0.0074989465 -0.0134899998
-0.0078485490 -0.0046162049 -0.0134899998
-0.0329999998 0.0004196588 -0.0130063846
-0.0329999998 -0.0081240575 -0.0123092061
-0.0223541579 0.0091291144 -0.0068044578
0.0021284617 0.0091015574 -0.0073302776
-0.0089631465 0.0089105882 -0.0109741916
0.0209667872 0.0089399743 -0.0104134741
0.0025717168 0.0090095803 -0.0090853122
0.0009332610 0.0088431199 -0.0122615640
-0.0215677905 0.0088180482 -0.0127399685
-0.0351775119 0.0052079675 -0.0109900003
-0.0336747503 -0.0006710114 -0.0109900003
-0.0346331536 -0.0078217058 -0.0109900003
-0.0353132255 -0.0032124290 -0.0109900003
-0.0412382188 0.0065692597 -0.0109900003
-0.0406615618 -0.0074925715 -0.0109900003
-0.0441687899 0.0064748297 -0.0103271005
-0.0454051983 -0.0049684891 -0.0107641665
-0.0466963932 0.0019988977 -0.0107591563
0.0307693145 0.0053426461 -0.0083340780
0.0324787660 -0.0054318481 -0.0087220507
0.0303799994 0.0025146660 -0.0115301804
0.0316947562 -0.0010521714 -0.0132500345
0.0325799994 0.0059280847 -0.0112426831
0.0325799994 -0.0032062556 -0.0110988473
0.0226708159 0.0031660960 -0.0080898027
0.0213799998 0.0071764237 -0.0113451279
0.0213799998 -0.0022524482 -0.0120317607
0.0214527557 -0.0047551065 -0.0125630934
0.0235799998 -0.0065434617 -0.0092449152
0.0275547641 -0.0085584764 -0.0085839877
0.0286199593 -0.0005886619 -0.0080853532
0.0273800008 0.0082070864 -0.0115788270
0.0295462549 0.0043870142 -0.0124276940
0.0281221836 0.0029495185 -0.0132117015
0.0295800008 -0.0080599979 -0.0103863802
0.0247427541 -0.0071688178 -0.0083606376
0.0255908011 0.0011123111 -0.0080828022
0.0243800003 0.0026738864 -0.0101582948
0.0265163264 0.0040882194 -0.0125393876
0.0251444985 0.0033335920 -0.0132176807
0.0265800003 0.0052576743 -0.0117116693
-0.0275129013 0.0025403405 -0.0087399194
-0.0282693154 0.0064467473 -0.0081044768
-0.0296199992 0.0029773749 -0.0111635097
-0.0275264701 0.0064343318 -0.0126353947
-0.0293390210 0.0019862388 -0.0129038023
-0.0274199992 0.0027748204 -0.0118959333
-0.0252718300 0.0068073833 -0.0081034855
-0.0248899226 -0.0035389669 -0.0082765506
-0.0266200006 0.0016678765 -0.0120439260
-0.0253661796 -0.0048105934 -0.0132596502
-0.0244200006 0.0050331969 -0.0099783725
-0.0244200006 0.0015565023 -0.0110779241
-0.0234498731 -0.0027520039 -0.0085906111
-0.0236200001 0.0004265326 -0.0098641757
-0.0236200001 0.0012536213 -0.0111076251
-0.0236114838 0.0028830917 -0.0122704486
-0.0214200001 -0.0027026168 -0.0097553155
0.0184541246 -0.0077914322 -0.0087801860
0.0195310475 -0.0008202717 -0.0080775744
0.0183799993 0.0052102476 -0.0114575366
0.0205139659 0.0053158633 -0.0125481934
0.0192881722 0.0011707880 -0.0132561779
0.0205799993 0.0059200323 -0.0120162980
0.0165236011 0.0070655875 -0.0080769229
0.0169980652 -0.0069180444 -0.0082055883
0.0153799998 -0.0066595983 -0.0117593566
0.0169252673 0.0003073778 -0.0131745736
0.0175800007 0.0069844913 -0.0109598240
0.0175800007 -0.0052608955 -0.0115294747
0.0128957659 0.0012702945 -0.0082444509
0.0123800002 0.0032771517 -0.0105581955
0.0123800002 -0.0063804711 -0.0114668816
0.0123878820 -0.0023554784 -0.0122631960
0.0145800002 -0.0043775905 -0.0098024685
0.0094355291 -0.0064199840 -0.0088372245
0.0102730479 -0.0009730438 -0.0080940909
0.0093799997 -0.0013711103 -0.0099956796
0.0103402623 0.0080909831 -0.0132608822
0.0115052133 -0.0030759065 -0.0125674480
0.0115799997 -0.0042217686 -0.0115865885
0.0077154859 0.0083828479 -0.0081017364
0.0077860552 -0.0065213271 -0.0081206453
0.0063800002 -0.0066266525 -0.0104593014
0.0080650340 0.0029542191 -0.0131012053
0.0085800001 0.0044225577 -0.0100568753
0.0085800001 -0.0055604501 -0.0116556857
-0.0083205740 0.0030235981 -0.0084239667
-0.0086200004 0.0086630097 -0.0096534150
-0.0086200004 0.0071207136 -0.0119123732
-0.0086041894 0.0083824643 -0.0123538272
-0.0064200000 -0.0062334274 -0.0094607922
-0.0116198061 0.0048603343 -0.0091708917
-0.0110207798 -0.0000921580 -0.0081975283
-0.0116200000 0.0008913954 -0.0099991213
-0.0105708135 0.0048439277 -0.0132686622
-0.0095132220 -0.0067992312 -0.0126069826
-0.0094200000 0.0070885703 -0.0119819930
-0.0131226122 0.0065191255 -0.0081493160
-0.0134002359 -0.0059298274 -0.0080835864
-0.0146199996 -0.0052559746 -0.0098867093
-0.0128564138 0.0074412485 -0.0130462024
-0.0124199996 0.0021779125 -0.0098327289
-0.0124199996 -0.0046415028 -0.0112135110
-0.0175231799 0.0041728143 -0.0087315176
-0.0176199991 0.0016836315 -0.0097018969
-0.0176199991 -0.0087912751 -0.0099271475
-0.0175550298 0.0066620194 -0.0125442224
-0.0154200001 0.0005758668 -0.0107040389
-0.0206158397 -0.0064050878 -0.0091255608
-0.0200759424 -0.0022265285 -0.0082246409
-0.0206199996 0.0043577764 -0.0112771961
-0.0196125108 -0.0027780296 -0.0132650141
-0.0184368668 -0.0008523994 -0.0123647015
-0.0184199996 -0.0088505190 -0.0112944737
-0.0309403998 0.0088278228 -0.0082412060
-0.0318229432 -0.0037622151 -0.0081198115
-0.0326200016 -0.0010927354 -0.0120097432
-0.0310764367 -0.0016938805 -0.0131753685
-0.0304199997 0.0074983835 -0.0098668541
-0.0304199997 -0.0061026372 -0.0104385594
0.0010769909 -0.0090509435 -0.0165045001
-0.0004211362 -0.0085537211 -0.0146899996
-0.0041097573 -0.0100317200 -0.0118256795
-0.0020890243 -0.0115000000 -0.0147506648
-0.0012790186 -0.0107819813 -0.0068148664
-0.0015430204 -0.0091878478 -0.0126397439
-0.0000646896 -0.0039882592 -0.0066988871
-0.0028065709 -0.0059788237 -0.0113484566
0.0025508827 -0.0058365693 -0.0117570931
0.0007781982 -0.0003626135 -0.0074391062
-0.0039436038 -0.0094455664 -0.0073640914
0.0466513542 -0.0002187954 -0.0115557600
-0.0013891363 -0.0053500002 -0.0056392680
-0.0018681546 -0.0049999999 -0.0033362003
0.0019661426 -0.0041239603 -0.0060100001
0.0093249454 0.0065325761 -0.0060100001
-0.0021314639 0.0077457391 -0.0060100001
0.0126750004 -0.0016488635 -0.0061768374
0.0054663902 0.0053500002 -0.0046565814
0.0020097405 -0.0034944244 -0.0063600000
0.0065043815 0.0029130604 -0.0063600000
0.0100737838 -0.0002298287 -0.0063600000
0.0133914991 -0.0053500002 -0.0017451979
0.0103301552 0.0081183665 -0.0052387992
0.0116581695 0.0054500001 -0.0028058534
-0.0016203376 0.0055794097 -0.0049142319
0.0009234417 0.0052785559 -0.0008339109
0.0073096704 0.0049999999 -0.0026113842
0.0398734449 -0.0032496628 -0.0013400000
-0.0217944592 0.0041652446 -0.0013400000
0.0078189928 0.0037333892 -0.0013400000
-0.0386292024 -0.0026306231 -0.0013400000
-0.0277663893 -0.0037108038 -0.0013400000
0.0125137331 0.0009227763 -0.0013400000
0.0216675765 -0.0040441022 -0.0013400000
-0.0165664900 -0.0000689531 -0.0013400000
-0.0322793218 0.0014982183 -0.0013400000
0.0030156817 0.0024294511 -0.0013400000
0.0152034808 0.0006127168 -0.0013400000
0.0296789101 0.0002648767 -0.0013400000
-0.0378764451 -0.0016367950 -0.0013400000
0.0189589084 -0.0034798787 -0.0018400000
0.0038757283 0.0012470648 -0.0018400000
-0.0199761770 -0.0041896426 -0.0018400000
-0.0403378102 -0.0008523163 -0.0018400000
-0.0254143630 0.0020660711 -0.0018400000
0.0163921317 0.0038763808 -0.0018400000
0.0400520879 0.0028251044 -0.0018400000
-0.0316503066 -0.0020846512 -0.0018400000
0.0047053007 0.0021902666 -0.0018400000
0.0219979814 0.0027326383 -0.0018400000
0.0303636844 -0.0015428594 -0.0018400000
-0.0310638451 -0.0044999998 -0.0048415250
-0.0231598404 -0.0044999998 -0.0042266836
-0.0095261427 -0.0044999998 -0.0029323141
-0.0111354966 -0.0044999998 -0.0047710300
0.0170439178 -0.0044999998 -0.0030971696
0.0388841008 -0.0044999998 -0.0026803065
0.0062551555 -0.0044999998 -0.0052768465
-0.0362774769 -0.0026401022 -0.0052399999
-0.0294800567 -0.0002446272 -0.0052399999
-0.0343709055 0.0025303886 -0.0052399999
-0.0245313139 -0.0026731491 -0.0052399999
-0.0205689683 0.0003776166 -0.0052399999
-0.0070234576 0.0000998683 -0.0052399999
-0.0194653469 0.0018690930 -0.0052399999
-0.0044407794 -0.0038567323 -0.0052399999
0.0098138613 -0.0037448393 -0.0052399999
0.0259627045 -0.0022283850 -0.0052399999
0.0334402873 0.0023044396 -0.0052399999
0.0412978957 -0.0035673184 -0.0052399999
0.0234093470 0.0014246585 -0.0052399999
0.0197845331 0.0019241398 -0.0052399999
0.0249859086 0.0039415302 -0.0052399999
-0.0038263839 0.0039922953 -0.0052399999
0.0008366179 0.0023311539 -0.0052399999
-0.0208711045 0.0040563585 -0.0052399999
-0.0395993264 -0.0049999999 -0.0050233194
-0.0388139568 -0.0049999999 -0.0032355158
-0.0140687353 -0.0049999999 -0.0031043917
-0.0283669915 -0.0049999999 -0.0054044047
0.0178539807 -0.0049999999 -0.0047568146
0.0361497454 -0.0049999999 -0.0052170588
0.0248862718 -0.0049999999 -0.0034905008
-0.0370427815 -0.0046740294 -0.0014082744
0.0327243894 -0.0046377988 -0.0013913798
-0.0020005919 -0.0028926217 -0.0060399999
-0.0093428481 -0.0011580343 -0.0060399999
-0.0069978114 0.0028480822 -0.0060399999
-0.0230757777 -0.0013608359 -0.0060399999
-0.0293826538 -0.0031003853 -0.0060399999
-0.0328915930 -0.0048216383 -0.0060399999
-0.0356868791 0.0028604974 -0.0060399999
-0.0098618644 0.0038780636 -0.0060399999
0.0032967077 -0.0009670770 -0.0060399999
0.0021400367 0.0037510642 -0.0060399999
0.0159190333 0.0010256319 -0.0060399999
0.0214167416 -0.0021886102 -0.0060399999
0.0256497782 -0.0008594731 -0.0060399999
0.0314364833 0.0027645899 -0.0060399999
0.0390765024 -0.0005680634 -0.0060399999
0.0211462419 -0.0048446432 -0.0060399999
0.0080751323 -0.0018138502 -0.0060399999
0.0222241482 -0.0049749999 -0.0053620646
-0.0319972232 -0.0049749999 -0.0058785138
0.0262270269 0.0049999999 -0.0044579192
0.0218537111 0.0049999999 -0.0041146532
-0.0398445719 0.0049999999 -0.0033863162
-0.0297214073 0.0049999999 -0.0055917923
-0.0281251906 0.0049999999 -0.0024430409
-0.0117613538 0.0049999999 -0.0028854114
-0.0208747222 0.0049999999 -0.0034605915
0.0023358291 0.0049999999 -0.0031239162
-0.0185959850 0.0044999998 -0.0043367347
-0.0239924320 0.0044999998 -0.0059321522
0.0247403361 0.0044999998 -0.0032302627
0.0147387540 0.0044999998 -0.0029506395
-0.0138186120 0.0044999998 -0.0024938862
0.0325606157 0.0044999998 -0.0020398981
0.0334378907 0.0044999998 -0.0040200947
0.0369503829 0.0044999998 -0.0033455118
-0.0336532299 0.0045115420 -0.0013510857
-0.0043049100 0.0049584260 -0.0017232299
0.0413499996 0.0009066784 -0.0050124241
0.0413707959 0.0001258201 -0.0059400001
-0.0413499996 -0.0027855945 -0.0052405230
-0.0395499989 -0.0042968916 -0.0015816731
0.0146351365 0.0046372492 -0.0059400001
-0.0237499997 0.0041583439 -0.0053878333
0.0268477679 -0.0045785891 -0.0059400001
0.0196618144 0.0013855054 -0.0053900001
0.0323500000 0.0001067322 -0.0059438067
0.0093639101 0.0017512117 -0.0023329735
0.0274400621 -0.0005052952 -0.0016225861
-0.0038684420 -0.0007792046 -0.0027399999
-0.0035459970 0.0013334756 -0.0015942456
0.0080492413 0.0021810650 -0.0019400000
-0.0171502354 -0.0041788502 -0.0013150000
-0.0393759869 -0.0012986652 -0.0013150000
-0.0122202937 0.0035568869 -0.0013150000
0.0070118923 0.0034906063 -0.0013150000
0.0197217598 0.0029298846 -0.0013150000
0.0398338583 0.0000161642 -0.0013150000
0.0374440753 0.0039012936 -0.0013150000
-0.0272568185 -0.0000286878 -0.0013150000
-0.0390103333 0.0023076498 -0.0013150000
-0.0295847708 -0.0018222947 -0.0013150000
0.0121253200 -0.0016827091 -0.0013150000
0.0261262008 -0.0018251180 -0.0013150000
0.0096400774 0.0009714967 -0.0013150000
-0.0026144389 0.0012085134 -0.0013150000
-0.0220987226 -0.0005614975 -0.0013150000
-0.0078470783 0.0024175248 -0.0013974753
0.0293361598 -0.0036859403 -0.0012650000
0.0176694298 0.0044826068 -0.0012650000
0.0331478383 0.0031302571 -0.0012650000
0.0281571344 -0.0016100737 -0.0012650000
-0.0096439283 0.0041609350 -0.0012650000
-0.0271846339 0.0029023484 -0.0012650000
-0.0337360200 -0.0032806062 -0.0012650000
-0.0258465634 -0.0036011799 -0.0012650000
0.0137186823 -0.0036470352 -0.0012650000
-0.0294527697 -0.0008926629 -0.0012650000
-0.0274623203 0.0019875156 -0.0012650000
0.0105359791 0.0015904180 -0.0012650000
0.0128514271 -0.0014078958 -0.0012650000
-0.0002976057 0.0009407872 -0.0012650000
0.0110090049 0.0007111271 -0.0012650000
-0.0291217161 -0.0039209862 -0.0013400000
-0.0401170035 -0.0019949712 -0.0013400000
-0.0398470023 0.0043417385 -0.0013400000
0.0046907583 0.0024703650 -0.0013400000
0.0357454109 0.0037671190 -0.0013400000
0.0327939562 -0.0036814310 -0.0013400000
0.0023986391 -0.0036101370 -0.0013400000
-0.0017626225 0.0001728853 -0.0013400000
0.0002448292 -0.0021450136 -0.0013400000
0.0239985910 0.0004152450 -0.0013400000
0.0373982408 -0.0020907402 -0.0013400000
-0.0165642843 0.0004267365 -0.0013400000
-0.0293075831 0.0009819773 -0.0013400000
-0.0265944266 -0.0005728713 -0.0013400000
0.0240474415 -0.0023783495 -0.0013150000
0.0277177730 0.0026906205 -0.0013150000
0.0287684237 -0.0035447571 -0.0013150000
0.0057332513 0.0033239478 -0.0013150000
-0.0216145491 0.0042513326 -0.0013150000
-0.0391375447 -0.0018209625 -0.0013150000
-0.0104291473 -0.0042856996 -0.0013150000
0.0004059826 -0.0015636082 -0.0013150000
0.0153371863 -0.0008533626 -0.0013150000
-0.0007559712 -0.0027757634 -0.0013150000
0.0384225188 -0.0031322354 -0.0013150000
-0.0217818887 -0.0001078145 -0.0013150000
-0.0246707632 -0.0011061200 -0.0013150000
-0.0225862022 -0.0007215679 -0.0013150000
0.0114156297 -0.0025516950 -0.0013700000
0.0061018078 -0.0024357863 -0.0024699999
-0.0005495831 -0.0047735799 -0.0024700002
-0.0005079360 -0.0035341623 -0.0013700000
0.0042332766 -0.0030771555 -0.0014700000
0.0082486144 0.0013047738 -0.0016067041
-0.0001634123 0.0065127203 -0.0040092071
0.0091272437 0.0068687868 -0.0041077614
0.0101028250 0.0071386270 -0.0087824520
-0.0351169197 -0.0028196793 -0.0200500004
-0.0334172400 -0.0052342456 -0.0200500004
-0.0220899585 0.0055397540 -0.0200500004
-0.0105606672 0.0053528617 -0.0200500004
0.0020176523 0.0046797002 -0.0200500004
-0.0134854955 0.0028457325 -0.0200500004
0.0021796380 0.0028150532 -0.0200500004
0.0153057873 0.0036955420 -0.0200500004
0.0249950217 0.0053888454 -0.0200500004
0.0242796469 0.0015824118 -0.0200500004
0.0420334292 0.0028864126 -0.0200500004
0.0272125391 0.0002365805 -0.0200500004
0.0348631095 -0.0017532783 -0.0200500004
0.0342798000 -0.0032681579 -0.0200500004
0.0290859237 -0.0062877271 -0.0200500004
0.0143828520 -0.0050418736 -0.0200500004
0.0065034704 -0.0038076544 -0.0200500004
-0.0037877834 -0.0029767895 -0.0200500004
0.0002876086 -0.0063331443 -0.0200500004
-0.0050806837 -0.0062215374 -0.0200500004
-0.0181486698 -0.0038253048 -0.0200500004
-0.0309962072 -0.0060855200 -0.0200500004
0.0066354733 -0.0005686191 -0.0200500004
-0.0029708181 0.0003587181 -0.0200500004
-0.0271868779 0.0022941832 -0.0200500004
-0.0357999988 0.0053150965 -0.0195298892
-0.0357999988 -0.0113306760 -0.0125327039
-0.0357999988 0.0098103667 -0.0124938743
-0.0267924342 0.0105248253 -0.0180776885
-0.0231632924 0.0074988514 -0.0200006856
-0.0139862431 0.0088645951 -0.0195641110
-0.0050035470 0.0109811606 -0.0172928662
-0.0113869776 0.0105734698 -0.0180085181
-0.0242437122 0.0090057063 -0.0194897853
0.0004712681 0.0088534026 -0.0195720880
0.0251167207 0.0113719712 -0.0162388734
0.0354302290 0.0067556350 -0.0200486874
0.0033101817 0.0084010352 -0.0197761652
0.0190158755 0.0099056818 -0.0188025995
0.0100419476 0.0082340149 -0.0198331184
0.0292091477 0.0103041623 -0.0183697883
0.0454532424 0.0071178276 -0.0183599714
0.0492255983 -0.0022098313 -0.0159663136
0.0451616641 0.0003875431 -0.0200328452
0.0426809023 0.0064127670 -0.0199154164
0.0435262944 -0.0063405785 -0.0197695668
0.0375338937 -0.0101691193 -0.0185283780
0.0190912419 -0.0114011824 -0.0161353752
0.0158492102 -0.0080467416 -0.0198927019
0.0365355080 -0.0101594806 -0.0185390006
0.0167281736 -0.0102554673 -0.0184277072
0.0260390142 -0.0086935498 -0.0196526918
0.0103623212 -0.0074639180 -0.0200058229
-0.0327796268 -0.0091317332 -0.0194100046
-0.0309325262 -0.0071833446 -0.0200322905
-0.0137630795 -0.0083861830 -0.0197831533
-0.0073226003 -0.0114186519 -0.0160697674
-0.0212584215 -0.0107075735 -0.0178000644
-0.0342599951 -0.0102646512 -0.0184140575
-0.0375952796 -0.0049683825 -0.0106899999
-0.0352687430 0.0082803690 -0.0106899999
-0.0381356280 0.0010613474 -0.0106899999
-0.0430497657 -0.0065707282 -0.0106899999
-0.0457902707 -0.0048649640 -0.0106899999
-0.0454968758 -0.0070328137 -0.0106899999
-0.0346999988 0.0002565462 -0.0122025514
-0.0183881632 0.0101141822 -0.0134899998
0.0051793918 0.0094445661 -0.0134899998
0.0018464749 0.0085849907 -0.0134899998
0.0206609623 0.0101081226 -0.0134899998
0.0074087073 0.0084246134 -0.0134899998
0.0360391309 0.0067208005 -0.0134899998
0.0043431916 0.0067745625 -0.0134899998
0.0405187282 0.0055506348 -0.0134899998
0.0246000805 0.0066512419 -0.0134899998
0.0268998488 0.0091428880 -0.0134899998
0.0184412693 0.0070704669 -0.0134899998
-0.0200962407 0.0030579460 -0.0134899998
-0.0277475563 -0.0041636110 -0.0134899998
-0.0097526281 -0.0004308857 -0.0134899998
0.0207906052 -0.0007228173 -0.0134899998
-0.0271132139 0.0026684490 -0.0134899998
-0.0165835426 -0.0013393206 -0.0134899998
-0.0052275575 0.0028536640 -0.0134899998
-0.0289384807 -0.0021635005 -0.0134899998
0.0179793894 -0.0011747112 -0.0134899998
0.0250482517 0.0014371811 -0.0134899998
-0.0062135139 0.0032619169 -0.0134899998
-0.0134343224 -0.0061283943 -0.0134899998
-0.0175693853 -0.0057438794 -0.0134899998
0.0191707252 -0.0058192055 -0.0134899998
0.0299740785 -0.0069735356 -0.0134899998
0.0417190431 -0.0080807627 -0.0134899998
0.0436863116 -0.0050643153 -0.0134899998
-0.0093683561 -0.0073468310 -0.0134899998
-0.0172452912 -0.0097749499 -0.0134899998
-0.0247375274 -0.0093508447 -0.0134899998
-0.0256292405 -0.0097228981 -0.0134899998
0.0138532329 -0.0105027577 -0.0134899998
0.0454542282 -0.0042334349 -0.0134899998
0.0175367661 -0.0038105301 -0.0134899998
-0.0080236703 -0.0038312663 -0.0134899998
-0.0068324400 -0.0036460737 -0.0134899998
0.0361465505 0.0020318754 -0.0134899998
0.0233543643 0.0025632105 -0.0134899998
-0.0083370479 0.0042378167 -0.0134899998
0.0399798361 0.0040084990 -0.0134899998
0.0247219643 0.0050644944 -0.0134899998
0.0364274604 0.0105498014 -0.0146953284
0.0164487243 0.0105498014 -0.0151384635
-0.0017344182 0.0105498014 -0.0146393048
-0.0250147077 0.0105498014 -0.0150700187
0.0408489515 -0.0101527192 -0.0148524342
0.0479847879 0.0033972154 -0.0156101002
-0.0124766396 -0.0105498014 -0.0147113094
-0.0180107414 -0.0105498014 -0.0158134238
-0.0236959922 -0.0105498014 -0.0143749396
-0.0130991424 -0.0105498014 -0.0136004891
0.0273041499 -0.0105498014 -0.0154334451
-0.0346570467 0.0051568397 -0.0113180233
-0.0360513062 -0.0098730116 -0.0096899997
-0.0480993517 -0.0017203694 -0.0105246724
-0.0234171495 -0.0113031218 -0.0159000009
0.0117689087 -0.0109541239 -0.0159000009
0.0462359228 0.0070142097 -0.0159000009
-0.0180922750 0.0105757488 -0.0159000009
-0.0344499983 -0.0105871738 -0.0127702468
-0.0454496107 0.0085431625 -0.0114868087
-0.0360060606 -0.0003361750 -0.0120400004
-0.0392313786 0.0042787164 -0.0120400004
-0.0441596261 0.0021648679 -0.0120400004
-0.0413132403 0.0005603868 -0.0120400004
-0.0415163013 -0.0081646080 -0.0120400004
-0.0478403719 -0.0029033554 -0.0120400004
-0.0351948162 0.0020526674 -0.0174499992
-0.0332311568 -0.0011771228 -0.0142900003
-0.0328000002 -0.0021453787 -0.0145893354
-0.0229455889 -0.0011661923 -0.0179375409
0.0228998776 -0.0011820238 -0.0181024342
0.0074657450 0.0092000002 -0.0156647868
-0.0387174399 0.0004003538 -0.0109942685
0.0079504823 0.0092000002 -0.0168711181
-0.0032182360 0.0093931663 -0.0174400005
-0.0000367207 0.0111079564 -0.0140399998
0.0073638483 0.0114970804 -0.0151758471
0.0026702008 0.0093703022 -0.0161157107
-0.0040938135 0.0082678597 -0.0169900004
0.0078720962 0.0093414985 -0.0150061027
0.0022630005 -0.0097303907 -0.0018075207
-0.0098851543 -0.0098412580 -0.0022384435
0.0059593693 -0.0098709202 -0.0023537357
0.0147092443 -0.0099876388 -0.0028074019
-0.0198941078 -0.0100824264 -0.0029462268
-0.0333729604 -0.0103330067 -0.0038086482
-0.0222104013 -0.0100274295 -0.0026209229
0.0085249736 -0.0098133286 -0.0017887487
0.0211680783 -0.0097976929 -0.0017279746
