-0.0325000101 -0.0713570205 -0.0016601165
-0.0293166318 -0.0719082495 0.0030495254
-0.0147326358 -0.0705081157 0.0015815965
-0.0202269884 -0.0701755030 -0.0006265650
-0.0263632482 -0.0711615410 -0.0024755907
-0.0219554446 -0.0735573695 -0.0034953442
-0.0183986768 -0.0756292967 -0.0028483386
-0.0279018520 -0.0767982945 -0.0014294489
-0.0319150143 -0.0769684661 0.0009647510
-0.0240707236 -0.0757043310 0.0027946067
-0.0294172449 -0.0738069867 0.0034828245
-0.0068857601 -0.0613283199 -0.0110004993
-0.0019999880 -0.0676362567 0.0026126204
-0.0019999908 -0.0662095529 0.0058143849
-0.0019999909 -0.0754551632 0.0059158308
-0.0019999918 -0.0716837715 0.0069552908
-0.0019999863 -0.0652558106 0.0006231721
-0.0019999847 -0.0671347320 -0.0012485574
-0.0019999862 -0.0626533690 0.0005123136
-0.0019999788 -0.0680191913 -0.0081014897
-0.0019999814 -0.0577585342 -0.0050941797
-0.0052603633 -0.0787813062 0.0109993647
-0.0099999952 -0.0695799358 0.0037878470
-0.0099999718 -0.0687829056 0.0081473210
-0.0099999958 -0.0746495164 -0.0046991394
-0.0100000132 -0.0757108284 -0.0086024981
-0.0100000065 -0.0783598811 -0.0055672304
-0.0099999806 -0.0560529314 0.0053101334
-0.0099999916 -0.0623064827 0.0007093033
-0.0099999842 -0.0657495565 0.0030597074
-0.0025551776 -0.0603492520 0.0103555699
-0.0021854683 -0.0588711886 -0.0097738156
-0.0039881149 -0.0635635590 -0.0109989502
-0.0096402789 -0.0586793674 -0.0101277117
-0.0095698943 -0.0748777493 0.0102160270
-0.0090448318 -0.0560000797 0.0088228588
-0.0042933194 -0.0560000754 0.0081378841
-0.0076842846 -0.0560000733 0.0078892377
-0.0039177129 -0.0559999850 -0.0029740212
-0.0064335551 -0.0790000353 0.0028686538
-0.0090162147 -0.0790000755 0.0077660894
-0.0067938496 -0.0789999588 -0.0064249663
0.0087888295 -0.0232898098 -0.0078501930
0.0097285504 -0.0522628496 -0.0078504281
0.0095210970 -0.0360897288 -0.0078502971
0.0099649491 -0.0506484659 -0.0078504152
0.0095502836 -0.0633585639 0.0057002880
0.0081707658 -0.0055473718 0.0078499598
0.0079820497 -0.0291871967 0.0078497687
0.0088061423 -0.0282170797 0.0078497749
0.0094358745 0.0235597415 0.0054997369
0.0076999922 0.0003133197 0.0030712237
0.0076999981 -0.0081762964 -0.0003944353
0.0076999932 -0.0279646983 0.0024835976
0.0076999921 -0.0308013968 0.0031068078
0.0076999845 -0.0318454262 0.0076242604
0.0076999862 -0.0018714877 0.0066031288
0.0076999897 -0.0149423207 0.0045798682
0.0076999932 0.0061025251 0.0024610128
0.0076999949 -0.0259432138 0.0015014011
0.0076999942 -0.0149133440 0.0018975440
0.0076999918 0.0035909747 0.0032884507
0.0076999951 -0.0103899442 0.0013643694
0.0077000023 -0.0432045471 -0.0029152421
0.0076999984 -0.0328543641 -0.0005756381
0.0077000071 -0.0500043699 -0.0057394795
0.0076999926 -0.0358766826 0.0028143580
0.0076999999 -0.0377325108 -0.0014920915
0.0076999890 -0.0575674973 0.0049706057
0.0076999992 -0.0244683289 -0.0010452871
0.0076999941 -0.0322135560 0.0019488819
0.0077000105 -0.0022361872 -0.0077242497
0.0077000036 -0.0272526808 -0.0036554679
0.0076999925 -0.0424675153 0.0028955913
0.0077000023 -0.0497295314 -0.0029051807
0.0077000028 -0.0653402925 0.0017268388
0.0076999945 -0.0599860435 -0.0056674324
0.0076999771 -0.0644419158 -0.0015968338
0.0076999904 0.0196034227 -0.0019479993
0.0100000248 0.0043889077 -0.0078001059
0.0100000154 -0.0015058206 -0.0022871977
0.0100000211 0.0117523307 -0.0056093413
0.0100000222 0.0157387303 -0.0062925102
0.0100000236 -0.0447549158 -0.0070831217
0.0100000095 -0.0043388645 0.0011318201
0.0100000124 -0.0000257106 -0.0005887934
0.0100000154 0.0124945187 -0.0023357130
0.0100000226 -0.0272492248 -0.0065096454
0.0100000146 -0.0269170537 -0.0018741047
0.0100000204 -0.0280038356 -0.0052264360
0.0100000068 0.0152930059 0.0026927893
0.0100000023 -0.0575168833 0.0052766316
0.0100000110 -0.0453914674 0.0002661287
0.0099999998 -0.0403960363 0.0067454513
0.0099999984 -0.0247294344 0.0075685257
0.0100000125 -0.0307658926 -0.0006147738
0.0100000123 -0.0427002007 -0.0005073560
0.0100000068 -0.0564790795 0.0027060731
0.0100000026 -0.0006514662 0.0051017306
0.0100000185 -0.0487544597 -0.0041212490
0.0099999996 -0.0563168759 0.0068858539
0.0100000037 -0.0306738089 0.0044885722
0.0100000000 -0.0400022810 0.0066635907
0.0099999986 0.0208984845 0.0006966440
0.0099999864 0.0228596772 0.0054162558
0.0100000156 -0.0594298892 0.0027298810
-0.0089999984 -0.0461913468 0.0209505031
-0.0095212356 0.0078544486 0.0155000624
-0.0083858556 0.0012983030 0.0155000085
-0.0095698062 -0.0099550517 0.0234999172
-0.0089976943 0.0045504554 0.0235000390
-0.0095774729 0.0099998203 0.0229017556
-0.0099999985 -0.0151775563 0.0176145203
-0.0099999893 -0.0234305235 0.0230580378
-0.0099999855 -0.0155056431 0.0233274215
-0.0099999891 -0.0164921981 0.0155757387
-0.0099999930 -0.0095961506 0.0161306499
-0.0099999857 -0.0280928520 0.0222001137
-0.0099999857 -0.0356776829 0.0200359568
-0.0099999826 -0.0180565683 0.0212975575
-0.0099999993 -0.0402346813 0.0178408754
-0.0099999899 -0.0233415193 0.0176400919
-0.0080004383 -0.0223049807 0.0186096999
-0.0080002247 -0.0094856260 0.0170024019
-0.0080016431 -0.0267682687 0.0159053891
-0.0080000655 -0.0039063008 0.0169089569
-0.0080002156 -0.0032268566 0.0172259007
-0.0080009590 -0.0214797274 0.0225644073
-0.0080001019 -0.0036443371 0.0169689841
-0.0089224142 0.0048745645 0.0191587365
0.0075311236 -0.0612879362 0.0183322487
0.0099793285 -0.0366972764 0.0130997060
0.0073048052 0.0139987086 0.0131001101
0.0090592136 -0.0437123151 0.0130996468
0.0079009862 -0.0351072638 0.0130997137
0.0089523046 0.0198137723 0.0152975283
0.0093618469 -0.0371768608 0.0258997003
0.0086155302 -0.0216810001 0.0258998219
0.0083039955 0.0042133857 0.0259000298
0.0082673359 0.0039225038 0.0259000273
0.0092211829 0.0093293757 0.0259000758
0.0099999896 0.0049724983 0.0256102951
0.0099999899 -0.0042705447 0.0232900850
0.0099999900 -0.0026465701 0.0227693687
0.0099999896 -0.0538000073 0.0253046355
0.0099999902 -0.0357948562 0.0212106254
0.0099999901 -0.0396759422 0.0217162415
0.0099999895 -0.0311544892 0.0258139396
0.0099999900 -0.0296080770 0.0223857601
0.0099999906 0.0063367730 0.0183969673
0.0099999907 -0.0137668174 0.0176901870
0.0099999907 -0.0158900381 0.0178095162
0.0099999912 0.0104521949 0.0146301276
0.0099999906 0.0131182035 0.0185995044
0.0099999898 0.0111428556 0.0243883715
0.0099999906 0.0104744655 0.0188359028
0.0099999905 0.0036952054 0.0194920677
0.0099999912 -0.0207841480 0.0143768196
0.0099999981 -0.0561231920 0.0149256492
0.0099999839 -0.0588633494 0.0212110609
0.0099999856 0.0176132619 0.0182324978
0.0070000262 -0.0085767432 0.0213755692
0.0070000261 -0.0098656484 0.0217793876
0.0070000253 -0.0246809392 0.0246457162
0.0070000253 -0.0231067267 0.0244408365
0.0070000273 0.0106846605 0.0175540149
0.0070000273 0.0032508273 0.0176493313
0.0070000260 -0.0289023850 0.0221455029
0.0070000264 0.0129345558 0.0208718515
0.0070000249 0.0088535738 0.0257640559
0.0070000276 -0.0105731549 0.0167435739
0.0070000261 -0.0523299600 0.0219046578
0.0070000274 -0.0340410471 0.0173099355
0.0070000269 -0.0507669717 0.0189731690
0.0070000282 -0.0300709514 0.0145346996
0.0070000266 -0.0332590228 0.0200150080
0.0070000282 -0.0372160491 0.0146261137
0.0070000277 -0.0115475170 0.0162526411
0.0070000277 -0.0364024157 0.0161609006
0.0069999818 -0.0598084121 0.0163245291
0.0069999867 0.0196990534 0.0216411496
0.0099976062 -0.0654887886 0.0029747235
0.0099856213 0.0136350780 0.0089221405
0.0099981444 -0.0509554390 -0.0090846640
0.0099999873 -0.0083255248 -0.0084250141
-0.0012610036 -0.0595703318 -0.0111843197
0.0009642232 -0.0688029400 0.0025150665
-0.0016892843 -0.0588022579 0.0113240535
0.0064802842 -0.0540128651 -0.0101668396
-0.0054898322 0.0106759246 -0.0114990002
0.0008179525 -0.0352831844 0.0111268183
0.0038771161 -0.0337063568 0.0106829680
0.0045081725 -0.0121388041 0.0105672255
0.0047226198 -0.0044229965 0.0105278956
0.0006195122 -0.0355291838 0.0111510262
-0.0010041005 0.0152721689 0.0112939791
-0.0016011857 0.0072108934 0.0113411616
-0.0013652319 -0.0186625820 0.0113223554
-0.0016998512 -0.0250986729 0.0113487867
-0.0043903118 -0.0023767532 0.0114721561
-0.0040649823 -0.0021541222 0.0114636160
-0.0048511075 -0.0042623105 0.0114838115
-0.0035316161 -0.0349427846 0.0114493357
-0.0055746331 -0.0343706226 0.0114961922
-0.0062971046 0.0113710290 0.0114226744
-0.0069267918 -0.0375574750 0.0112612242
-0.0076051101 -0.0017381648 0.0109909110
-0.0081807001 -0.0431799022 0.0106170803
-0.0087669353 -0.0330448656 0.0101251860
-0.0092948749 -0.0009720020 0.0095109839
-0.0094823230 -0.0130674124 0.0091999238
-0.0098960774 -0.0227483529 0.0082506235
0.0088760274 -0.0635668284 0.0077408937
0.0079855299 -0.0662655076 -0.0052001886
-0.0099828938 -0.0499867114 -0.0079687141
0.0083586575 -0.0058276929 -0.0096834817
0.0069324746 -0.0377870213 -0.0100580140
0.0096537881 -0.0225835896 -0.0093441315
0.0088052219 -0.0488860942 -0.0095671029
-0.0099141793 0.0092099562 -0.0082013352
0.0079222325 0.0261799667 -0.0053610142
0.0079107813 0.0252954877 0.0065235000
-0.0093479117 -0.0096674440 -0.0094294555
-0.0094237524 0.0271650503 -0.0000192143
-0.0092491388 0.0114256686 -0.0095667691
-0.0085625170 -0.0498005382 -0.0103220868
-0.0086967147 0.0226850947 0.0089485079
-0.0080643154 -0.0310578449 -0.0107213709
-0.0079392661 0.0286733141 0.0012632656
-0.0071357257 -0.0402937503 -0.0111929784
-0.0065772696 -0.0459392471 -0.0113639588
-0.0068778107 0.0254355292 0.0084171026
-0.0058111708 0.0235660532 -0.0099974161
-0.0028660606 0.0247780864 -0.0091751037
-0.0043262036 0.0274420582 0.0064877536
-0.0019354369 0.0183060844 -0.0113455962
-0.0007737182 0.0292400513 0.0005330891
-0.0014307790 0.0188804013 0.0112921591
0.0088397617 0.0140912861 0.0095569346
0.0091230428 -0.0272898821 0.0094830500
0.0048666250 0.0242715749 -0.0083822311
0.0051390864 0.0231595994 0.0090454752
0.0018482154 0.0261050605 -0.0073715832
0.0003688604 0.0283682291 0.0041603920
0.0040003639 0.0186655710 0.0106241209
0.0086813178 -0.0362577290 0.0095990355
0.0084332768 -0.0430807606 0.0096640392
0.0051677789 -0.0027761862 0.0104455728
0.0052126013 -0.0566305143 0.0104356824
0.0060884839 -0.0589312972 0.0101938737
0.0054807407 -0.0667795934 -0.0054696155
0.0032720923 0.0098574098 0.0107860823
0.0035054939 -0.0256945346 0.0107502827
0.0034705203 -0.0133854871 0.0107556815
0.0024805971 -0.0683470522 0.0032942455
0.0032068214 -0.0630365989 -0.0095003965
-0.0019999966 -0.0569698086 -0.0027649559
-0.0019999962 -0.0591016207 0.0083697233
-0.0019999981 -0.0624865631 -0.0062518771
-0.0019999881 -0.0665720055 0.0046357095
-0.0019999962 -0.0632286614 -0.0020875544
-0.0032435285 -0.0560002338 0.0013189856
-0.0046483032 -0.0560003674 0.0110921621
-0.0082120997 -0.0560000958 0.0043814901
0.0049727700 -0.0523460447 -0.0107804446
0.0064999861 0.0067116592 -0.0110350074
-0.0054911013 -0.0051178399 -0.0115000354
-0.0031836503 -0.0200246018 -0.0115001578
-0.0031436261 -0.0308886956 -0.0115002330
0.0037775785 -0.0303418243 -0.0115002440
0.0054559395 -0.0293917904 -0.0115002337
0.0058414859 0.0045591538 -0.0114999577
0.0020077971 -0.0332666406 -0.0115002677
-0.0016569740 -0.0434850127 -0.0115003218
0.0037142939 -0.0465836681 -0.0115003725
-0.0006605448 -0.0524943131 -0.0115003899
0.0044193488 -0.0003040953 -0.0114999979
-0.0011021572 0.0123505382 -0.0114998816
-0.0002992028 0.0123189126 -0.0114998838
0.0000739460 -0.0131377774 -0.0115001018
-0.0006668932 0.0000877450 -0.0114999965
0.0040370560 0.0043103244 -0.0114999602
-0.0003135337 -0.0191467412 -0.0096001533
0.0096112813 0.0000107041 -0.0079500017
0.0086979541 -0.0190266269 -0.0079501555
0.0091174265 -0.0348603679 -0.0079502840
0.0089168641 -0.0658102403 0.0013533014
0.0096989588 -0.0063248819 0.0079499478
0.0091916040 -0.0233883814 0.0079498096
0.0088010200 0.0024591542 0.0079500189
0.0082540033 0.0220869471 -0.0068000971
0.0077000048 0.0183945192 -0.0045907021
0.0076999975 -0.0457249089 -0.0061063859
0.0076999972 -0.0079203270 -0.0028962864
0.0076999968 0.0083465599 0.0009849570
0.0076999969 0.0086014504 0.0005676805
0.0076999971 -0.0156152770 -0.0015361739
0.0076999968 0.0178666109 0.0010245802
0.0076999973 -0.0201248214 -0.0036379070
0.0076999976 0.0126881255 -0.0079157897
0.0076999968 -0.0001524765 0.0012073108
0.0076999976 -0.0134915744 -0.0074213198
0.0076999972 0.0009584545 -0.0026732183
0.0076999975 -0.0358573314 -0.0065669548
0.0076999967 -0.0544118770 0.0025074363
0.0076999966 -0.0247710826 0.0042843361
0.0076999966 -0.0202295537 0.0042915989
0.0076999965 -0.0365811928 0.0049377270
0.0076999964 -0.0168548679 0.0064630048
0.0076999974 -0.0577735968 -0.0048687779
0.0076999967 -0.0548270993 0.0026935668
0.0076999965 -0.0123127994 0.0050844188
0.0076999966 -0.0555418131 0.0039911198
0.0076999972 -0.0393671491 -0.0025939802
0.0076999972 -0.0528897506 -0.0033957594
0.0076999981 -0.0580278728 -0.0056113049
0.0077000153 0.0201464645 0.0067014755
0.0077000026 0.0246506191 -0.0008321676
0.0077000035 0.0253314547 -0.0006798386
-0.0100000039 -0.0037438474 0.0076949676
-0.0099999908 -0.0377339788 0.0027685685
-0.0100000034 -0.0132685949 0.0075390783
-0.0099999949 -0.0286249366 0.0043079200
-0.0100000056 -0.0490711265 0.0026813513
-0.0100000059 -0.0448990944 -0.0007112946
-0.0100000040 0.0190218513 0.0006282115
-0.0100000032 0.0128096265 0.0078648624
-0.0099999907 -0.0043790206 -0.0075561136
-0.0099999913 -0.0254223064 -0.0058288352
-0.0099999872 -0.0504348148 -0.0059966158
-0.0099999969 -0.0244456903 -0.0033494700
-0.0099999914 -0.0241296457 -0.0058795296
-0.0100000186 -0.0197651020 -0.0009410652
-0.0100000120 -0.0212983234 -0.0026547012
-0.0100000130 -0.0100545490 -0.0024963368
-0.0099999954 0.0155801970 -0.0068980662
-0.0100000083 -0.0067225816 0.0026984173
-0.0100000087 -0.0006459772 0.0028248274
-0.0100000068 -0.0171677002 0.0032205595
-0.0100000093 -0.0024365663 0.0020010770
-0.0100000051 0.0173287023 -0.0007311182
-0.0100000047 0.0187292527 -0.0037923614
-0.0099999959 -0.0012363709 -0.0005255225
-0.0099999966 0.0177165701 0.0060432659
-0.0095726482 -0.0430119657 0.0010954362
-0.0095806982 0.0014736414 -0.0007030321
0.0099956531 -0.0623645179 0.0068488713
0.0099045557 -0.0572405205 0.0092658842
-0.0169930050 -0.0410944084 -0.0008902355
-0.0079769616 -0.0411093144 -0.0003165932
-0.0105900630 -0.0427381687 0.0016414395
-0.0169655600 -0.0419730149 0.0020304675
-0.0151477006 0.0035554641 -0.0023352472
-0.0135224211 0.0013932644 0.0011660581
-0.0168682986 0.0002485444 0.0013059046
-0.0096497601 0.0167047146 0.0153487005
-0.0083765542 0.0192036233 0.0179059425
-0.0072202961 0.0193423136 0.0206196410
-0.0023344983 0.0177363618 0.0230597499
0.0042226638 -0.0471700468 0.0239995733
-0.0019898004 -0.0480221999 0.0239994618
-0.0021912937 -0.0510580669 0.0239994338
0.0015879035 -0.0113952750 0.0239998193
0.0061959323 -0.0267887158 0.0239997720
-0.0001595770 -0.0307173842 0.0239996331
-0.0032442909 -0.0407697944 0.0239994996
-0.0040263947 -0.0481687052 0.0239994263
0.0031443080 -0.0388946821 0.0239996223
0.0060228965 -0.0363830680 0.0239996912
-0.0013032105 -0.0447560788 0.0239994999
0.0035457808 -0.0150068739 0.0239998230
-0.0063103188 -0.0080089077 0.0239998374
-0.0001288293 0.0059404463 0.0240000085
-0.0098039721 -0.0120926699 0.0239997864
-0.0028271127 0.0070811910 0.0240000208
-0.0085640767 -0.0224511480 0.0239996626
-0.0040305504 0.0121380591 0.0240000809
-0.0074768638 -0.0425590223 0.0239994214
-0.0041644275 -0.0264166802 0.0239996173
-0.0098188032 -0.0144294950 0.0239997583
-0.0066785480 -0.0207104232 0.0239996845
-0.0069279037 -0.0095029622 0.0239998191
-0.0079866833 0.0088418645 0.0240000391
0.0060683831 -0.0592960471 0.0207129421
0.0038621139 -0.0559906972 0.0238747649
-0.0062760430 -0.0585818600 0.0222024562
-0.0062568230 -0.0568146942 0.0153961540
-0.0005788403 -0.0137108870 0.0149998882
0.0009211340 0.0086615277 0.0150000697
-0.0001112425 -0.0074262716 0.0149999392
-0.0047983406 -0.0057927969 0.0149999519
0.0055105667 0.0007013857 0.0150000057
0.0031843616 -0.0390694669 0.0149996832
-0.0012449218 0.0137278296 0.0150001105
0.0054898745 -0.0241945874 0.0149998039
-0.0011051280 0.0019295431 0.0150000149
0.0030998920 -0.0372807210 0.0149996977
-0.0062966688 0.0148534012 0.0150001190
0.0015114526 -0.0305246709 0.0149997522
-0.0011594958 -0.0226568958 0.0149998189
0.0053481486 -0.0545637762 0.0149995799
-0.0071869655 -0.0378371401 0.0149998535
-0.0061704751 -0.0300052906 0.0149998696
-0.0045394171 -0.0361245246 0.0149998176
-0.0067870505 -0.0195168484 0.0149999235
-0.0069332512 -0.0239352209 0.0149999074
0.0019000731 -0.0393467245 0.0149996995
0.0020076747 -0.0414653952 0.0149996889
-0.0063354835 -0.0203996966 0.0149999124
-0.0075167772 -0.0358157274 0.0149998673
0.0109996745 0.0198062401 -0.0128609878
0.0109999357 -0.0386653910 -0.0130145304
0.0109990196 0.0119894611 0.0276555869
0.0109999852 -0.0401022550 0.0273455967
-0.0105000115 -0.0510912122 -0.0049826114
-0.0105000087 -0.0281620495 -0.0058541178
-0.0105000074 -0.0262784125 -0.0051083392
-0.0105000004 0.0160209208 -0.0066126409
-0.0105000026 0.0059472520 -0.0067120247
-0.0105000052 -0.0401226638 -0.0010324617
-0.0105000092 -0.0357461076 -0.0047785753
-0.0105000065 -0.0403711361 -0.0041668784
-0.0104999940 -0.0381902560 0.0054132790
-0.0105000020 -0.0507456290 0.0004159367
-0.0105000007 -0.0495415646 0.0008287857
-0.0105000087 -0.0434340783 0.0014108889
-0.0104999985 -0.0285979139 0.0068302070
-0.0104999958 -0.0426019526 0.0074692267
-0.0105000069 0.0049696736 0.0048284359
-0.0104999987 -0.0316338625 0.0067671525
-0.0104999928 0.0170790838 0.0059142117
-0.0104999990 0.0171927215 -0.0060373013
-0.0104999978 -0.0123580703 0.0005250037
-0.0105000011 -0.0261742080 0.0016993806
-0.0104999974 -0.0423146434 0.0050060358
-0.0104999910 0.0160458038 -0.0012664126
-0.0104999929 0.0185760658 0.0042525681
-0.0072414480 -0.0602667366 -0.0113482195
-0.0083937527 -0.0206679650 -0.0111143301
-0.0088464796 0.0142558925 -0.0108361648
-0.0098049044 -0.0140135935 -0.0098417251
-0.0095147818 -0.0273580919 -0.0102109434
-0.0102274063 -0.0356219470 -0.0089919355
-0.0104554301 0.0082581445 -0.0081845053
-0.0103485646 -0.0289038986 -0.0086878964
-0.0077191151 0.0022110473 -0.0114028560
-0.0069970759 -0.0264852861 -0.0115642620
-0.0101942881 -0.0342775011 0.0091118405
-0.0099130865 -0.0390686962 0.0096681720
-0.0092226376 -0.0519487010 0.0105115008
-0.0084433342 -0.0157982473 0.0110778627
-0.0088300667 -0.0203296453 0.0108437616
-0.0079151523 -0.0494451635 0.0113268512
-0.0104373743 -0.0536123764 0.0082217258
-0.0104800549 -0.0345000883 0.0079604631
-0.0072545125 -0.0481050551 0.0115184418
0.0069255202 0.0096934990 -0.0115998360
0.0039920419 -0.0195703077 -0.0115998049
0.0097978418 -0.0236911687 -0.0115997946
0.0092159474 -0.0366924988 -0.0115997800
0.0045583795 -0.0140687934 -0.0115998108
0.0065762715 0.0166850833 -0.0115998445
0.0064500518 -0.0257115984 -0.0115997954
0.0096081230 -0.0182107417 -0.0115998011
-0.0008589754 0.0027028616 -0.0115998355
0.0012077429 -0.0025259103 -0.0115998274
0.0040892884 -0.0199385838 -0.0115998044
-0.0007783687 0.0016373350 -0.0115998341
0.0097891528 -0.0554146189 -0.0115997578
0.0032477161 -0.0433784359 -0.0115996264
-0.0053394332 -0.0118923520 -0.0115995873
0.0018216354 -0.0484113754 -0.0115995110
-0.0063145953 -0.0208122589 -0.0115994503
-0.0003736649 -0.0292479022 -0.0115996189
-0.0047181627 -0.0384502733 -0.0115993326
0.0006384465 -0.0575348669 -0.0115993629
-0.0055854672 -0.0368812294 -0.0115993115
-0.0009881292 -0.0180317033 -0.0115997112
-0.0034734511 -0.0431755184 -0.0115993365
-0.0028464800 -0.0284049477 -0.0115995204
0.0042654049 -0.0529138862 -0.0115995694
0.0051022093 -0.0631894596 0.0105676269
0.0056921439 -0.0632197407 0.0105487651
0.0058242413 -0.0674788760 0.0073302941
-0.0011493181 -0.0696855895 0.0029057179
-0.0015485177 -0.0700000951 -0.0011535527
0.0070503154 -0.0688469727 -0.0051589129
0.0037387259 -0.0656347927 -0.0091276478
0.0063946972 -0.0610879518 -0.0112763656
0.0020844412 -0.0609917360 -0.0113233656
0.0085062217 -0.0576311910 0.0115982461
0.0042381839 -0.0201392269 0.0115996119
0.0011309561 -0.0352767038 0.0115994798
0.0025467201 -0.0319756725 0.0115994445
0.0037287710 -0.0380076758 0.0115991818
0.0071428176 -0.0578088022 0.0115983597
0.0052981719 -0.0091584711 0.0115998114
0.0029577096 -0.0542287742 0.0115988181
0.0081783449 -0.0511927584 0.0115984455
0.0086167556 -0.0055247292 0.0115996197
-0.0000706589 -0.0314542530 0.0115996856
0.0027129901 -0.0179607800 0.0115998021
-0.0003063535 -0.0481222896 0.0115992636
0.0043176963 -0.0013046988 0.0115999868
0.0041182392 -0.0025846806 0.0115999765
-0.0021494090 0.0110466251 0.0116000884
-0.0047225846 -0.0479334973 0.0115996110
-0.0038070807 -0.0428451555 0.0115996521
-0.0064838034 0.0018931183 0.0116000152
0.0020112440 -0.0003857399 0.0115999948
-0.0042468558 0.0078596501 0.0116000631
0.0020543955 -0.0134020168 0.0115998893
-0.0059247413 -0.0059622108 0.0115999514
-0.0054520571 -0.0368297477 0.0115997012
0.0040166116 0.0005537845 0.0116000020
0.0017441351 0.0193592728 -0.0115396607
0.0000415815 0.0279719312 -0.0066588873
-0.0011042033 0.0263579685 -0.0084896335
0.0012460191 0.0234455262 -0.0104390842
-0.0048061811 0.0300684688 -0.0008237288
-0.0021045659 0.0295708841 -0.0033935032
0.0000540864 0.0300282565 0.0011628662
0.0002806677 0.0293121750 0.0041769598
0.0050107869 0.0280106351 0.0065888577
0.0023053385 0.0257135924 0.0090780375
-0.0045689065 0.0230511911 0.0106662832
0.0040491381 0.0194818678 0.0115250027
0.0050515299 -0.0202748193 0.0292622480
0.0006680175 -0.0706729861 -0.0098179895
-0.0007679536 -0.0747939069 0.0075420502
-0.0037962072 -0.0724481455 0.0211254714
0.0072758398 -0.0380891199 0.0289404626
0.0076264094 -0.0688974564 -0.0106653725
0.0062541761 -0.0112236228 -0.0148050824
0.0065400864 0.0022085377 -0.0147591453
0.0077660036 0.0167978409 -0.0145555703
0.0077363628 0.0339931925 0.0102286227
-0.0010127826 0.0219791016 0.0291931237
0.0007019286 0.0336145246 0.0184259379
0.0000970968 0.0339312173 -0.0029623029
-0.0000623005 0.0227425733 -0.0147217914
0.0002722457 -0.0190426611 -0.0153091351
-0.0004009809 -0.0427296795 -0.0153264904
-0.0001122833 -0.0660321765 -0.0135295245
-0.0007919488 -0.0700118478 0.0248417328
0.0009371852 0.0017548572 0.0295952375
-0.0001830674 -0.0396575807 0.0296197733
-0.0129725698 -0.0252266633 0.0208438353
-0.0129639632 -0.0448507227 0.0218126043
-0.0129708347 -0.0088358568 0.0210376667
0.0081136598 -0.0284407593 0.0287884725
0.0079620364 -0.0326511083 0.0288212059
0.0104831898 0.0061620289 0.0282757949
0.0108086022 -0.0158280637 0.0282032001
0.0098734980 -0.0116389522 0.0284068049
0.0046823361 -0.0599681136 0.0291586969
-0.0093644413 -0.0665483312 0.0259064338
-0.0129942426 -0.0607306684 0.0172141242
-0.0129888023 -0.0645091968 0.0114519276
0.0066887209 -0.0742155576 0.0073699657
0.0088084880 -0.0698052189 -0.0093718769
0.0093149150 -0.0557686154 -0.0142259556
-0.0129691794 -0.0486492217 -0.0070606817
-0.0129871921 -0.0377411697 -0.0051998286
0.0082494517 -0.0272343409 -0.0144592590
0.0092982586 -0.0434436671 -0.0142326783
0.0079404273 -0.0126906793 -0.0145257104
-0.0129909481 -0.0238607641 -0.0047764181
-0.0129807868 -0.0024311510 -0.0057951208
-0.0129863342 -0.0261515450 -0.0052707931
0.0107589704 -0.0381633723 -0.0139157485
0.0099496399 0.0001361872 -0.0140891559
-0.0086417209 -0.0510178570 -0.0142267600
-0.0085946030 -0.0202826808 -0.0142454924
-0.0079468196 -0.0636290047 -0.0136402665
-0.0074437780 -0.0488669599 -0.0146115152
-0.0078876320 -0.0221725085 -0.0144904105
-0.0069900920 0.0286526490 -0.0110740705
0.0045252122 -0.0731618547 -0.0047457525
0.0060600380 -0.0563588518 -0.0148325010
0.0047803651 -0.0477118673 -0.0149963844
0.0048860005 -0.0194323960 -0.0149822305
0.0072023338 0.0274960365 -0.0118997151
-0.0129953302 0.0218923058 -0.0027945280
0.0096399387 0.0335258238 0.0028492907
-0.0129848689 0.0244826962 0.0102754661
-0.0090395530 0.0335447222 0.0064003204
-0.0079416915 0.0334662023 -0.0010822238
0.0101653851 0.0325439375 0.0176290661
0.0104167643 0.0302719231 0.0224762560
-0.0128982525 -0.0248983327 -0.0084478215
-0.0128547792 0.0131015881 -0.0089581920
-0.0128452001 0.0282484372 0.0017777613
-0.0126519259 -0.0261242117 -0.0100998291
-0.0128018625 -0.0244315324 -0.0094215853
-0.0125171030 0.0036152168 -0.0105283092
-0.0126401322 0.0263303029 0.0212858722
0.0100473866 0.0240793177 0.0273534538
-0.0123383678 0.0203308727 -0.0107138951
0.0100426909 0.0232294183 0.0276369050
-0.0120498279 -0.0247541503 -0.0115583230
-0.0116321177 -0.0211798245 -0.0121573093
-0.0115105810 0.0311710839 -0.0011689738
-0.0108625342 -0.0096464238 -0.0129537392
-0.0109723398 0.0199639960 -0.0126374484
-0.0101460404 -0.0590027346 -0.0134005991
-0.0101898179 -0.0488100374 -0.0134602388
-0.0103949456 0.0307274589 0.0204190881
-0.0100834292 0.0097034999 -0.0135262144
-0.0094669209 0.0333330693 0.0046137056
-0.0089548898 0.0286546000 0.0245470152
-0.0129896503 0.0136121234 0.0191186608
-0.0066692530 -0.0586877304 -0.0147362592
-0.0058774538 -0.0512479647 -0.0149443858
-0.0065541462 -0.0486685503 -0.0148377796
-0.0059363111 0.0173838256 -0.0149080727
-0.0048693506 0.0341861528 -0.0003868768
-0.0062558898 0.0311508283 0.0227895435
-0.0037199543 -0.0639760691 -0.0142878707
-0.0027339386 -0.0284903948 -0.0152710727
-0.0027844924 -0.0239628625 -0.0152674062
-0.0041056426 -0.0285622574 -0.0151755169
-0.0036177235 0.0184168464 -0.0151472498
-0.0046178411 0.0332966313 -0.0046639724
-0.0033698982 0.0340125853 0.0165072027
-0.0034442687 0.0185556253 0.0294592034
-0.0021871962 -0.0017753996 -0.0153077997
-0.0006237149 -0.0424198704 -0.0153296353
-0.0021198019 0.0187321978 -0.0152362940
-0.0014046609 0.0167837794 0.0296118831
0.0063538792 0.0331456596 0.0181547096
0.0061703228 -0.0348559931 0.0291163459
0.0060801523 -0.0389175987 0.0291286395
0.0064978469 -0.0286557638 0.0290649093
-0.0129835733 -0.0226398588 0.0196311418
-0.0129985093 -0.0356701171 0.0180839796
-0.0129310432 -0.0640538549 0.0203391482
-0.0129407099 -0.0373191925 0.0222301182
-0.0129089799 0.0009149525 0.0226065489
-0.0127532810 -0.0592633867 0.0237478362
-0.0127500364 -0.0086301219 0.0239702553
-0.0125625370 -0.0171711573 0.0246906304
-0.0122507308 -0.0644461815 0.0239483831
-0.0121075210 -0.0276088453 0.0257612411
-0.0118819670 -0.0059775636 0.0261089096
-0.0115446944 -0.0409613321 0.0265594463
-0.0114209433 -0.0601951239 0.0264996554
-0.0108518697 -0.0432598556 0.0272630601
-0.0106574834 0.0028897721 0.0274163184
-0.0094972794 -0.0395936287 0.0281459831
-0.0094088897 0.0157992175 0.0281900809
-0.0091626428 -0.0369922458 0.0283149634
-0.0087295296 -0.0006021612 0.0284854982
-0.0079186502 -0.0325652489 0.0287785190
-0.0069402112 -0.0414345622 0.0290443189
-0.0053374146 -0.0716652643 0.0222891765
-0.0051417542 -0.0426786088 0.0293586557
-0.0057245169 -0.0517841362 0.0292663016
-0.0063152504 0.0066354086 0.0291696698
-0.0037933881 -0.0657301055 0.0278743072
-0.0032836885 -0.0535870102 0.0295312156
-0.0043261745 0.0017385663 0.0294623414
-0.0035332276 -0.0066285055 0.0295170152
-0.0016056043 -0.0667290613 0.0274662450
-0.0013770671 -0.0446669045 0.0296165385
-0.0009809794 0.0080573719 0.0296188710
0.0020926045 0.0163835341 0.0295084136
0.0023476789 0.0295356445 0.0252027933
0.0023561113 0.0345800839 0.0111724221
0.0027433337 0.0334676272 -0.0041769769
0.0026245014 0.0239383163 -0.0142644533
0.0016964737 0.0078394519 -0.0152438287
0.0019865105 -0.0170382381 -0.0152224997
0.0034460907 -0.0388252331 -0.0151118696
0.0012184809 -0.0539256442 -0.0152822525
0.0041535734 -0.0307419861 -0.0150576519
0.0029528322 -0.0655826756 -0.0135901551
0.0037458197 -0.0739331994 -0.0018918834
0.0037231376 -0.0743686693 0.0130049194
0.0022855524 -0.0680770519 0.0264491771
0.0011669823 -0.0354785446 0.0295850353
0.0024850110 -0.0267276873 0.0294851085
0.0015625080 -0.0016585500 0.0295571658
0.0041017014 -0.0010617742 0.0293635290
0.0041133001 -0.0147278483 0.0293617233
-0.0130000050 0.0011927512 0.0079299222
-0.0130000081 -0.0366408795 -0.0002549159
-0.0130000079 0.0172145547 0.0167902500
-0.0130000064 0.0041226692 0.0032458494
-0.0130000012 0.0035664215 0.0174426926
-0.0129999969 -0.0546014409 0.0072930256
-0.0129999964 -0.0522440317 0.0020077124
-0.0130000064 0.0125111034 0.0089712756
-0.0130000057 0.0142081410 0.0096795734
-0.0130000004 -0.0306732176 0.0149043950
-0.0130000096 -0.0338026303 0.0053627904
-0.0130000056 -0.0222252832 0.0102437343
-0.0130000014 -0.0193045230 0.0147292983
-0.0130000037 -0.0462936019 0.0104657272
-0.0130000000 -0.0397432582 0.0146749426
-0.0130000038 -0.0199585015 0.0122848244
-0.0130000111 -0.0369858394 0.0036652324
-0.0129999981 -0.0297072746 0.0173360476
-0.0130000071 -0.0392632775 0.0075102596
-0.0129999928 -0.0326162459 -0.0031107901
-0.0129999988 0.0061167049 -0.0022615940
-0.0130000045 -0.0514926691 0.0090286762
-0.0130000027 0.0208455717 0.0077918991
-0.0129999953 0.0055433936 0.0014363670
-0.0130000049 0.0219383742 0.0033365496
-0.0130000146 -0.0173207614 0.0008097594
-0.0130000044 -0.0350712210 0.0011907253
-0.0130000007 -0.0093899922 0.0135591555
-0.0130000107 -0.0238913254 0.0010051771
-0.0130000046 -0.0145317908 0.0088440353
-0.0130000152 -0.0051367803 0.0049821140
-0.0130000043 -0.0013683001 0.0141204445
-0.0129999978 -0.0328540048 -0.0018217033
-0.0130000012 0.0204072325 -0.0024727560
-0.0073975302 0.0273643164 -0.0072556712
-0.0075917786 0.0294729211 -0.0030326539
-0.0090159653 0.0250530304 -0.0083562696
-0.0101298282 0.0239592344 -0.0073731245
-0.0017500097 -0.0691206926 0.0087478226
-0.0017495412 -0.0705891991 0.0003311852
-0.0022364545 -0.0694776554 0.0103617586
-0.0066517354 -0.0625598673 -0.0112505157
-0.0097486962 -0.0562836187 -0.0100680491
-0.0062185160 -0.0707160145 0.0112492996
-0.0098792682 -0.0695641666 0.0112499307
-0.0119300109 -0.0657422521 0.0112506848
-0.0099999898 -0.0494039197 0.0157182420
-0.0099999941 -0.0218599817 0.0157049377
-0.0099999896 -0.0521719387 0.0157617277
-0.0100000008 -0.0577913876 0.0196555273
-0.0100000075 -0.0120107708 0.0178782699
-0.0100000053 -0.0218435045 0.0174354438
-0.0099999892 -0.0179567294 0.0213060881
-0.0099999910 -0.0504749576 0.0214706037
-0.0100000072 -0.0284900429 0.0191069153
-0.0099999904 -0.0272132588 0.0225089979
-0.0099999905 -0.0236350564 0.0223523990
-0.0099999868 -0.0286099769 0.0232688322
-0.0100000033 0.0100688945 0.0179261120
-0.0064746651 -0.0662736331 0.0175084674
-0.0041953373 -0.0732334978 0.0186910000
-0.0052855153 -0.0673463382 0.0213430151
-0.0093461722 -0.0656685394 0.0202216494
-0.0047296503 -0.0722802979 0.0209952106
0.0099000129 -0.0635797165 0.0225550504
0.0098999833 0.0157653280 0.0260795197
0.0099000110 0.0301526844 0.0202170076
0.0099000027 -0.0553822226 0.0125248015
0.0099000084 0.0080198063 0.0127752109
0.0098999930 -0.0640905918 0.0202769098
0.0098999920 -0.0644444041 0.0155609504
0.0099000103 -0.0712440334 0.0103114178
0.0098999817 0.0065926987 0.0265119691
0.0098999801 -0.0324454472 0.0266789631
0.0098999958 -0.0079681602 -0.0127608892
0.0098999905 0.0079767745 -0.0125990245
0.0098999958 0.0261883450 -0.0094389410
0.0099000177 0.0261680354 0.0098012673
0.0099000107 0.0308622664 0.0125327884
0.0100454249 -0.0580176225 0.0271120646
0.0109775588 -0.0345443972 0.0271572187
0.0100833882 0.0310825690 0.0183395097
0.0100213013 -0.0372266861 -0.0128522920
0.0109556353 -0.0287578130 -0.0128522253
0.0104089934 -0.0720538890 0.0007274220
0.0109570089 0.0288683421 -0.0086718818
0.0108976398 -0.0502627730 -0.0138592877
-0.0113655172 -0.0437887072 -0.0007871121
0.0068000106 -0.0505475743 0.0243702132
0.0068000072 -0.0465180319 0.0246043742
0.0068000109 -0.0230143341 0.0243492195
0.0068000066 -0.0143675957 0.0139993794
0.0068000170 -0.0108042319 0.0132295117
0.0067999934 -0.0296303212 0.0149782993
0.0067999941 0.0168340096 0.0237545521
0.0087101368 -0.0609596550 0.0220411559
0.0070119128 -0.0498512477 0.0259995973
0.0077311469 -0.0277881462 0.0259997768
0.0098258180 -0.0161103198 0.0259998728
0.0093627023 0.0021261933 0.0260000205
0.0084890530 -0.0047367338 0.0259999643
0.0081723983 0.0198456426 0.0238117290
0.0087582646 0.0074485884 0.0130000568
0.0072611553 0.0115529613 0.0130000855
0.0082388696 -0.0469714057 0.0129996151
0.0082672446 -0.0453705543 0.0129996281
-0.0088768083 0.0062597232 0.0187039256
0.0102165982 0.0101372948 0.0078500741
0.0102326155 -0.0079629185 -0.0078500635
0.0105971721 -0.0412424613 -0.0078503323
0.0102048407 -0.0061546809 0.0239999489
0.0107517309 0.0182019552 0.0164354723
0.0104813014 -0.0402320883 0.0149996797
0.0105613921 0.0308662807 -0.0042938473
0.0101836790 0.0156616091 0.0270428596
0.0105567789 -0.0275451280 0.0270433438
0.0109876512 -0.0606241672 -0.0125152317
0.0107580244 -0.0081031585 -0.0127479865
0.0100999814 0.0221424231 0.0113430431
0.0100999858 0.0190010345 0.0094604477
0.0101000050 0.0306707491 -0.0024063042
0.0100999887 0.0204028034 0.0188043040
0.0100999964 0.0277077163 0.0063299006
0.0101000071 0.0306181396 0.0153136448
0.0100999961 0.0244008628 0.0131790055
0.0101000046 -0.0626745177 0.0260494095
0.0101000065 -0.0681662329 0.0200593764
0.0100999917 -0.0659322601 0.0146563880
0.0100999899 -0.0666435215 0.0095318941
0.0100999799 -0.0696651011 0.0027783891
0.0100999785 -0.0353455542 0.0146593984
0.0100999971 0.0149107102 0.0118113240
0.0100999928 -0.0131732437 0.0124663525
0.0100999777 -0.0274686187 0.0147880963
0.0100999770 -0.0042864903 0.0148984689
0.0100999850 -0.0490068404 0.0136621681
0.0101000216 -0.0181381492 0.0080469121
0.0100999918 -0.0552060592 0.0126255007
0.0101000076 -0.0475989274 0.0101947829
0.0101000148 -0.0201936958 0.0090969521
0.0101000158 -0.0567366547 0.0126691459
0.0101000109 0.0064564314 0.0269855530
0.0101000037 -0.0524562126 0.0247979422
0.0101000013 -0.0196174515 0.0251220312
0.0100999974 0.0096733974 0.0241534841
0.0101000157 -0.0630838160 -0.0072557182
0.0100999829 -0.0707955880 -0.0038041426
0.0100999895 -0.0661181365 0.0042956100
0.0101000020 -0.0339450666 -0.0122575214
0.0100999975 -0.0081432893 -0.0099448269
0.0100999978 -0.0106302561 -0.0098788852
0.0100999934 0.0171124693 -0.0083828389
0.0100999986 -0.0484076852 -0.0100667153
0.0100999971 -0.0395514123 -0.0094578821
0.0100999947 0.0014115560 -0.0085212768
0.0100999999 -0.0300917488 -0.0106275847
0.0110000131 0.0322387214 0.0076925363
0.0110000056 0.0244964242 0.0163877408
0.0110000130 0.0283846921 -0.0061626785
0.0110000143 0.0285125236 0.0199582591
0.0110000027 0.0295996259 0.0149481541
0.0109999985 0.0287255261 0.0003590276
0.0110000015 -0.0686200059 0.0181727410
0.0109999858 -0.0632622033 0.0160112693
0.0109999926 -0.0681590419 0.0085591666
0.0109999833 -0.0642661254 0.0090652521
0.0109999905 -0.0614531065 0.0102674011
0.0109999950 -0.0653824670 0.0251874832
0.0110000154 -0.0144061319 0.0267951653
0.0110000240 -0.0448701221 0.0269480449
0.0110000017 0.0182467905 0.0094717546
0.0109999975 0.0106693879 0.0118641849
0.0110000194 -0.0234809384 0.0085677359
0.0110000107 -0.0162923703 0.0098749481
0.0110000007 0.0085013939 0.0113852539
0.0110000081 -0.0146767245 0.0102695236
0.0109999766 0.0127114260 0.0148391367
0.0109999765 -0.0503052557 0.0146201277
0.0109999748 -0.0244177855 0.0113025833
0.0109999764 -0.0017420942 0.0144291197
0.0109999753 -0.0324747366 0.0123145383
0.0109999986 -0.0621540832 -0.0085295022
0.0109999949 -0.0676095172 -0.0053744719
0.0109999999 0.0069344284 0.0242490244
0.0109999991 -0.0117011799 0.0240279833
0.0110000079 0.0165997625 0.0264255771
0.0109999952 -0.0536174922 -0.0085592392
0.0110000030 -0.0500543963 -0.0117463785
0.0109999978 -0.0230553891 -0.0096418978
0.0110000000 -0.0478505857 -0.0105194452
0.0109999942 0.0114775671 -0.0087360807
0.0110000019 -0.0340914109 -0.0113726657
0.0109999988 -0.0197996570 -0.0117800230
-0.0308794266 -0.0530795628 -0.0394136270
-0.0218395880 -0.0047564919 -0.0137180346
-0.0220146818 -0.0221608705 -0.0143714959
-0.0262274085 0.0073905815 -0.0300936044
-0.0212419658 -0.0146199381 -0.0114876790
-0.0204697396 0.0019625951 -0.0086056898
-0.0205611264 -0.0225451196 -0.0089467500
-0.0210992152 -0.0104770711 -0.0109549260
-0.0262849625 -0.0545982563 -0.0303083974
-0.0234916056 0.0044117328 -0.0198834487
-0.0214543870 -0.0322782776 -0.0122804443
-0.0214290588 0.0051345362 -0.0121859175
-0.0210267228 0.0098438528 -0.0106843793
-0.0211548570 0.0060562629 -0.0111625822
-0.0225817386 0.0134401084 -0.0164877773
-0.0222321041 0.0129058952 -0.0151829240
-0.0260470616 -0.0542042213 -0.0294205394
-0.0234836372 -0.0435267811 -0.0198537103
-0.0232935992 -0.0500488294 -0.0191444788
-0.0214225711 -0.0538496310 -0.0121617058
-0.0253721453 -0.0452632264 -0.0269017201
-0.0218268277 -0.0375750643 -0.0136704109
-0.0219580030 -0.0420348469 -0.0141599644
-0.0305996235 -0.0552172348 -0.0348197388
-0.0292215908 -0.0532651268 -0.0296768530
-0.0278391767 -0.0471585934 -0.0245176138
-0.0257553474 -0.0396170835 -0.0167406565
-0.0237640718 -0.0368135579 -0.0093091177
-0.0257666408 -0.0345713378 -0.0167828042
-0.0231299247 -0.0337609735 -0.0069424485
-0.0240586686 -0.0323546229 -0.0104085694
-0.0239795708 -0.0149026668 -0.0101133674
-0.0222545436 -0.0177918099 -0.0036754778
-0.0224142881 -0.0237971900 -0.0042716517
-0.0211350657 -0.0206263693 0.0005024712
-0.0237591967 -0.0073303940 -0.0092909225
-0.0213843901 -0.0145910689 -0.0004280215
-0.0251097748 -0.0030569668 -0.0143313475
-0.0236240769 0.0069923760 -0.0087866495
-0.0244514478 0.0028680794 -0.0118744386
-0.0243914083 0.0067982122 -0.0116503694
-0.0277452129 0.0152967009 -0.0241669323
-0.0297168914 0.0127883387 -0.0315253393
-0.0199122111 -0.0224601430 0.0050662272
-0.0247582885 -0.0456039064 -0.0130195821
-0.0235134973 -0.0450399780 -0.0083739577
-0.0230257733 -0.0453012694 -0.0065537462
-0.0249422512 -0.0509577650 -0.0137061393
-0.0255061768 -0.0523453236 -0.0158107366
-0.0218691739 -0.0552855608 -0.0022372570
-0.0213250668 -0.0494675812 -0.0002066215
-0.0205350881 -0.0288769605 0.0027416173
-0.0213274103 -0.0346308951 -0.0002153715
-0.0211363904 -0.0345044840 0.0004975247
-0.0223670193 0.0027558346 -0.0040952445
-0.0204292931 -0.0065277289 0.0031364483
-0.0220269575 -0.0059700636 -0.0028261161
-0.0221786549 -0.0026775965 -0.0033922584
-0.0210137318 0.0090673424 0.0009552929
-0.0208156987 0.0092239099 0.0016943637
-0.0271119763 0.0074389180 -0.0218036670
-0.0287840809 0.0121869923 -0.0280440430
-0.0299052320 0.0118979348 -0.0322282361
-0.0143577609 -0.0038164520 0.0052973211
-0.0172219841 0.0140673255 0.0060647873
-0.0157997782 0.0015196783 0.0056837084
-0.0153715635 -0.0400375508 0.0055689686
-0.0154265099 -0.0319553413 0.0055836915
-0.0178064924 0.0011938599 0.0062214058
-0.0197650017 -0.0423599405 0.0054678705
-0.0192550547 0.0001750070 0.0060615811
-0.0185903642 -0.0491891216 0.0063000619
-0.0180636736 -0.0306551909 0.0062857550
-0.0154993108 -0.0437406314 -0.0008827792
-0.0130718025 0.0008595656 -0.0001395569
-0.0200652862 -0.0000923093 -0.0016581189
-0.0180000056 -0.0447993014 0.0015029203
-0.0214892593 -0.0412590908 -0.0026940321
-0.0265972355 -0.0560000092 -0.0212769359
-0.0244981053 -0.0560000092 -0.0212022998
-0.0199706829 -0.0560000092 -0.0071746373
-0.0177190477 -0.0560000092 -0.0024987106
-0.0285038738 0.0159999877 -0.0297683610
-0.0216744546 0.0159999877 -0.0020193448
-0.0279183818 0.0159999877 -0.0326046226
-0.0164083341 0.0159999877 0.0028124861
-0.0308847682 0.0135211059 -0.0394121957
-0.0281374303 -0.0459997378 -0.0276541805
-0.0255744892 -0.0334176475 -0.0175689580
-0.0232006525 -0.0164670680 -0.0153303717
-0.0264031517 0.0001131258 -0.0216186445
-0.0277558373 0.0098824196 -0.0352714218
-0.0302352626 0.0136339134 -0.0357292090
-0.0129999849 -0.0266691449 -0.0015177368
-0.0129999840 -0.0147015381 -0.0010611264
-0.0130040883 -0.0551578200 -0.0014332473
-0.0129999891 -0.0085677326 -0.0020141806
-0.0130003590 -0.0159169919 0.0028275557
-0.0129999877 0.0056420297 -0.0010973582
-0.0130000120 -0.0009295877 -0.0049737806
-0.0130000133 0.0017542913 -0.0051107627
-0.0130000052 -0.0190888632 -0.0042419875
-0.0130000172 0.0149193847 -0.0013973355
-0.0130000012 -0.0170348878 0.0015138247
-0.0129999993 -0.0217449902 0.0009788784
-0.0129999841 -0.0362583488 -0.0001293069
-0.0180519350 -0.0293605519 -0.0072162073
-0.0179701623 -0.0317694233 -0.0072162072
-0.0167119836 0.0070985979 -0.0072162060
-0.0145373088 -0.0032600854 -0.0072138740
-0.0145319974 0.0080052776 -0.0072152702
-0.0148803828 -0.0043737904 -0.0072144291
-0.0203863662 0.0050917884 -0.0083066706
-0.0201206546 0.0110297442 -0.0078207589
-0.0191649474 0.0132408151 -0.0072622743
-0.0130612219 -0.0357380672 -0.0060477036
-0.0133095598 -0.0295224947 -0.0066097330
-0.0138718990 -0.0324585552 -0.0070674267
-0.0130082548 0.0099173738 0.0038270904
-0.0131667523 0.0143392667 0.0044367102
-0.0135427275 -0.0296001401 0.0049058777
-0.0228291782 -0.0308842208 -0.0154999633
