0.0019507054 0.0318395851 0.0213524392
0.0037020090 0.0316994264 0.0212752136
0.0025540964 0.0379229731 0.0110420782
0.0060978441 0.0381119203 0.0111606739
-0.0032026920 0.0406974401 0.0180232784
0.0040933532 0.0404239497 0.0187268855
-0.0059987566 0.0401267714 0.0192710478
-0.0033656190 0.0403230895 0.0189516406
-0.0033278263 0.0405566549 0.0183903801
-0.0062611100 0.0394232327 0.0202372924
0.0057567465 0.0387639458 0.0208693719
0.0021016285 0.0387762519 0.0208768536
-0.0045496427 0.0390428048 0.0206380663
0.0056345512 0.0394924537 0.0201590228
0.0047584914 0.0391981668 0.0205032963
0.0059452132 0.0401715457 0.0192007179
-0.0056819915 0.0381558680 0.0111927468
-0.0053922056 0.0382435493 0.0112486925
0.0027394070 0.0385911405 0.0114689855
-0.0002934882 0.0389336438 0.0117694986
-0.0036787881 0.0393073017 0.0121156611
0.0024038580 0.0393222235 0.0121245301
-0.0022106066 0.0393677917 0.0121721915
0.0045603492 0.0396492024 0.0125246062
-0.0036352545 0.0396763655 0.0125626110
0.0039516875 0.0399186431 0.0128702093
0.0020798909 0.0400151816 0.0130077422
0.0064513047 0.0403607176 0.0136478533
-0.0034162850 0.0402624541 0.0134725752
-0.0024567784 0.0403497425 0.0136356978
-0.0010579950 0.0403795586 0.0136901595
0.0048771152 0.0406216448 0.0142970631
0.0022249000 0.0406793743 0.0144711365
0.0049855340 0.0407735255 0.0147525820
-0.0041699803 0.0407945895 0.0148318382
0.0005259709 0.0408748415 0.0153162142
0.0048158740 0.0408248119 0.0149849388
0.0046620891 0.0409388608 0.0157336826
-0.0063666297 0.0408603612 0.0152391481
0.0036932672 0.0409475144 0.0163411308
0.0055026055 0.0409407147 0.0167018768
0.0004466587 0.0409397407 0.0166592579
-0.0055914158 0.0409424760 0.0164331091
0.0055186541 0.0407718668 0.0177347607
0.0037930332 0.0409153060 0.0169895783
0.0052425095 0.0407519281 0.0178361023
-0.0039581275 0.0407612229 0.0177693350
0.0011331592 0.0407186578 0.0179549497
0.0049057259 0.0372847999 0.0217657846
0.0053422988 0.0371546951 0.0218141519
0.0033114990 0.0380027099 0.0213989389
0.0004823003 0.0377333253 0.0215556932
0.0003265482 0.0382936851 0.0212307916
-0.0020566677 0.0383544275 0.0211965694
0.0016279066 0.0387084023 0.0209322089
-0.0022128880 0.0365770849 0.0220285037
0.0020685079 0.0366410530 0.0220052258
0.0037923448 0.0361285952 0.0221142739
0.0020377385 0.0364078364 0.0220622798
-0.0062732276 0.0359554278 0.0221475892
-0.0040585967 0.0359303084 0.0221521816
0.0027228945 0.0353620719 0.0222232016
0.0011298009 0.0351728766 0.0222255549
-0.0001171950 0.0348392147 0.0222301608
-0.0038248053 0.0349865359 0.0222283974
-0.0047520978 0.0337424760 0.0221070756
0.0023305987 0.0344909027 0.0222284199
-0.0012352367 0.0341839985 0.0221787434
0.0064260103 0.0343401883 0.0222037701
0.0007643190 0.0339452867 0.0221398440
0.0016139383 0.0334712812 0.0220575966
-0.0063958575 0.0332578002 0.0219853078
0.0030266367 0.0321847531 0.0215441697
-0.0023979060 0.0323553253 0.0216374198
0.0024052294 0.0331106583 0.0219344135
0.0058646865 0.0326016972 0.0217610695
0.0050870283 0.0363696843 0.0176728734
0.0017437159 0.0356661632 0.0181209112
0.0044742461 0.0354530793 0.0181885701
0.0064804159 0.0350077774 0.0182480134
-0.0044722818 0.0352839027 0.0182233379
-0.0027175296 0.0365545747 0.0174596950
0.0048236568 0.0332838553 0.0151703078
0.0058647013 0.0331606822 0.0153963040
0.0009372063 0.0347710783 0.0182385098
0.0025958107 0.0345566884 0.0182058229
-0.0019341109 0.0343067393 0.0181373709
0.0023500404 0.0340263255 0.0180145019
-0.0015516237 0.0337848882 0.0178618032
0.0035416516 0.0336111937 0.0177186896
0.0022295966 0.0334871829 0.0175951573
0.0043695712 0.0332890571 0.0173387777
0.0002206673 0.0331959800 0.0171761139
-0.0034887844 0.0330749816 0.0168901099
-0.0008089699 0.0330008769 0.0165968653
-0.0018415332 0.0329796697 0.0164765391
-0.0004198155 0.0329702109 0.0161928508
-0.0062398367 0.0330031339 0.0158928078
0.0033096263 0.0330385248 0.0157236005
-0.0034121694 0.0331136176 0.0155032516
0.0069889266 0.0358474496 0.0139247318
-0.0068202223 0.0005365478 0.0079296678
-0.0068815937 0.0051551674 0.0078682975
-0.0066540969 0.0067277298 0.0080957949
-0.0066104347 0.0067473267 0.0081394572
-0.0068425995 0.0117427231 0.0080288808
-0.0065892912 0.0158789497 0.0106050671
-0.0069716536 0.0213893027 0.0138269710
-0.0065244938 0.0255231035 0.0171267726
-0.0067150954 0.0267777197 0.0177358168
-0.0069962803 0.0318159359 0.0207639441
-0.0069626050 0.0360238641 0.0216654979
-0.0065877261 0.0399681623 0.0193642839
-0.0069265580 0.0404323254 0.0152503192
-0.0067604997 0.0381001243 0.0114659057
-0.0069880847 0.0326098841 0.0087818250
-0.0066565793 0.0303253971 0.0072053654
-0.0065528387 0.0268125975 0.0049733798
-0.0066844192 0.0231258898 0.0013539604
-0.0069584560 0.0105845695 0.0007083483
-0.0068594794 0.0042510107 0.0006093699
-0.0067829158 0.0175149682 0.0005328099
-0.0065803353 0.0051660382 0.0003302265
-0.0065416257 0.0126813391 0.0002915187
-0.0067969245 0.0025971557 0.0005468147
-0.0065880623 0.0190922108 0.0043703585
-0.0065400150 0.0220360128 0.0063422039
-0.0069415369 0.0183911177 0.0080760353
-0.0034174215 -0.0116917998 0.0006580737
-0.0062881924 -0.0087949855 0.0004129483
-0.0047041752 -0.0107035945 0.0081613690
-0.0019724487 -0.0116307338 0.0003806216
-0.0015936258 -0.0119928488 0.0077570376
0.0067100521 -0.0084124008 0.0006737173
0.0036719327 -0.0113287071 0.0004000491
0.0047440385 -0.0108502022 0.0080189909
0.0066308895 -0.0085134975 0.0078771983
0.0067620059 0.0025190142 0.0079878850
0.0065770459 0.0006833629 0.0081728444
0.0065791236 0.0004673542 0.0081707667
0.0069594972 0.0108801971 0.0078054102
0.0069886819 0.0163299780 0.0104260863
0.0068980516 0.0186800346 0.0121052836
0.0065037562 0.0179026786 0.0120600996
0.0069681878 0.0145594604 0.0092677564
0.0066796519 0.0202137827 0.0133927266
0.0068365845 0.0397947872 0.0133140823
0.0066703267 0.0407030771 0.0171946689
0.0066813622 0.0379970076 0.0211935537
0.0067069108 0.0331245344 0.0217213098
0.0067945239 0.0305580182 0.0074836183
0.0066839705 0.0336233312 0.0089713698
0.0065324836 0.0267213510 0.0048746673
0.0067851801 0.0242709466 0.0024576174
0.0069409485 0.0240280275 0.0024209535
0.0069676760 0.0061555125 0.0007175674
0.0069192528 0.0021564430 0.0006691431
0.0065498824 0.0061975872 0.0002997740
0.0065663717 0.0160099784 0.0003162656
0.0066921716 0.0049821770 0.0004420630
-0.0013953579 0.0190266060 0.0032229405
-0.0014156626 0.0209420905 0.0017909955
-0.0017001539 0.0202480042 0.0028402913
0.0004655633 0.0184844081 0.0044830150
-0.0006559740 0.0184779588 0.0033526582
-0.0010922102 0.0187203665 0.0031707160
-0.0014964659 0.0191835354 0.0029296325
0.0011697504 0.0076961491 0.0059034827
0.0012834086 0.0076192643 0.0051072392
0.0017326690 0.0071265535 0.0074624637
0.0018831649 0.0068470747 0.0053272601
0.0019757268 0.0065880598 0.0005550588
0.0020601552 0.0060502474 0.0052766014
0.0020328526 0.0056667430 0.0044046744
0.0019891561 0.0054485048 0.0039957802
0.0017503457 0.0049073031 0.0027345923
0.0016472600 0.0047623592 0.0022823558
0.0011925349 0.0043181215 0.0071863663
0.0009016820 0.0041457488 0.0042885945
0.0006431028 0.0040372974 0.0056728836
0.0000433686 0.0039370828 0.0053719774
-0.0003390449 0.0039617511 0.0058199422
-0.0006598785 0.0040427744 0.0059455059
-0.0010172256 0.0042035119 0.0014577067
-0.0013714631 0.0044625144 0.0054983287
-0.0016681372 0.0047926797 0.0065207819
-0.0017844344 0.0049633996 0.0078963538
-0.0019385921 0.0052933186 0.0012437755
-0.0020494449 0.0057987022 0.0038080101
-0.0020442535 0.0062989918 0.0025736823
-0.0020157920 0.0064249160 0.0022749509
-0.0016781160 0.0071950678 0.0073858762
-0.0015163346 0.0073936351 0.0082258463
-0.0013576434 0.0075575036 0.0061378098
-0.0008314867 0.0078860396 0.0079270204
-0.0005917791 0.0079723081 0.0005070396
-0.0001275123 0.0080576599 0.0014254825
0.0001354336 0.0080546809 0.0038173861
0.0005190449 0.0079929359 0.0029199541
-0.0011758841 -0.0076908859 0.0073476678
-0.0014207877 -0.0074904356 0.0063767635
-0.0015680370 -0.0073433296 0.0026207980
-0.0017679043 -0.0070699694 0.0059588276
-0.0020037985 -0.0064844448 0.0058965752
-0.0020489790 -0.0062054833 0.0009198937
-0.0020492505 -0.0057793901 0.0025195493
-0.0020191870 -0.0055890667 0.0023461769
-0.0018391617 -0.0050665722 0.0021564737
-0.0015394235 -0.0046305691 0.0057523552
-0.0012952958 -0.0043966098 0.0022628308
-0.0010664322 -0.0042303419 0.0035788162
-0.0005925123 -0.0040279111 0.0074993586
-0.0001645740 -0.0039464661 0.0010631329
0.0001608697 -0.0039469412 0.0033961732
0.0003694892 -0.0039707488 0.0010862650
0.0008219875 -0.0041120397 0.0016356118
0.0014607019 -0.0045452496 0.0077841388
0.0016222130 -0.0047303676 0.0045363672
0.0018216643 -0.0050381982 0.0073213914
0.0019536973 -0.0053469349 0.0013762793
0.0020262127 -0.0056262457 0.0003752588
0.0020324576 -0.0063355690 0.0069317988
0.0019312996 -0.0067178779 0.0079136641
0.0018579119 -0.0068957991 0.0057414062
0.0015332989 -0.0073828692 0.0015702874
0.0013296314 -0.0075754139 0.0054663952
0.0010464626 -0.0077764894 0.0044277323
0.0005513988 -0.0079855380 0.0034012649
0.0001385007 -0.0080554142 0.0078364044
-0.0000805983 -0.0080606949 0.0072543185
-0.0006034948 -0.0079717428 0.0053343847
-0.0009341120 -0.0078391732 0.0036933639
-0.0050950582 0.0252997120 0.0033139830
-0.0005756599 0.0253242118 0.0033456900
0.0044826160 0.0254009023 0.0034458888
-0.0012356432 0.0255188468 0.0035979056
0.0018750877 0.0255119979 0.0035895502
-0.0011775172 0.0257182544 0.0038529787
0.0014848080 0.0257465616 0.0038811744
0.0033178548 0.0264272630 0.0045704515
0.0031639949 0.0263761814 0.0045186441
-0.0021965615 0.0270164403 0.0050666507
-0.0014960690 0.0266275696 0.0047597658
-0.0062390502 0.0266406468 0.0047705069
0.0064631085 0.0266958985 0.0048132031
0.0027866391 0.0269355582 0.0050025619
0.0004647395 0.0278118947 0.0056436921
-0.0063414189 0.0278155291 0.0056461749
-0.0063040107 0.0275596464 0.0054908555
0.0029302575 0.0285190170 0.0060731601
0.0057796499 0.0280820032 0.0058076781
-0.0057074178 0.0153066557 0.0103300751
-0.0062546331 0.0235470324 0.0158359117
-0.0059741609 0.0201829897 0.0135882148
-0.0056728828 0.0227397473 0.0152965214
-0.0019458418 0.0200994763 0.0135324150
-0.0027005783 0.0194478304 0.0130970155
-0.0051462623 0.0292305343 0.0196333635
-0.0026385659 0.0230135279 0.0154794488
0.0005016506 0.0171252000 0.0115451419
-0.0057806907 0.0194484500 0.0130974295
0.0007555243 0.0177953010 0.0119928722
0.0021028240 0.0137569008 0.0092946009
-0.0002958306 0.0183589641 0.0123694857
0.0013012365 0.0154345519 0.0104155294
-0.0057043352 0.0242000312 0.0162722151
-0.0064626571 0.0150793495 0.0101781997
0.0032313483 0.0149566275 0.0100962025
-0.0032744328 0.0187297049 0.0126171974
0.0002607115 0.0194700623 0.0131118698
-0.0031228937 0.0173947953 0.0117252729
-0.0043700066 0.0283992114 0.0190779121
-0.0023630831 0.0250565842 0.0168445240
-0.0037824230 0.0217218507 0.0146164101
0.0036649620 0.0138804554 0.0093771543
-0.0007962754 0.0229105945 0.0154106735
0.0014840630 0.0203878817 0.0137251141
-0.0002067587 0.0209814209 0.0141216894
-0.0010519702 0.0223660567 0.0150468387
-0.0050318708 0.0285249647 0.0191619346
-0.0020637350 0.0176669431 0.0119071094
-0.0028705105 0.0217950807 0.0146653391
-0.0028338556 0.0195244849 0.0131482325
-0.0050565760 0.0177573933 0.0119675440
0.0001664889 0.0138730457 0.0093722035
-0.0025419140 0.0141136548 0.0095329674
-0.0009895747 0.0159757133 0.0107771083
-0.0055867241 0.0258149016 0.0173511965
-0.0025190038 0.0217333860 0.0146241175
-0.0038417099 0.0186065501 0.0125349111
-0.0032013523 0.0157847198 0.0106494953
0.0000668905 0.0186491734 0.0125633900
-0.0049923390 0.0286971510 0.0192769815
-0.0023679797 0.0196544519 0.0132350704
0.0008052563 0.0157634753 0.0106353007
0.0020717296 0.0218948896 0.0147320267
0.0044940950 0.0243000554 0.0163390467
0.0008604035 0.0213725903 0.0143830506
0.0035470990 0.0267029785 0.0179445682
-0.0055634929 0.0315942942 0.0212127180
0.0040921370 0.0211635029 0.0142433481
-0.0006809305 0.0310287119 0.0208348221
0.0007293477 0.0256002206 0.0172077567
0.0038434753 0.0300516875 0.0201820199
0.0020504664 0.0307750199 0.0206653169
0.0035030812 0.0236850662 0.0159281395
0.0035089893 0.0225987521 0.0152023149
0.0040373784 0.0265099924 0.0178156239
0.0052843303 0.0217915376 0.0146629717
-0.0039803784 0.0315791428 0.0212025945
0.0022026513 0.0308743389 0.0207316773
0.0041571544 0.0207050970 0.0139370626
0.0032635484 0.0310452929 0.0208459008
-0.0021206028 0.0271763955 0.0182608834
-0.0027760560 0.0304109451 0.0204220591
-0.0045854782 0.0293235240 0.0196954948
0.0001367345 0.0304368548 0.0204393707
-0.0009936127 0.0272695412 0.0183231190
0.0009124846 0.0273150957 0.0183535564
0.0060802667 0.0305915265 0.0205427152
-0.0035210943 0.0299512575 0.0201149172
0.0057765779 0.0278724796 0.0187259745
-0.0005209341 0.0296684156 0.0199259354
-0.0008474264 0.0308330449 0.0207040866
-0.0052714303 0.0300703106 0.0201944630
0.0037294621 0.0227993299 0.0153363317
-0.0024603061 0.0315481795 0.0211819063
0.0058094369 0.0190868151 0.0128558019
0.0024425455 0.0251275974 0.0168919718
0.0027691950 0.0312089128 0.0209552240
-0.0023898920 0.0261137093 0.0175508459
0.0025413712 0.0247839374 0.0166623541
-0.0001944928 0.0233349150 0.0156941847
-0.0019251004 0.0307168939 0.0206264798
0.0017185027 0.0245239686 0.0164886551
-0.0045729442 0.0299484084 0.0201130135
0.0040741020 0.0260936284 0.0175374288
0.0059283755 0.0259292312 0.0174275862
0.0009006740 0.0245569090 0.0165106643
-0.0012533250 0.0018516136 0.0082498907
-0.0006002611 0.0102807045 0.0082498927
0.0002958011 0.0095023413 0.0082498924
-0.0013929422 0.0089369291 0.0082498922
-0.0010781631 0.0086101001 0.0082498921
0.0037961494 0.0098941799 0.0082498926
0.0003177486 0.0082123227 0.0082498920
-0.0004490188 -0.0037108846 0.0082498883
-0.0059378261 0.0102901212 0.0082498927
-0.0034320648 -0.0092849582 0.0082498886
-0.0021848304 -0.0074621153 0.0082498889
-0.0038223166 -0.0076251043 0.0082498882
-0.0024779285 0.0022264111 0.0082498909
-0.0020461363 0.0063527733 0.0082498911
-0.0038615807 -0.0101298563 0.0082498886
-0.0019873630 -0.0094821913 0.0082498876
-0.0006357119 -0.0080444954 0.0082498882
-0.0060643928 -0.0069846644 0.0082498882
-0.0037371971 0.0000781400 0.0082498904
-0.0044588572 0.0022305721 0.0082498904
-0.0058137129 -0.0030893776 0.0082498891
-0.0041594822 0.0013555433 0.0082498901
-0.0041058294 0.0007400602 0.0082498900
-0.0051121393 0.0079209853 0.0082498920
-0.0063391471 0.0005771937 0.0082498902
-0.0046468270 0.0043525237 0.0082498910
-0.0038254414 0.0041279675 0.0082498908
-0.0036171859 0.0028462425 0.0082498905
-0.0055265725 -0.0001907548 0.0082498899
-0.0062930718 -0.0017158074 0.0082498896
-0.0043423047 0.0016652889 0.0082498902
-0.0056334751 0.0055403239 0.0082498914
0.0020924502 0.0084901518 0.0082498924
-0.0044192668 -0.0035194350 0.0082498891
-0.0015540228 0.0006185890 0.0082498902
-0.0035741037 -0.0015377343 0.0082498896
-0.0020158332 -0.0016112230 0.0082498898
-0.0031631925 -0.0000438011 0.0082498899
-0.0025031153 -0.0050453666 0.0082498890
-0.0034096273 -0.0051248955 0.0082498889
-0.0014693298 -0.0044626613 0.0082498897
0.0027241325 0.0077381387 0.0082498918
0.0001034616 0.0025039089 0.0082498914
-0.0003254019 0.0030089149 0.0082498907
0.0036735525 0.0078287632 0.0082498917
0.0011666773 -0.0112223853 0.0082498874
0.0005941638 -0.0107330709 0.0082498877
-0.0001729191 -0.0084756290 0.0082498877
0.0006936823 0.0029006293 0.0082498907
0.0012886088 0.0013183136 0.0082498898
0.0028912715 0.0032291220 0.0082498904
0.0024122274 0.0004502204 0.0082498896
0.0028176538 0.0058140412 0.0082498912
0.0051877179 0.0074448576 0.0082498918
0.0014414079 0.0010172608 0.0082498897
0.0029600295 0.0012069443 0.0082498904
0.0029323486 0.0008728868 0.0082498904
0.0052327489 0.0068156953 0.0082498917
0.0026126907 -0.0012697688 0.0082498892
0.0049999693 -0.0057153606 0.0082498884
0.0042982698 0.0032830628 0.0082498906
0.0064701046 0.0091623585 0.0082498925
0.0053302514 -0.0035188638 0.0082498890
0.0047975279 -0.0022119086 0.0082498893
0.0052141062 -0.0006813968 0.0082498897
0.0040838195 -0.0025425761 0.0082498891
0.0043844189 -0.0028303757 0.0082498890
0.0054342623 0.0059960035 0.0082498915
0.0055784294 0.0060449683 0.0082498915
0.0041439520 -0.0020942448 0.0082498892
0.0051926698 -0.0038045691 0.0082498889
0.0049920206 0.0046248137 0.0082498911
0.0026377858 -0.0078700081 0.0082498890
0.0020345438 -0.0099509393 0.0082498867
0.0032838318 -0.0103101147 0.0082498873
0.0028346579 -0.0086216593 0.0082498878
0.0051969236 -0.0071410981 0.0082498890
0.0022685751 -0.0068200319 0.0082498886
0.0053942148 -0.0086924465 0.0082498882
0.0028216411 0.0133601765 0.0090391657
-0.0044320119 0.0128948645 0.0087758404
0.0049608083 0.0130213990 0.0088472471
-0.0041298819 0.0125027259 0.0086098997
0.0054673437 0.0122870317 0.0085265694
0.0008000597 0.0122901735 0.0085280347
-0.0043994881 0.0119045771 0.0084149543
0.0048625713 0.0114184073 0.0083059626
0.0048747222 0.0118423003 0.0084011468
0.0041004253 0.0112901222 0.0082951245
0.0006464856 0.0107359474 0.0082542675
0.0047416056 0.0111481185 0.0082846703
-0.0024877417 0.0302375425 0.0069822183
-0.0053494845 0.0354137884 0.0097054584
-0.0012425631 0.0312070908 0.0074923008
-0.0051839929 0.0322737505 0.0080534740
0.0013984683 0.0303339262 0.0070329261
-0.0009774332 0.0301811743 0.0069525628
0.0015661844 0.0299193709 0.0068148271
-0.0018230297 0.0294240615 0.0065542433
-0.0044986717 0.0319048529 0.0078593958
-0.0059083881 0.0372416776 0.0106671169
-0.0035503416 0.0304957440 0.0071180589
-0.0045701293 0.0328461652 0.0083546233
0.0006982467 0.0310920701 0.0074317881
0.0047128214 0.0296737908 0.0066856266
-0.0017885075 0.0344212050 0.0091832569
-0.0056005895 0.0298970636 0.0068030912
-0.0049220015 0.0339368624 0.0089284427
-0.0047833363 0.0300451311 0.0068809900
0.0030813072 0.0306794661 0.0072147157
-0.0000527198 0.0291503739 0.0064102553
0.0006743934 0.0362457001 0.0101431299
0.0036614450 0.0333022524 0.0085945723
0.0050148802 0.0326326605 0.0082422978
0.0022124468 0.0374659869 0.0107851268
-0.0027483247 0.0363965948 0.0102225161
0.0008477815 0.0365208403 0.0102878820
0.0041421952 0.0312934905 0.0075377560
0.0018168672 0.0364205698 0.0102351294
0.0064190409 0.0336612726 0.0087834540
0.0059577807 0.0355353032 0.0097693877
0.0022657953 0.0354483792 0.0097236567
0.0038653513 0.0306563894 0.0072025750
0.0037652958 0.0357759448 0.0098959901
0.0062686539 0.0331148274 0.0084959674
-0.0020284628 0.0364836815 0.0102683327
-0.0003902054 0.0359494291 0.0099872607
0.0018939531 0.0364099889 0.0102295628
-0.0019645671 0.0365654490 0.0103113508
0.0064121512 0.0374439909 0.0107735546
0.0039314806 0.0323035413 0.0080691471
-0.0013798375 0.0371105514 0.0105981310
-0.0034140782 0.0205889464 0.0002860672
-0.0036749271 0.0214761430 0.0004345623
-0.0045927528 0.0211259913 0.0003652903
-0.0058586296 0.0221791308 0.0006686912
0.0037721399 0.0217845521 0.0005243882
0.0050935589 0.0206648572 0.0003028676
0.0021507217 0.0205136582 0.0002759970
0.0014919115 0.0248544599 0.0027427416
-0.0014923300 0.0248318984 0.0027145769
0.0025109996 0.0223373280 0.0007280784
-0.0019544898 0.0223153889 0.0007202740
0.0063333615 0.0225466864 0.0008219665
-0.0026111458 0.0225447516 0.0008210312
0.0058297178 0.0230061157 0.0010619656
-0.0010132573 0.0231988950 0.0011740940
0.0010163947 0.0233134986 0.0012531737
-0.0050529679 0.0234379333 0.0013398616
0.0029263816 0.0239275562 0.0017147189
0.0008942721 0.0241391178 0.0019164813
0.0052207500 0.0243365155 0.0021066261
-0.0044693395 0.0242241394 0.0019983790
-0.0004510686 0.0245860440 0.0024033215
0.0006711837 0.0246205927 0.0024452977
-0.0008145283 -0.0010186037 0.0002498898
-0.0011793169 -0.0084733092 0.0002498872
-0.0016868202 0.0085876883 0.0002498925
-0.0026460648 -0.0092231416 0.0002498885
-0.0022277436 -0.0079820238 0.0002498886
0.0025872697 0.0190439539 0.0002498946
0.0009877466 0.0127203874 0.0002498926
0.0011657661 0.0147446046 0.0002498932
0.0019742765 0.0125549837 0.0002498925
0.0044939369 0.0169222835 0.0002498939
0.0044132661 0.0167236617 0.0002498938
0.0027245127 0.0188236759 0.0002498945
0.0010164837 0.0096834160 0.0002498916
0.0013743987 0.0104732245 0.0002498918
0.0012646965 0.0173979979 0.0002498941
0.0004129748 0.0130781800 0.0002498927
-0.0024301766 0.0088196922 0.0002498925
-0.0042675060 0.0137554584 0.0002498936
-0.0017930437 0.0043184564 0.0002498908
-0.0006396556 0.0023116484 0.0002498914
-0.0003482077 -0.0021188149 0.0002498896
-0.0005731050 -0.0081217529 0.0002498880
0.0000040132 -0.0094363335 0.0002498883
-0.0002750401 -0.0098605908 0.0002498880
0.0035433948 0.0129635990 0.0002498938
0.0013188682 0.0085753829 0.0002498919
-0.0034975633 0.0109411297 0.0002498930
-0.0047281712 0.0097570010 0.0002498926
-0.0046669146 0.0114088391 0.0002498930
-0.0044621813 0.0070021154 0.0002498920
-0.0041195645 0.0114292319 0.0002498930
-0.0064538803 0.0169554768 0.0002498942
-0.0055789777 0.0053229687 0.0002498915
-0.0041162616 0.0088029409 0.0002498924
-0.0027499249 0.0049240976 0.0002498916
-0.0037060935 0.0094285494 0.0002498926
-0.0058321614 0.0090225202 0.0002498924
-0.0050526382 0.0046383320 0.0002498914
-0.0027012011 0.0064656129 0.0002498919
-0.0050291142 -0.0013863338 0.0002498900
-0.0030578464 0.0084398100 0.0002498924
-0.0023888203 0.0062520683 0.0002498919
-0.0063012675 0.0089533422 0.0002498923
-0.0055498442 0.0131638838 0.0002498934
-0.0048106929 0.0013959383 0.0002498907
-0.0034414608 0.0058581508 0.0002498918
-0.0036119407 -0.0060458423 0.0002498887
-0.0038597412 -0.0080471950 0.0002498882
0.0052695323 0.0162130339 0.0002498942
-0.0000290250 0.0178983921 0.0002498942
-0.0001322478 0.0140259091 0.0002498933
-0.0004012370 0.0092007153 0.0002498928
-0.0013157154 0.0021788855 0.0002498901
-0.0029220760 -0.0014215295 0.0002498894
-0.0054801765 -0.0050838250 0.0002498890
-0.0019994621 0.0009837195 0.0002498899
-0.0034934163 -0.0012619765 0.0002498896
-0.0031542399 -0.0001048562 0.0002498898
-0.0053735806 -0.0053951382 0.0002498889
-0.0018029351 -0.0049140087 0.0002498887
-0.0049220698 -0.0070243681 0.0002498886
-0.0030277021 -0.0071271339 0.0002498881
-0.0009479914 0.0146389015 0.0002498940
0.0003593551 -0.0082093082 0.0002498882
0.0017868872 -0.0089951147 0.0002498884
0.0025979577 0.0084836652 0.0002498926
0.0016328968 0.0074013841 0.0002498920
-0.0031895818 0.0126219634 0.0002498934
-0.0018485301 0.0112048703 0.0002498933
-0.0047695199 0.0188220582 0.0002498946
-0.0020236092 0.0151397474 0.0002498939
-0.0038963474 0.0179126150 0.0002498944
-0.0013439464 0.0127295025 0.0002498935
-0.0041767181 0.0170332966 0.0002498943
-0.0025024068 0.0137464886 0.0002498937
-0.0041919911 0.0155810271 0.0002498941
-0.0026671020 0.0194611526 0.0002498946
0.0033166104 -0.0086433193 0.0002498875
0.0026611599 -0.0089421826 0.0002498870
0.0059923490 -0.0072166729 0.0002498886
0.0027592612 -0.0070883338 0.0002498876
0.0042730344 -0.0083441000 0.0002498882
0.0008305121 0.0019547590 0.0002498912
0.0009483527 -0.0018565326 0.0002498905
0.0059605892 0.0182274686 0.0002498944
0.0007784626 -0.0032831647 0.0002498903
0.0024386684 0.0066228281 0.0002498912
0.0030732614 0.0091510900 0.0002498924
0.0006055505 -0.0025698396 0.0002498904
0.0051583983 0.0135655818 0.0002498934
0.0033092172 0.0053382701 0.0002498915
0.0025942665 0.0030233199 0.0002498906
0.0019811958 0.0010868893 0.0002498909
0.0062376420 0.0142189460 0.0002498935
0.0050543709 0.0060381600 0.0002498915
0.0054162195 0.0102519865 0.0002498925
0.0060068185 0.0045688212 0.0002498913
0.0055341786 0.0133957083 0.0002498933
0.0058581293 0.0143734990 0.0002498935
0.0061037881 0.0042687407 0.0002498912
0.0038586156 0.0014489545 0.0002498903
0.0052641574 0.0084190291 0.0002498921
0.0023764059 -0.0053658689 0.0002498886
0.0052884644 0.0080957323 0.0002498920
0.0057211921 0.0092575710 0.0002498923
0.0052813666 -0.0034354146 0.0002498894
0.0038699785 0.0020910259 0.0002498905
0.0051457457 0.0065715306 0.0002498917
0.0051437639 0.0003373748 0.0002498902
0.0056376900 0.0106274368 0.0002498926
0.0042249188 0.0022795964 0.0002498906
0.0064190182 -0.0026451736 0.0002498897
0.0060526334 0.0175651889 0.0002498943
0.0022714989 -0.0020016675 0.0002498900
0.0014878257 0.0203255320 0.0040404593
0.0011283522 0.0210523036 0.0003922139
0.0006955967 0.0214088225 0.0035674027
-0.0000193904 0.0216184635 0.0038072153
-0.0008753944 0.0214233432 0.0036676380
0.0013386855 0.0192568490 0.0027493581
0.0009218348 0.0187426851 0.0005327583
-0.0017390631 0.0182976840 0.0052098337
0.0050522640 0.0181421502 0.0055224946
-0.0037732699 0.0181446229 0.0055154014
-0.0015994182 0.0180217191 0.0059882931
0.0036416437 0.0180048613 0.0062259607
-0.0023417466 0.0180104320 0.0064519641
-0.0036494683 0.0180294611 0.0065665225
-0.0010561304 0.0181305194 0.0069498326
-0.0032324960 0.0182342164 0.0071836820
0.0006198219 0.0183237839 0.0073407420
-0.0061604458 0.0184548069 0.0075150105
0.0032640121 0.0187306149 0.0077929312
0.0040942654 0.0188843674 0.0079095853
0.0032251389 0.0191505997 0.0080590100
-0.0002038983 0.0192824567 0.0081148650
0.0064592639 0.0195899557 0.0082059499
-0.0026925850 0.0198687493 0.0082455594
0.0057660143 0.0201656977 0.0082409150
-0.0039277434 0.0202646404 0.0082314463
-0.0007964879 0.0205475244 0.0081727867
0.0019790360 0.0207968064 0.0080804074
0.0034937677 0.0209796942 0.0079920346
0.0044165173 0.0211973167 0.0078516040
0.0013919825 0.0213994893 0.0076740248
-0.0009606399 0.0215123330 0.0075539766
0.0003040769 0.0183432105 0.0051297053
0.0044415382 0.0197450682 0.0042667811
0.0050905628 0.0204079203 0.0042947833
0.0032553769 0.0206484786 0.0043626640
0.0043402762 0.0209191079 0.0044755982
0.0031052872 0.0213984661 0.0048209965
-0.0060454336 0.0215507214 0.0049908618
-0.0024005396 0.0208596655 0.0044459026
-0.0056620106 0.0206447343 0.0043585004
-0.0018842891 0.0196799326 0.0042766805
-0.0064043175 0.0193337922 0.0043667249
-0.0045532689 0.0186123385 0.0048115315
0.0050766223 0.0184951182 0.0049389378
-0.0036839450 0.0184890985 0.0049479907
-0.0042797306 0.0216928940 0.0073081460
0.0013856768 0.0217446089 0.0052825006
0.0006313458 0.0218634328 0.0055280064
-0.0013292756 0.0219527157 0.0058210627
-0.0041510448 0.0219934330 0.0060978609
0.0031440177 0.0219968811 0.0062817838
0.0007194385 0.0219863465 0.0064778705
-0.0048215896 0.0218530894 0.0069973096
-0.0006068385 0.0218352483 0.0070441325
0.0068193175 0.0337378625 0.0182109605
0.0065812074 0.0179517641 0.0059153876
0.0066282177 0.0207549493 0.0082352838
0.0069304771 0.0214810340 0.0043282090
0.0070000002 0.0210883234 0.0100517132
0.0070000002 0.0234274468 0.0120547132
0.0070000002 0.0210370131 0.0091083848
0.0070000002 0.0031374668 0.0077341787
0.0070000002 0.0085333952 0.0075903904
0.0070000002 0.0093585702 0.0071411668
0.0070000002 0.0117584829 0.0065600691
0.0070000002 0.0168607698 0.0064748997
0.0070000002 -0.0044498211 0.0037214949
0.0070000002 -0.0037973093 0.0052218146
0.0070000002 -0.0014901035 0.0048162680
0.0070000002 -0.0033640460 0.0069118275
0.0070000002 0.0091087747 0.0046651049
0.0070000002 0.0095538576 0.0043933906
0.0070000002 -0.0031808270 0.0043847222
0.0070000002 -0.0055621973 0.0019599121
0.0070000002 -0.0040730809 0.0026293476
0.0070000002 -0.0041573044 0.0040244347
0.0070000002 -0.0033861195 0.0047673687
0.0070000002 -0.0044427363 0.0029082545
0.0070000002 -0.0053026215 0.0015876329
0.0070000002 0.0146478094 0.0058338502
0.0070000002 -0.0059627441 0.0065376946
0.0070000002 0.0126559834 0.0057704176
0.0070000002 0.0014143536 0.0047159415
0.0070000002 0.0006952604 0.0038564397
0.0070000002 -0.0005314327 0.0045002447
0.0070000002 -0.0025105112 0.0044470403
0.0070000002 0.0114007147 0.0050395654
0.0070000002 0.0043919718 0.0035702306
0.0070000002 -0.0021321637 0.0031222255
0.0070000002 0.0038083056 0.0063784889
0.0070000002 -0.0022728579 0.0055127595
0.0070000002 0.0014333594 0.0032567536
0.0070000002 0.0138473890 0.0054520086
0.0070000002 0.0059102089 0.0033218947
0.0070000002 0.0152706942 0.0081878521
0.0070000002 0.0157831878 0.0073877218
0.0070000002 0.0113529199 0.0077667591
0.0070000002 0.0081227163 0.0030667881
0.0070000002 0.0109864894 0.0039686368
0.0070000002 0.0179033215 0.0048898738
0.0070000002 0.0023011779 0.0025821032
0.0070000002 0.0159134249 0.0084717768
0.0070000002 0.0193355835 0.0093091870
0.0070000002 0.0284805856 0.0176796594
0.0070000002 0.0175034814 0.0090438146
0.0070000002 0.0243130617 0.0144324586
0.0070000002 0.0189055876 0.0116083619
0.0070000002 0.0278907864 0.0179766390
0.0070000002 0.0217108007 0.0128132695
0.0070000002 0.0216486592 0.0113652398
0.0070000002 0.0225912034 0.0144660686
0.0070000002 0.0230129458 0.0143724003
0.0070000002 0.0245462070 0.0137190966
0.0070000002 0.0273185653 0.0126189306
0.0070000002 0.0263322669 0.0124390386
0.0070000002 0.0239345440 0.0114677500
0.0070000002 0.0295697050 0.0158201700
0.0070000002 0.0232254837 0.0107774426
0.0070000002 0.0236480422 0.0115435107
0.0070000002 0.0320770625 0.0176648516
0.0070000002 0.0244958467 0.0115968855
0.0070000002 0.0260160835 0.0122803677
0.0070000002 0.0314163346 0.0193489578
0.0070000002 0.0326864707 0.0193357090
0.0070000002 0.0336484251 0.0209179988
0.0070000002 0.0054077578 0.0018656296
0.0070000002 0.0101057718 0.0015799687
0.0070000002 0.0191527549 0.0020037499
0.0070000002 0.0167767770 0.0024916619
0.0070000002 0.0147008006 0.0014178560
0.0070000002 0.0173393430 0.0018557289
0.0070000002 0.0101632193 0.0021027840
0.0070000002 0.0088771997 0.0022449535
0.0070000002 0.0102483770 0.0014131346
0.0070000002 0.0016451263 0.0008010596
0.0070000002 0.0107397946 0.0012813337
0.0070000002 -0.0049287817 0.0009915110
0.0070000002 0.0100738114 0.0012131218
0.0070000002 0.0070772855 0.0012412025
0.0070000002 0.0020404738 0.0019916802
0.0070000002 0.0027717263 0.0021815283
0.0070000002 0.0296326487 0.0112341703
0.0070000002 0.0294173208 0.0116350690
0.0070000002 0.0260476948 0.0098083485
0.0070000002 0.0226779873 0.0090471562
0.0070000002 0.0323414474 0.0151521026
0.0070000002 0.0240041489 0.0095363479
0.0070000002 0.0228095936 0.0085734221
0.0070000002 0.0295034345 0.0125362493
0.0070000002 0.0266903387 0.0104737335
0.0070000002 0.0206264745 0.0010198519
0.0070000002 0.0216112724 0.0016321952
0.0070000002 0.0223566850 0.0022879649
0.0070000002 0.0233707752 0.0039748424
0.0070000002 0.0248018658 0.0040967589
0.0070000002 0.0244164028 0.0055213983
0.0070000002 0.0225896834 0.0062156799
0.0070000002 0.0235169769 0.0067916618
0.0070000002 0.0344169471 0.0101321988
0.0070000002 0.0313858940 0.0094880378
0.0070000002 0.0278356704 0.0073858553
0.0070000002 0.0309090918 0.0088903384
0.0070000002 0.0263177548 0.0070078755
0.0070000002 0.0275930372 0.0085992145
0.0070000002 0.0345859202 0.0190859576
0.0070000002 0.0355358581 0.0196031576
0.0070000002 0.0369252105 0.0195773598
0.0070000002 0.0368315467 0.0182490085
0.0070000002 0.0393627929 0.0189090098
0.0070000002 0.0373508269 0.0170786307
0.0070000002 0.0395695748 0.0166365318
0.0070000002 0.0393076914 0.0148787741
0.0070000002 0.0392025760 0.0134627485
0.0070000002 0.0379144780 0.0130979905
0.0070000002 0.0367973711 0.0128836680
0.0070000002 0.0274837224 0.0092366333
0.0070000002 0.0329086987 0.0115391747
0.0070000002 0.0343961583 0.0118972817
0.0070000002 0.0277398860 0.0091055091
0.0070000002 0.0351909370 0.0109104224
0.0070000002 0.0314802288 0.0114047560
0.0070000002 0.0317017978 0.0114358594
0.0070000002 0.0280586877 0.0101867345
0.0069983952 -0.0070203927 0.0068431923
0.0069604226 -0.0075087899 0.0041727220
0.0068680239 -0.0080929030 0.0038829420
0.0067566982 -0.0085392576 0.0056344398
0.0066229505 -0.0088837676 0.0026808199
0.0064106855 -0.0093504550 0.0062730856
0.0061843907 -0.0097244741 0.0043272242
0.0060342596 -0.0099512552 0.0070991258
0.0056824608 -0.0103753467 0.0049535890
0.0052185743 -0.0108259540 0.0057083770
0.0047762397 -0.0111504071 0.0026318964
0.0044899184 -0.0113356006 0.0058252468
0.0039032122 -0.0116143122 0.0020789275
0.0036668212 -0.0117133858 0.0067460846
0.0031467719 -0.0118543132 0.0054658319
0.0027516885 -0.0119406242 0.0048006412
0.0026960334 -0.0119448904 0.0069728227
0.0015100016 -0.0119999993 0.0057789713
0.0017081718 -0.0119999990 0.0049223028
0.0012344713 -0.0119999985 0.0036600456
0.0015274316 -0.0119999991 0.0052505274
-0.0016574373 -0.0119999985 0.0036812125
0.0013378735 -0.0119999976 0.0015262627
-0.0010754312 -0.0119999974 0.0010830695
0.0001345066 -0.0119999986 0.0038717862
-0.0010880041 -0.0119999983 0.0032302782
-0.0024500471 -0.0119664994 0.0052128669
-0.0029823268 -0.0118911367 0.0027821565
-0.0029217829 -0.0119051731 0.0013535840
-0.0038385614 -0.0116331701 0.0075569547
-0.0037854606 -0.0116557434 0.0008226639
-0.0046204016 -0.0112412606 0.0054539153
-0.0048109973 -0.0111247105 0.0041838590
-0.0055245877 -0.0105456841 0.0031286956
-0.0055307147 -0.0105387226 0.0068421836
-0.0059327603 -0.0100705355 0.0010493400
-0.0060906736 -0.0098637191 0.0041935261
-0.0064227565 -0.0093227262 0.0011028162
-0.0065761903 -0.0089776549 0.0050152653
-0.0067693577 -0.0084838259 0.0074481496
-0.0068827175 -0.0080145178 0.0018184667
-0.0069441930 -0.0077057592 0.0063869387
-0.0069955296 -0.0070568039 0.0032292173
-0.0070000002 0.0035250832 0.0022066139
-0.0070000002 -0.0042558104 0.0011588189
-0.0070000002 0.0162773429 0.0023333851
-0.0070000002 0.0132175242 0.0018984440
-0.0070000002 -0.0012020895 0.0012295033
-0.0070000002 0.0096906600 0.0027342122
-0.0070000002 -0.0018181969 0.0014595519
-0.0070000002 0.0084442204 0.0023373055
-0.0070000002 0.0130358696 0.0009487746
-0.0070000002 -0.0018333319 0.0011414050
-0.0070000002 0.0139308112 0.0033752024
-0.0070000002 0.0133758750 0.0024814492
-0.0070000002 0.0156249131 0.0030590741
-0.0070000002 0.0020141078 0.0018508364
-0.0070000002 0.0115261730 0.0018306272
-0.0070000002 0.0053115474 0.0014870444
-0.0070000002 0.0149155639 0.0029798857
-0.0070000002 0.0232004033 0.0061070006
-0.0070000002 0.0341372826 0.0098998185
-0.0070000002 0.0300960270 0.0075886114
-0.0070000002 0.0333332108 0.0107886325
-0.0070000002 0.0359273037 0.0118861709
-0.0070000002 0.0316514740 0.0096124811
-0.0070000002 0.0329385070 0.0117238464
-0.0070000002 0.0150576248 0.0049091638
-0.0070000002 0.0073878407 0.0034562543
-0.0070000002 0.0171735530 0.0051217784
-0.0070000002 0.0168451274 0.0043608649
-0.0070000002 0.0052305470 0.0027592495
-0.0070000002 0.0231855975 0.0101535813
-0.0070000002 0.0252838436 0.0129441129
-0.0070000002 0.0236819630 0.0115076710
-0.0070000002 0.0256069676 0.0140401974
-0.0070000002 0.0295635013 0.0184049795
-0.0070000002 0.0025195101 0.0072499972
-0.0070000002 0.0072466066 0.0077415595
-0.0070000002 -0.0031418723 0.0076800800
-0.0070000002 0.0090008321 0.0076443012
-0.0070000002 0.0019420163 0.0041305133
-0.0070000002 0.0063206441 0.0062180236
-0.0070000002 -0.0048383347 0.0069856350
-0.0070000002 0.0103186580 0.0067497722
-0.0070000002 0.0055460121 0.0050518373
-0.0070000002 0.0021967460 0.0050290465
-0.0070000002 0.0031066372 0.0042501357
-0.0070000002 0.0049788214 0.0062731586
-0.0070000002 -0.0037218180 0.0073010565
-0.0070000002 0.0073365772 0.0055590220
-0.0070000002 -0.0057399659 0.0022756651
-0.0070000002 -0.0041924623 0.0048561289
-0.0070000002 0.0049192998 0.0048473182
-0.0070000002 0.0078363669 0.0053118882
-0.0070000002 0.0010389762 0.0057864653
-0.0070000002 0.0001420735 0.0048518263
-0.0070000002 -0.0048070572 0.0039248471
-0.0070000002 -0.0053214532 0.0025706277
-0.0070000002 -0.0067726020 0.0035662443
-0.0070000002 -0.0022097652 0.0029584474
-0.0070000002 -0.0047489610 0.0029503703
-0.0070000002 -0.0053114731 0.0059514908
-0.0070000002 -0.0038531956 0.0028279275
-0.0070000002 0.0052968320 0.0040416103
-0.0070000002 -0.0025275424 0.0019212327
-0.0070000002 0.0155526693 0.0064609187
-0.0070000002 0.0107807087 0.0050647759
-0.0070000002 0.0124567353 0.0051169772
-0.0070000002 0.0122036340 0.0046901125
-0.0070000002 0.0145602072 0.0051846067
-0.0070000002 0.0299598418 0.0141717111
-0.0070000002 0.0271120754 0.0112416411
-0.0070000002 0.0309074256 0.0198334897
-0.0070000002 0.0231583599 0.0149346904
-0.0070000002 0.0155136707 0.0097543818
-0.0070000002 0.0168422391 0.0087987568
-0.0070000002 0.0206899951 0.0111717815
-0.0070000002 0.0249825099 0.0152593911
-0.0070000002 0.0232130326 0.0147377899
-0.0070000002 0.0284535627 0.0178755216
-0.0070000002 0.0263224014 0.0156800370
-0.0070000002 0.0194971157 0.0121441594
-0.0070000002 0.0225581299 0.0127754673
-0.0070000002 0.0152411805 0.0094102810
-0.0070000002 0.0143668356 0.0081407798
-0.0070000002 0.0137024448 0.0080183529
-0.0070000002 0.0296196310 0.0087779956
-0.0070000002 0.0235063200 0.0053690438
-0.0070000002 0.0327545516 0.0134061843
-0.0070000002 0.0278595431 0.0086204675
-0.0070000002 0.0279813044 0.0075578301
-0.0070000002 0.0240590906 0.0060995462
-0.0070000002 0.0307910972 0.0121638610
-0.0070000002 0.0288840141 0.0111232811
-0.0070000002 0.0258387256 0.0054581505
-0.0070000002 0.0241922296 0.0041332515
-0.0070000002 0.0242475721 0.0089731280
-0.0070000002 0.0199226087 0.0017829061
-0.0070000002 0.0208249496 0.0015555385
-0.0070000002 0.0223870331 0.0018969558
-0.0070000002 0.0234496387 0.0025445543
-0.0070000002 0.0275440711 0.0102969658
-0.0070000002 0.0272537130 0.0105859244
-0.0070000002 0.0229020869 0.0070302479
-0.0070000002 0.0286040942 0.0120608690
-0.0070000002 0.0369586634 0.0120625551
-0.0070000002 0.0385655349 0.0127035533
-0.0070000002 0.0373533533 0.0147319011
-0.0070000002 0.0399342658 0.0144137285
-0.0070000002 0.0380813662 0.0160914335
-0.0070000002 0.0391136330 0.0168944166
-0.0070000002 0.0392721365 0.0184337572
-0.0070000002 0.0382288709 0.0193206492
-0.0070000002 0.0367215000 0.0188071232
-0.0070000002 0.0359641578 0.0196198502
-0.0070000002 0.0350218326 0.0190373131
-0.0070000002 0.0342095698 0.0189218632
-0.0070000002 0.0331834285 0.0193193617
-0.0070000002 0.0324485332 0.0192376917
-0.0070000002 0.0299148277 0.0151538168
-0.0070000002 0.0322578495 0.0192469896
-0.0070000002 0.0267688469 0.0136610572
-0.0070000002 0.0276617844 0.0148116234
-0.0070000002 0.0237085326 0.0100549317
-0.0070000002 0.0292478077 0.0164529883
-0.0070000002 0.0302177865 0.0152471382
-0.0070000002 0.0246166557 0.0099371938
-0.0068575869 0.0330144767 0.0175686663
-0.0065748486 0.0341246925 0.0143569329
-0.0068878532 0.0373048369 0.0166919559
-0.0034125181 0.0368645616 0.0168749793
-0.0027571844 0.0369631303 0.0162349152
-0.0055138407 0.0369173647 0.0158125328
0.0041784736 0.0369634805 0.0162626905
0.0039737156 0.0368951989 0.0157250802
0.0054643232 0.0366371861 0.0173484380
0.0011586609 0.0367595940 0.0153648818
0.0012461993 0.0366290486 0.0151407256
-0.0014096774 0.0365225363 0.0149962431
0.0025757861 0.0363416319 0.0147979165
0.0002907763 0.0360882255 0.0145946722
0.0023582110 0.0359209715 0.0144939003
-0.0000222406 0.0357173982 0.0143973761
-0.0035031450 0.0354753256 0.0143169892
0.0042089396 0.0352850410 0.0142774503
0.0046316540 0.0349588286 0.0142518954
0.0019506924 0.0347226918 0.0142653945
-0.0013462789 0.0344460236 0.0143201840
0.0047922949 0.0342408215 0.0143907636
0.0048060075 0.0339117528 0.0145562580
-0.0050658910 0.0338411260 0.0145997165
0.0043054229 0.0334370120 0.0149705952
-0.0036455975 0.0334884539 0.0149061542
0.0000329220 0.0335680771 0.0148233417
-0.0012837060 0.0359159551 0.0180715001
-0.0015995194 0.0365064542 0.0175849798
-0.0015280039 0.0371743316 0.0170742174
-0.0010718061 0.0375037042 0.0164825748
-0.0004935380 0.0386209518 0.0168411458
0.0003015291 0.0370040301 0.0156971605
0.0009284354 0.0394460307 0.0176505184
0.0014421408 0.0378384624 0.0172816327
0.0016202399 0.0377217586 0.0180799641
0.0014532650 0.0364081674 0.0180765744
0.0010495617 0.0356734251 0.0182062024
0.0002308455 0.0365856206 0.0192548455
-0.0004554411 0.0374592889 0.0197856355
