-0.0019507054 -0.0318395880 0.0213526440
-0.0037020090 -0.0316994299 0.0212754185
-0.0025540964 -0.0379229731 0.0110422803
-0.0060978441 -0.0381119203 0.0111608760
0.0032026920 -0.0406974401 0.0180234796
-0.0040933506 -0.0404239514 0.0187270832
0.0059987566 -0.0401267717 0.0192712500
0.0033656190 -0.0403230895 0.0189518428
0.0033278263 -0.0405566549 0.0183905813
0.0062611100 -0.0394232327 0.0202374935
-0.0057567465 -0.0387639458 0.0208695743
-0.0021016285 -0.0387762537 0.0208770562
0.0045496401 -0.0390428041 0.0206382691
-0.0056345512 -0.0394924547 0.0201592253
-0.0047584913 -0.0391981668 0.0205034981
-0.0059452132 -0.0401715462 0.0192009196
0.0056819915 -0.0381558680 0.0111929493
0.0053922056 -0.0382435493 0.0112488950
-0.0027394070 -0.0385911405 0.0114691875
0.0002934882 -0.0389336438 0.0117697007
0.0036787881 -0.0393073017 0.0121158632
-0.0024038580 -0.0393222235 0.0121247322
0.0022106066 -0.0393677917 0.0121723936
-0.0045603492 -0.0396492024 0.0125248083
0.0036352545 -0.0396763655 0.0125628131
-0.0039516875 -0.0399186431 0.0128704114
-0.0020798909 -0.0400151816 0.0130079443
-0.0064513047 -0.0403607176 0.0136480546
0.0034162850 -0.0402624541 0.0134727771
0.0024567784 -0.0403497425 0.0136358996
0.0010579950 -0.0403795586 0.0136903612
-0.0048771152 -0.0406216448 0.0142972647
-0.0022249000 -0.0406793743 0.0144713379
-0.0049855340 -0.0407735255 0.0147527833
0.0041699803 -0.0407945895 0.0148320401
-0.0005259709 -0.0408748415 0.0153164158
-0.0048158740 -0.0408248119 0.0149851401
-0.0046620891 -0.0409388608 0.0157338839
0.0063666297 -0.0408603612 0.0152393505
-0.0036932672 -0.0409475144 0.0163413333
-0.0055026055 -0.0409407147 0.0167020798
-0.0004466587 -0.0409397407 0.0166594610
0.0055914158 -0.0409424760 0.0164333121
-0.0055186541 -0.0407718668 0.0177349621
-0.0037930332 -0.0409153060 0.0169897812
-0.0052425095 -0.0407519281 0.0178363035
0.0039581275 -0.0407612229 0.0177695364
-0.0011331592 -0.0407186578 0.0179551508
-0.0049057259 -0.0372848003 0.0217659862
-0.0053422988 -0.0371546954 0.0218143538
-0.0033114990 -0.0380027109 0.0213991411
-0.0004823003 -0.0377333271 0.0215558948
-0.0003265482 -0.0382936868 0.0212309943
0.0020566677 -0.0383544300 0.0211967723
-0.0016279066 -0.0387084025 0.0209324107
0.0022128880 -0.0365770873 0.0220287067
-0.0020685079 -0.0366410540 0.0220054288
-0.0037923448 -0.0361285976 0.0221144769
-0.0020377385 -0.0364078383 0.0220624829
0.0062732276 -0.0359554294 0.0221477915
0.0040585967 -0.0359303105 0.0221523839
-0.0027228945 -0.0353620738 0.0222234046
-0.0011298009 -0.0351728774 0.0222257579
0.0001171950 -0.0348392158 0.0222303638
0.0038248053 -0.0349865376 0.0222286004
0.0047520978 -0.0337424788 0.0221072800
-0.0023305987 -0.0344909028 0.0222286230
0.0012352367 -0.0341839998 0.0221789470
-0.0064260103 -0.0343401883 0.0222039731
-0.0007643190 -0.0339452883 0.0221400478
-0.0016139383 -0.0334712824 0.0220578003
0.0063958575 -0.0332578030 0.0219855126
-0.0030266367 -0.0321847531 0.0215443740
0.0023979060 -0.0323553253 0.0216376244
-0.0024052294 -0.0331106583 0.0219346173
-0.0058646865 -0.0326016972 0.0217612744
-0.0035975930 -0.0365240428 0.0175016658
-0.0017437127 -0.0356661593 0.0181211174
-0.0044742486 -0.0354530820 0.0181887725
-0.0064804159 -0.0350077774 0.0182482164
0.0044722818 -0.0352839027 0.0182235409
0.0027175563 -0.0365549963 0.0174593075
-0.0048236568 -0.0332838553 0.0151705109
-0.0058647013 -0.0331606822 0.0153965078
-0.0009372063 -0.0347710783 0.0182387129
-0.0025958107 -0.0345566884 0.0182060259
0.0019341109 -0.0343067393 0.0181375741
-0.0023500404 -0.0340263255 0.0180147051
0.0015516237 -0.0337848882 0.0178620062
-0.0035416516 -0.0336111968 0.0177188926
-0.0022295966 -0.0334871854 0.0175953604
-0.0043695712 -0.0332890571 0.0173389826
-0.0002206673 -0.0331959800 0.0171763172
0.0034887844 -0.0330749816 0.0168903131
0.0008089699 -0.0330008769 0.0165970693
0.0018415332 -0.0329796697 0.0164767438
0.0004198155 -0.0329702109 0.0161930538
0.0062398367 -0.0330031339 0.0158930115
-0.0033096263 -0.0330385248 0.0157238035
0.0034121694 -0.0331136176 0.0155034546
-0.0069889266 -0.0358474462 0.0139249348
0.0068202223 -0.0005365459 0.0079298787
0.0068815937 -0.0051551655 0.0078685073
0.0066540969 -0.0067277280 0.0080960044
0.0066104347 -0.0067473249 0.0081396666
0.0068425995 -0.0117427213 0.0080290894
0.0065892912 -0.0158789481 0.0106052750
0.0069716536 -0.0213893017 0.0138271773
0.0065244938 -0.0255231052 0.0171269786
0.0067150954 -0.0267777203 0.0177360219
0.0069962803 -0.0318159359 0.0207641472
0.0069626050 -0.0360238641 0.0216657009
0.0065877261 -0.0399681623 0.0193644858
0.0069265580 -0.0404323254 0.0152505205
0.0067604997 -0.0381001243 0.0114661083
0.0069880847 -0.0326098814 0.0087820290
0.0066565793 -0.0303253947 0.0072055697
0.0065528387 -0.0268125949 0.0049735847
0.0066844192 -0.0231258864 0.0013541664
0.0069584560 -0.0105845658 0.0007085572
0.0068594794 -0.0042510069 0.0006095804
0.0067829158 -0.0175149645 0.0005330172
0.0065803353 -0.0051660345 0.0003304367
0.0065416257 -0.0126813354 0.0002917271
0.0067969245 -0.0025971519 0.0005470255
0.0065880623 -0.0190922089 0.0043705657
0.0065400150 -0.0220360109 0.0063424102
0.0069415369 -0.0183911158 0.0080762428
0.0034174215 0.0116918035 0.0006582880
0.0062881924 0.0087949892 0.0004131618
0.0047041752 0.0107035964 0.0081615825
0.0019724487 0.0116307375 0.0003808359
0.0015936258 0.0119928515 0.0077572518
-0.0067100521 0.0084124045 0.0006739307
-0.0036719327 0.0113287108 0.0004002633
-0.0047440385 0.0108502040 0.0080192050
-0.0066308895 0.0085134993 0.0078774116
-0.0067620059 -0.0025190120 0.0079880955
-0.0065770459 -0.0006833609 0.0081730552
-0.0065791236 -0.0004673522 0.0081709775
-0.0069594972 -0.0108801945 0.0078056192
-0.0069886819 -0.0163299765 0.0104262941
-0.0068980516 -0.0186800340 0.0121054911
-0.0065037562 -0.0179026781 0.0120603073
-0.0069681878 -0.0145594588 0.0092679649
-0.0066796519 -0.0202137828 0.0133929339
-0.0068365845 -0.0397947872 0.0133142842
-0.0066703267 -0.0407030771 0.0171948713
-0.0066813622 -0.0379970076 0.0211937560
-0.0067069108 -0.0331245344 0.0217215137
-0.0067945239 -0.0305580152 0.0074838225
-0.0066839705 -0.0336233282 0.0089715731
-0.0065324836 -0.0267213476 0.0048748725
-0.0067851801 -0.0242709429 0.0024578232
-0.0069409485 -0.0240280239 0.0024211593
-0.0069676760 -0.0061555088 0.0007177774
-0.0069192528 -0.0021564393 0.0006693540
-0.0065498824 -0.0061975835 0.0002999840
-0.0065663717 -0.0160099747 0.0003164733
-0.0066921716 -0.0049821733 0.0004422733
0.0013953579 -0.0190266023 0.0032231473
0.0014156623 -0.0209420881 0.0017912020
0.0017001539 -0.0202480016 0.0028404981
-0.0004655875 -0.0184844173 0.0044832096
0.0006548315 -0.0184775714 0.0033533269
0.0010914578 -0.0187198029 0.0031714004
0.0014964659 -0.0191835316 0.0029298393
-0.0011697504 -0.0076961464 0.0059036923
-0.0012834086 -0.0076192614 0.0051074487
-0.0017326690 -0.0071265514 0.0074626733
-0.0018831649 -0.0068470722 0.0053274697
-0.0019757268 -0.0065880561 0.0005552687
-0.0020601552 -0.0060502448 0.0052768118
-0.0020328526 -0.0056667402 0.0044048847
-0.0019891561 -0.0054485020 0.0039959905
-0.0017503457 -0.0049072997 0.0027348027
-0.0016472600 -0.0047623557 0.0022825661
-0.0011925349 -0.0043181194 0.0071865767
-0.0009016820 -0.0041457458 0.0042888050
-0.0006431028 -0.0040372948 0.0056730941
-0.0000433686 -0.0039370802 0.0053721879
0.0003390449 -0.0039617486 0.0058201527
0.0006598785 -0.0040427719 0.0059457164
0.0010172256 -0.0042035081 0.0014579172
0.0013714631 -0.0044625119 0.0054985392
0.0016681372 -0.0047926772 0.0065209923
0.0017844344 -0.0049633972 0.0078965642
0.0019385921 -0.0052933151 0.0012439857
0.0020494449 -0.0057986993 0.0038082204
0.0020442535 -0.0062989886 0.0025738924
0.0020157920 -0.0064249127 0.0022751607
0.0016781160 -0.0071950657 0.0073860858
0.0015163346 -0.0073936333 0.0082260559
0.0013576434 -0.0075575013 0.0061380194
0.0008314867 -0.0078860377 0.0079272299
0.0005917791 -0.0079723044 0.0005072492
0.0001275123 -0.0080576565 0.0014256921
-0.0001354336 -0.0080546780 0.0038175956
-0.0005190449 -0.0079929328 0.0029201636
0.0011758841 0.0076908879 0.0073478811
0.0014207877 0.0074904379 0.0063769768
0.0015680370 0.0073433328 0.0026210111
0.0017679043 0.0070699719 0.0059590402
0.0020037985 0.0064844475 0.0058967884
0.0020489790 0.0062054868 0.0009201065
0.0020492505 0.0057793933 0.0025197623
0.0020191870 0.0055890700 0.0023463896
0.0018391617 0.0050665756 0.0021566865
0.0015394235 0.0046305716 0.0057525677
0.0012952958 0.0043966130 0.0022630433
0.0010664322 0.0042303451 0.0035790286
0.0005925123 0.0040279132 0.0074995710
0.0001645740 0.0039464699 0.0010633453
-0.0001608697 0.0039469444 0.0033963855
-0.0003694892 0.0039707524 0.0010864775
-0.0008219875 0.0041120431 0.0016358243
-0.0014607019 0.0045452516 0.0077843512
-0.0016222130 0.0047303704 0.0045365800
-0.0018216643 0.0050382003 0.0073216041
-0.0019536973 0.0053469383 0.0013764921
-0.0020262127 0.0056262494 0.0003754716
-0.0020324576 0.0063355712 0.0069320113
-0.0019312996 0.0067178798 0.0079138764
-0.0018579119 0.0068958016 0.0057416189
-0.0015332989 0.0073828726 0.0015705006
-0.0013296314 0.0075754164 0.0054666085
-0.0010464626 0.0077764921 0.0044279456
-0.0005513988 0.0079855410 0.0034014782
-0.0001385007 0.0080554161 0.0078366176
0.0000805983 0.0080606971 0.0072545318
0.0006034948 0.0079717453 0.0053345980
0.0009341120 0.0078391762 0.0036935772
0.0050950582 -0.0252997091 0.0033141885
0.0005756599 -0.0253242090 0.0033458954
-0.0044826160 -0.0254008989 0.0034460942
0.0012356432 -0.0255188442 0.0035981110
-0.0018750877 -0.0255119949 0.0035897556
0.0011775172 -0.0257182518 0.0038531841
-0.0014848080 -0.0257465586 0.0038813797
-0.0033178548 -0.0264272598 0.0045706567
-0.0031639949 -0.0263761781 0.0045188494
0.0021965615 -0.0270164369 0.0050668558
0.0014960690 -0.0266275669 0.0047599708
0.0062390502 -0.0266406448 0.0047707118
-0.0064631085 -0.0266958950 0.0048134084
-0.0027866391 -0.0269355546 0.0050027670
-0.0004647395 -0.0278118920 0.0056438970
0.0063414189 -0.0278155254 0.0056463798
0.0063040107 -0.0275596427 0.0054910604
-0.0029302575 -0.0285190133 0.0060733650
-0.0057796499 -0.0280820004 0.0058078830
0.0057074178 -0.0153066544 0.0103302833
0.0062546331 -0.0235470336 0.0158361183
0.0059741609 -0.0201829899 0.0135884220
0.0056728828 -0.0227397483 0.0152967281
0.0019458418 -0.0200994765 0.0135326223
0.0027005783 -0.0194478304 0.0130972229
0.0051462623 -0.0292305373 0.0196335689
0.0026385659 -0.0230135289 0.0154796555
-0.0005016506 -0.0171251993 0.0115453497
0.0057806907 -0.0194484500 0.0130976369
-0.0007555243 -0.0177953005 0.0119930799
-0.0021028240 -0.0137568990 0.0092948095
0.0002958306 -0.0183589637 0.0123696933
-0.0013012365 -0.0154345506 0.0104157376
0.0057043352 -0.0242000326 0.0162724215
0.0064626571 -0.0150793482 0.0101784080
-0.0032313483 -0.0149566261 0.0100964109
0.0032744328 -0.0187297046 0.0126174050
-0.0002607115 -0.0194700623 0.0131120772
0.0031228937 -0.0173947946 0.0117254807
0.0043700066 -0.0283992141 0.0190781177
0.0023630831 -0.0250565859 0.0168447303
0.0037824230 -0.0217218514 0.0146166171
-0.0036649620 -0.0138804536 0.0093773629
0.0007962754 -0.0229105956 0.0154108802
-0.0014840630 -0.0203878819 0.0137253213
0.0002067587 -0.0209814214 0.0141218965
0.0010519702 -0.0223660576 0.0150470455
0.0050318708 -0.0285249674 0.0191621402
0.0020637350 -0.0176669425 0.0119073171
0.0028705105 -0.0217950814 0.0146655460
0.0028338556 -0.0195244849 0.0131484399
0.0050565760 -0.0177573927 0.0119677518
-0.0001664889 -0.0138730439 0.0093724120
0.0025419140 -0.0141136532 0.0095331759
0.0009895747 -0.0159757122 0.0107773164
0.0055867241 -0.0258149035 0.0173514026
0.0025190038 -0.0217333867 0.0146243245
0.0038417099 -0.0186065498 0.0125351187
0.0032013523 -0.0157847187 0.0106497035
-0.0000668905 -0.0186491731 0.0125635976
0.0049923390 -0.0286971538 0.0192771870
0.0023679797 -0.0196544520 0.0132352778
-0.0008052563 -0.0157634741 0.0106355088
-0.0020717296 -0.0218948903 0.0147322336
-0.0044940950 -0.0243000569 0.0163392531
-0.0008604035 -0.0213725909 0.0143832576
-0.0035470990 -0.0267029807 0.0179447741
0.0055634929 -0.0315942979 0.0212129229
-0.0040921370 -0.0211635034 0.0142435552
0.0006809305 -0.0310287154 0.0208350272
-0.0007293477 -0.0256002225 0.0172079628
-0.0038434753 -0.0300516907 0.0201822251
-0.0020504664 -0.0307750234 0.0206655220
-0.0035030812 -0.0236850675 0.0159283460
-0.0035089893 -0.0225987530 0.0152025216
-0.0040373784 -0.0265099946 0.0178158298
-0.0052843303 -0.0217915383 0.0146631786
0.0039803784 -0.0315791466 0.0212027994
-0.0022026513 -0.0308743424 0.0207318824
-0.0041571544 -0.0207050974 0.0139372698
-0.0032635484 -0.0310452964 0.0208461058
0.0021206028 -0.0271763979 0.0182610892
0.0027760560 -0.0304109484 0.0204222642
0.0045854782 -0.0293235270 0.0196957002
-0.0001367345 -0.0304368581 0.0204395759
0.0009936127 -0.0272695435 0.0183233248
-0.0009124846 -0.0273150981 0.0183537622
-0.0060802667 -0.0305915299 0.0205429203
0.0035210943 -0.0299512607 0.0201151225
-0.0057765779 -0.0278724822 0.0187261801
0.0005209341 -0.0296684188 0.0199261407
0.0008474264 -0.0308330484 0.0207042916
0.0052714303 -0.0300703138 0.0201946682
-0.0037294621 -0.0227993309 0.0153365384
0.0024603061 -0.0315481832 0.0211821112
-0.0058094369 -0.0190868150 0.0128560093
-0.0024425455 -0.0251275992 0.0168921780
-0.0027691950 -0.0312089163 0.0209554290
0.0023898920 -0.0261137113 0.0175510519
-0.0025413712 -0.0247839390 0.0166625604
0.0001944928 -0.0233349161 0.0156943913
0.0019251004 -0.0307168973 0.0206266849
-0.0017185027 -0.0245239701 0.0164888614
0.0045729442 -0.0299484116 0.0201132188
-0.0040741020 -0.0260936304 0.0175376348
-0.0059283755 -0.0259292332 0.0174277923
-0.0009006740 -0.0245569105 0.0165108706
0.0012533250 -0.0018516117 0.0082501017
0.0006002611 -0.0102807027 0.0082501015
-0.0002958011 -0.0095023394 0.0082501015
0.0013929422 -0.0089369273 0.0082501015
0.0010781631 -0.0086100982 0.0082501015
-0.0037961494 -0.0098941780 0.0082501015
-0.0003177486 -0.0082123208 0.0082501015
0.0004490188 0.0037108864 0.0082501006
0.0059378261 -0.0102901194 0.0082501015
0.0034320648 0.0092849601 0.0082501019
0.0021848304 0.0074621171 0.0082501016
0.0038223166 0.0076251063 0.0082501017
0.0024779285 -0.0022264093 0.0082501018
0.0020461363 -0.0063527714 0.0082501015
0.0038615807 0.0101298582 0.0082501020
0.0019873630 0.0094821931 0.0082501014
0.0006357119 0.0080444973 0.0082501015
0.0060643928 0.0069846663 0.0082501006
0.0037371971 -0.0000781380 0.0082501016
0.0044588572 -0.0022305702 0.0082501011
0.0058137129 0.0030893795 0.0082501008
0.0041594822 -0.0013555414 0.0082501011
0.0041058294 -0.0007400583 0.0082501011
0.0051121393 -0.0079209834 0.0082501014
0.0063391471 -0.0005771919 0.0082501009
0.0046468270 -0.0043525218 0.0082501012
0.0038254414 -0.0041279657 0.0082501013
0.0036171859 -0.0028462407 0.0082501012
0.0055265725 0.0001907566 0.0082501010
0.0062930718 0.0017158093 0.0082501008
0.0043423047 -0.0016652870 0.0082501011
0.0056334751 -0.0055403220 0.0082501013
-0.0020924502 -0.0084901499 0.0082501018
0.0044192668 0.0035194368 0.0082501010
0.0015540228 -0.0006185872 0.0082501018
0.0035741037 0.0015377362 0.0082501012
0.0020158332 0.0016112248 0.0082501019
0.0031631925 0.0000438030 0.0082501012
0.0025031153 0.0050453685 0.0082501021
0.0034096273 0.0051248974 0.0082501017
0.0014693298 0.0044626631 0.0082501020
-0.0027241325 -0.0077381368 0.0082501012
-0.0001034616 -0.0025039070 0.0082501022
0.0003254019 -0.0030089130 0.0082501014
-0.0036735525 -0.0078287613 0.0082501014
-0.0011666773 0.0112223871 0.0082501015
-0.0005941638 0.0107330728 0.0082501017
0.0001729191 0.0084756309 0.0082501011
-0.0006936823 -0.0029006274 0.0082501015
-0.0012886088 -0.0013183117 0.0082501011
-0.0028912715 -0.0032291201 0.0082501015
-0.0024122274 -0.0004502186 0.0082501015
-0.0028176538 -0.0058140393 0.0082501015
-0.0051877179 -0.0074448558 0.0082501015
-0.0014414079 -0.0010172589 0.0082501015
-0.0029600295 -0.0012069425 0.0082501015
-0.0029323486 -0.0008728850 0.0082501015
-0.0052327489 -0.0068156934 0.0082501013
-0.0026126907 0.0012697707 0.0082501007
-0.0049999693 0.0057153625 0.0082501009
-0.0042982698 -0.0032830609 0.0082501015
-0.0064701046 -0.0091623566 0.0082501014
-0.0053302514 0.0035188657 0.0082501009
-0.0047975279 0.0022119105 0.0082501011
-0.0052141062 0.0006813987 0.0082501011
-0.0040838195 0.0025425780 0.0082501012
-0.0043844189 0.0028303776 0.0082501011
-0.0054342623 -0.0059960016 0.0082501014
-0.0055784294 -0.0060449665 0.0082501014
-0.0041439520 0.0020942466 0.0082501012
-0.0051926698 0.0038045710 0.0082501009
-0.0049920206 -0.0046248118 0.0082501014
-0.0026377858 0.0078700100 0.0082501025
-0.0020345438 0.0099509412 0.0082501005
-0.0032838318 0.0103101165 0.0082501013
-0.0028346579 0.0086216612 0.0082501015
-0.0051969236 0.0071410999 0.0082501019
-0.0022685751 0.0068200337 0.0082501010
-0.0053942148 0.0086924484 0.0082501013
-0.0028216411 -0.0133601746 0.0090393743
0.0044320119 -0.0128948626 0.0087760490
-0.0049608083 -0.0130213971 0.0088474557
0.0041298819 -0.0125027240 0.0086101083
-0.0054673437 -0.0122870298 0.0085267780
-0.0008000597 -0.0122901717 0.0085282433
0.0043994881 -0.0119045752 0.0084151629
-0.0048625713 -0.0114184055 0.0083061712
-0.0048747222 -0.0118422984 0.0084013554
-0.0041004253 -0.0112901203 0.0082953332
-0.0006464856 -0.0107359455 0.0082544761
-0.0047416056 -0.0111481167 0.0082848789
0.0024877417 -0.0302375395 0.0069824227
0.0053494845 -0.0354137875 0.0097056612
0.0012425631 -0.0312070881 0.0074925049
0.0051839929 -0.0322737483 0.0080536778
-0.0013984683 -0.0303339232 0.0070331305
0.0009774332 -0.0301811712 0.0069527672
-0.0015661844 -0.0299193677 0.0068150316
0.0018230297 -0.0294240581 0.0065544479
0.0044986717 -0.0319048505 0.0078595997
0.0059083881 -0.0372416774 0.0106673192
0.0035503416 -0.0304957410 0.0071182633
0.0045701293 -0.0328461632 0.0083548269
-0.0006982467 -0.0310920674 0.0074319922
-0.0047128214 -0.0296737875 0.0066858312
0.0017885075 -0.0344212036 0.0091834601
0.0056005895 -0.0298970604 0.0068032957
0.0049220015 -0.0339368609 0.0089286460
0.0047833363 -0.0300451280 0.0068811945
-0.0030813072 -0.0306794632 0.0072149200
0.0000527198 -0.0291503704 0.0064104600
-0.0006743934 -0.0362456995 0.0101433325
-0.0036614450 -0.0333022506 0.0085947758
-0.0050148802 -0.0326326584 0.0082425015
-0.0022124468 -0.0374659868 0.0107853290
0.0027483247 -0.0363965942 0.0102227186
-0.0008477815 -0.0365208398 0.0102880845
-0.0041421952 -0.0312934879 0.0075379601
-0.0018168672 -0.0364205692 0.0102353319
-0.0064190409 -0.0336612710 0.0087836574
-0.0059577807 -0.0355353023 0.0097695905
-0.0022657953 -0.0354483782 0.0097238595
-0.0038653513 -0.0306563865 0.0072027793
-0.0037652958 -0.0357759440 0.0098961928
-0.0062686539 -0.0331148255 0.0084961709
0.0020284628 -0.0364836809 0.0102685351
0.0003902054 -0.0359494284 0.0099874634
-0.0018939531 -0.0364099884 0.0102297653
0.0019645671 -0.0365654485 0.0103115533
-0.0064121512 -0.0374439907 0.0107737568
-0.0039314806 -0.0323035391 0.0080693508
0.0013798375 -0.0371105511 0.0105983333
0.0034140777 -0.0205889436 0.0002862738
0.0036749269 -0.0214761394 0.0004347687
0.0045927528 -0.0211259875 0.0003654967
0.0058586296 -0.0221791271 0.0006688974
-0.0037721399 -0.0217845484 0.0005245945
-0.0050935589 -0.0206648529 0.0003030741
-0.0021507217 -0.0205136545 0.0002762036
-0.0014919115 -0.0248544565 0.0027429472
0.0014923300 -0.0248318951 0.0027147825
-0.0025109996 -0.0223373242 0.0007282846
0.0019544898 -0.0223153852 0.0007204802
-0.0063333615 -0.0225466826 0.0008221726
0.0026111458 -0.0225447479 0.0008212374
-0.0058297178 -0.0230061119 0.0010621716
0.0010132573 -0.0231988913 0.0011743000
-0.0010163947 -0.0233134948 0.0012533796
0.0050529679 -0.0234379296 0.0013400675
-0.0029263816 -0.0239275525 0.0017149246
-0.0008942721 -0.0241391149 0.0019166869
-0.0052207500 -0.0243365134 0.0021068317
0.0044693395 -0.0242241369 0.0019985847
0.0004510686 -0.0245860413 0.0024035271
-0.0006711837 -0.0246205898 0.0024455034
0.0008145283 0.0010186075 0.0002501015
0.0011793169 0.0084733129 0.0002501007
0.0016868202 -0.0085876845 0.0002501019
0.0026460648 0.0092231454 0.0002501022
0.0022277436 0.0079820275 0.0002501020
-0.0025872697 -0.0190439502 0.0002501015
-0.0009877466 -0.0127203837 0.0002501010
-0.0011657661 -0.0147446008 0.0002501012
-0.0019742765 -0.0125549800 0.0002501010
-0.0044939369 -0.0169222798 0.0002501014
-0.0044132661 -0.0167236580 0.0002501013
-0.0027245127 -0.0188236721 0.0002501015
-0.0010164837 -0.0096834123 0.0002501008
-0.0013743987 -0.0104732208 0.0002501008
-0.0012646965 -0.0173979942 0.0002501014
-0.0004129748 -0.0130781763 0.0002501011
0.0024301766 -0.0088196880 0.0002501019
0.0042675060 -0.0137554545 0.0002501018
0.0017930437 -0.0043184526 0.0002501012
0.0006396556 -0.0023116443 0.0002501023
0.0003482077 0.0021188187 0.0002501016
0.0005731050 0.0081217566 0.0002501014
-0.0000040132 0.0094363378 0.0002501020
0.0002750401 0.0098605950 0.0002501018
-0.0035433948 -0.0129635953 0.0002501022
-0.0013188682 -0.0085753792 0.0002501014
0.0034975633 -0.0109411260 0.0002501019
0.0047281712 -0.0097569973 0.0002501018
0.0046669146 -0.0114088353 0.0002501018
0.0044621813 -0.0070021117 0.0002501018
0.0041195645 -0.0114292281 0.0002501018
0.0064538803 -0.0169554731 0.0002501016
0.0055789777 -0.0053229650 0.0002501018
0.0041162616 -0.0088029372 0.0002501018
0.0027499249 -0.0049240939 0.0002501019
0.0037060935 -0.0094285457 0.0002501018
0.0058321614 -0.0090225164 0.0002501017
0.0050526382 -0.0046383283 0.0002501018
0.0027012011 -0.0064656092 0.0002501019
0.0050291142 0.0013863375 0.0002501018
0.0030578464 -0.0084398063 0.0002501018
0.0023888203 -0.0062520645 0.0002501019
0.0063012675 -0.0089533385 0.0002501017
0.0055498442 -0.0131638801 0.0002501017
0.0048106929 -0.0013959345 0.0002501018
0.0034414608 -0.0058581471 0.0002501018
0.0036119407 0.0060458462 0.0002501016
0.0038597412 0.0080471990 0.0002501016
-0.0052695323 -0.0162130302 0.0002501018
0.0000290250 -0.0178983884 0.0002501015
0.0001322478 -0.0140259054 0.0002501014
0.0004012370 -0.0092007116 0.0002501021
0.0013157154 -0.0021788818 0.0002501011
0.0029220760 0.0014215333 0.0002501013
0.0054801765 0.0050838288 0.0002501017
0.0019994621 -0.0009837158 0.0002501011
0.0034934163 0.0012619803 0.0002501014
0.0031542399 0.0001048600 0.0002501013
0.0053735806 0.0053951419 0.0002501016
0.0018029351 0.0049140124 0.0002501014
0.0049220698 0.0070243719 0.0002501018
0.0030277021 0.0071271376 0.0002501012
0.0009479914 -0.0146388977 0.0002501020
-0.0003593551 0.0082093121 0.0002501017
-0.0017868872 0.0089951184 0.0002501021
-0.0025979577 -0.0084836615 0.0002501020
-0.0016328968 -0.0074013801 0.0002501017
0.0031895818 -0.0126219597 0.0002501019
0.0018485301 -0.0112048666 0.0002501022
0.0047695199 -0.0188220545 0.0002501016
0.0020236092 -0.0151397437 0.0002501018
0.0038963474 -0.0179126113 0.0002501016
0.0013439464 -0.0127294987 0.0002501020
0.0041767181 -0.0170332928 0.0002501017
0.0025024068 -0.0137464849 0.0002501020
0.0041919911 -0.0155810234 0.0002501019
0.0026671020 -0.0194611488 0.0002501014
-0.0033166104 0.0086433231 0.0002501010
-0.0026611599 0.0089421864 0.0002501006
-0.0059923490 0.0072166766 0.0002501018
-0.0027592612 0.0070883375 0.0002501008
-0.0042730344 0.0083441037 0.0002501017
-0.0008305121 -0.0019547549 0.0002501022
-0.0009483527 0.0018565363 0.0002501024
-0.0059605892 -0.0182274649 0.0002501015
-0.0007784626 0.0032831684 0.0002501026
-0.0024386684 -0.0066228244 0.0002501011
-0.0030732614 -0.0091510863 0.0002501017
-0.0006055505 0.0025698434 0.0002501025
-0.0051583983 -0.0135655780 0.0002501016
-0.0033092172 -0.0053382664 0.0002501018
-0.0025942665 -0.0030233161 0.0002501014
-0.0019811958 -0.0010868856 0.0002501021
-0.0062376420 -0.0142189422 0.0002501016
-0.0050543709 -0.0060381563 0.0002501016
-0.0054162195 -0.0102519828 0.0002501016
-0.0060068185 -0.0045688175 0.0002501017
-0.0055341786 -0.0133957046 0.0002501016
-0.0058581293 -0.0143734953 0.0002501016
-0.0061037881 -0.0042687370 0.0002501017
-0.0038586156 -0.0014489508 0.0002501015
-0.0052641574 -0.0084190253 0.0002501016
-0.0023764059 0.0053658727 0.0002501013
-0.0052884644 -0.0080957286 0.0002501016
-0.0057211921 -0.0092575673 0.0002501016
-0.0052813666 0.0034354183 0.0002501017
-0.0038699785 -0.0020910222 0.0002501015
-0.0051457457 -0.0065715269 0.0002501016
-0.0051437639 -0.0003373711 0.0002501016
-0.0056376900 -0.0106274331 0.0002501016
-0.0042249188 -0.0022795926 0.0002501015
-0.0064190182 0.0026451773 0.0002501018
-0.0060526334 -0.0175651852 0.0002501016
-0.0022714989 0.0020016712 0.0002501020
-0.0014878257 -0.0203255283 0.0040406660
-0.0011283521 -0.0210523000 0.0003924205
-0.0006955967 -0.0214088188 0.0035676090
0.0000193906 -0.0216184612 0.0038074218
0.0008753942 -0.0214233409 0.0036678443
-0.0013387072 -0.0192568892 0.0027495483
-0.0009218348 -0.0187426814 0.0005329654
0.0017390631 -0.0182976817 0.0052100409
-0.0050522640 -0.0181421483 0.0055227018
0.0037732699 -0.0181446210 0.0055156086
0.0015994182 -0.0180217172 0.0059885003
-0.0036416437 -0.0180048594 0.0062261679
0.0023417466 -0.0180104288 0.0064521713
0.0036494683 -0.0180294580 0.0065667297
0.0010561304 -0.0181305176 0.0069500398
0.0032324960 -0.0182342145 0.0071838893
-0.0006198219 -0.0183237821 0.0073409492
0.0061604458 -0.0184548051 0.0075152177
-0.0032640121 -0.0187306130 0.0077931380
-0.0040942654 -0.0188843655 0.0079097921
-0.0032251389 -0.0191505979 0.0080592168
0.0002038983 -0.0192824548 0.0081150718
-0.0064592639 -0.0195899538 0.0082061566
0.0026925850 -0.0198687474 0.0082457661
-0.0057660143 -0.0201656959 0.0082411218
0.0039277434 -0.0202646385 0.0082316530
0.0007964879 -0.0205475225 0.0081729935
-0.0019790360 -0.0207968046 0.0080806141
-0.0034937677 -0.0209796923 0.0079922411
-0.0044165173 -0.0211973144 0.0078518108
-0.0013919825 -0.0213994875 0.0076742312
0.0009606399 -0.0215123311 0.0075541829
-0.0003040769 -0.0183432079 0.0051299125
-0.0044415382 -0.0197450663 0.0042669878
-0.0050905628 -0.0204079167 0.0042949900
-0.0032558458 -0.0206471967 0.0043624987
-0.0043409043 -0.0209182445 0.0044753356
-0.0031052870 -0.0213984635 0.0048212029
0.0060454336 -0.0215507195 0.0049910681
0.0024005396 -0.0208596618 0.0044461089
0.0056620106 -0.0206447324 0.0043587072
0.0018842891 -0.0196799307 0.0042768872
0.0064043175 -0.0193337903 0.0043669318
0.0045529626 -0.0186121069 0.0048119331
-0.0050766400 -0.0184951240 0.0049391356
0.0036827407 -0.0184884788 0.0049488399
0.0042797306 -0.0216928920 0.0073083523
-0.0013856767 -0.0217446057 0.0052827069
-0.0006313458 -0.0218634310 0.0055282127
0.0013292756 -0.0219527129 0.0058212690
0.0041510448 -0.0219934312 0.0060980672
-0.0031440177 -0.0219968792 0.0062819900
-0.0007194385 -0.0219863429 0.0064780765
0.0048215896 -0.0218530876 0.0069975159
0.0006068385 -0.0218352464 0.0070443388
-0.0068193175 -0.0337378625 0.0182111644
-0.0065812074 -0.0179517622 0.0059155949
-0.0066282177 -0.0207549475 0.0082354898
-0.0069304771 -0.0214810319 0.0043284153
-0.0070000002 -0.0210883224 0.0100519196
-0.0070000002 -0.0234274461 0.0120549189
-0.0070000002 -0.0210370113 0.0091085914
-0.0070000002 -0.0031374642 0.0077343894
-0.0070000002 -0.0085333923 0.0075905999
-0.0070000002 -0.0093585671 0.0071413760
-0.0070000002 -0.0117584803 0.0065602776
-0.0070000002 -0.0168607662 0.0064751071
-0.0070000002 0.0044498241 0.0037217074
-0.0070000002 0.0037973120 0.0052220268
-0.0070000002 0.0014901062 0.0048164796
-0.0070000002 0.0033640483 0.0069120395
-0.0070000002 -0.0091087722 0.0046653142
-0.0070000002 -0.0095538551 0.0043935997
-0.0070000002 0.0031808299 0.0043849343
-0.0070000002 0.0055622007 0.0019601248
-0.0070000002 0.0040730841 0.0026295600
-0.0070000002 0.0041573074 0.0040246470
-0.0070000002 0.0033861223 0.0047675808
-0.0070000002 0.0044427395 0.0029084669
-0.0070000002 0.0053026250 0.0015878456
-0.0070000002 -0.0146478074 0.0058340581
-0.0070000002 0.0059627466 0.0065379072
-0.0070000002 -0.0126559813 0.0057706260
-0.0070000002 -0.0014143509 0.0047161526
-0.0070000002 -0.0006952575 0.0038566510
-0.0070000002 0.0005314354 0.0045004562
-0.0070000002 0.0025105140 0.0044472522
-0.0070000002 -0.0114007124 0.0050397741
-0.0070000002 -0.0043919690 0.0035704410
-0.0070000002 0.0021321668 0.0031224374
-0.0070000002 -0.0038083033 0.0063786993
-0.0070000002 0.0022728605 0.0055129713
-0.0070000002 -0.0014333565 0.0032569646
-0.0070000002 -0.0138473869 0.0054522167
-0.0070000002 -0.0059102061 0.0033221048
-0.0070000002 -0.0152706923 0.0081880603
-0.0070000002 -0.0157831860 0.0073879296
-0.0070000002 -0.0113529177 0.0077669678
-0.0070000002 -0.0081227128 0.0030669977
-0.0070000002 -0.0109864870 0.0039688457
-0.0070000002 -0.0179033196 0.0048900810
-0.0070000002 -0.0023011749 0.0025823141
-0.0070000002 -0.0159134230 0.0084719850
-0.0070000002 -0.0193355818 0.0093093936
-0.0070000002 -0.0284805851 0.0176798635
-0.0070000002 -0.0175034796 0.0090440218
-0.0070000002 -0.0243130607 0.0144326638
-0.0070000002 -0.0189055862 0.0116085689
-0.0070000002 -0.0278907860 0.0179768432
-0.0070000002 -0.0217107995 0.0128134756
-0.0070000002 -0.0216486578 0.0113654457
-0.0070000002 -0.0225912025 0.0144662745
-0.0070000002 -0.0230129449 0.0143726060
-0.0070000002 -0.0245462059 0.0137193018
-0.0070000002 -0.0273185645 0.0126191360
-0.0070000002 -0.0263322659 0.0124392439
-0.0070000002 -0.0239345427 0.0114679557
-0.0070000002 -0.0295697045 0.0158203739
-0.0070000002 -0.0232254823 0.0107776485
-0.0070000002 -0.0236480408 0.0115437165
-0.0070000002 -0.0320770624 0.0176650547
-0.0070000002 -0.0244958454 0.0115970911
-0.0070000002 -0.0260160825 0.0122805729
-0.0070000002 -0.0314163345 0.0193491610
-0.0070000002 -0.0326864707 0.0193359121
-0.0070000002 -0.0336484251 0.0209182022
-0.0070000002 -0.0054077547 0.0018658399
-0.0070000002 -0.0101057685 0.0015801778
-0.0070000002 -0.0191527519 0.0020039569
-0.0070000002 -0.0167767742 0.0024918695
-0.0070000002 -0.0147007972 0.0014180640
-0.0070000002 -0.0173393399 0.0018559363
-0.0070000002 -0.0101632163 0.0021029931
-0.0070000002 -0.0088771968 0.0022451630
-0.0070000002 -0.0102483737 0.0014133436
-0.0070000002 -0.0016451226 0.0008012707
-0.0070000002 -0.0107397911 0.0012815427
-0.0070000002 0.0049287853 0.0009917236
-0.0070000002 -0.0100738079 0.0012133309
-0.0070000002 -0.0070772820 0.0012414123
-0.0070000002 -0.0020404708 0.0019918913
-0.0070000002 -0.0027717228 0.0021817392
-0.0070000002 -0.0296326479 0.0112343747
-0.0070000002 -0.0294173201 0.0116352733
-0.0070000002 -0.0260476935 0.0098085537
-0.0070000002 -0.0226779856 0.0090473625
-0.0070000002 -0.0323414473 0.0151523066
-0.0070000002 -0.0240041474 0.0095365536
-0.0070000002 -0.0228095919 0.0085736278
-0.0070000002 -0.0295034339 0.0125364540
-0.0070000002 -0.0266903376 0.0104739388
-0.0070000002 -0.0206264709 0.0010200585
-0.0070000002 -0.0216112691 0.0016324015
-0.0070000002 -0.0223566830 0.0022881710
-0.0070000002 -0.0233707733 0.0039750484
-0.0070000002 -0.0248018625 0.0040969644
-0.0070000002 -0.0244164009 0.0055216040
-0.0070000002 -0.0225896816 0.0062158862
-0.0070000002 -0.0235169751 0.0067918678
-0.0070000002 -0.0344169439 0.0101324018
-0.0070000002 -0.0313858911 0.0094882416
-0.0070000002 -0.0278356683 0.0073860602
-0.0070000002 -0.0309090891 0.0088905424
-0.0070000002 -0.0263177529 0.0070080808
-0.0070000002 -0.0275930341 0.0085994194
-0.0070000002 -0.0345859232 0.0190861607
-0.0070000002 -0.0355358585 0.0196033604
-0.0070000002 -0.0369252111 0.0195775618
-0.0070000002 -0.0368315467 0.0182492115
-0.0070000002 -0.0393627929 0.0189092128
-0.0070000002 -0.0373508269 0.0170788325
-0.0070000002 -0.0395695748 0.0166367341
-0.0070000002 -0.0393076914 0.0148789756
-0.0070000002 -0.0392025758 0.0134629506
-0.0070000002 -0.0379144768 0.0130981926
-0.0070000002 -0.0367973695 0.0128838706
-0.0070000002 -0.0274837194 0.0092368382
-0.0070000002 -0.0329086966 0.0115393783
-0.0070000002 -0.0343961563 0.0118974849
-0.0070000002 -0.0277398827 0.0091057139
-0.0070000002 -0.0351909334 0.0109106252
-0.0070000002 -0.0314802271 0.0114049601
-0.0070000002 -0.0317017960 0.0114360634
-0.0070000002 -0.0280586842 0.0101869394
-0.0069983952 0.0070203952 0.0068434052
-0.0069604226 0.0075087929 0.0041729352
-0.0068680239 0.0080929059 0.0038831553
-0.0067566982 0.0085392600 0.0056346532
-0.0066229505 0.0088837708 0.0026810334
-0.0064106855 0.0093504572 0.0062732993
-0.0061843907 0.0097244768 0.0043274380
-0.0060342596 0.0099512572 0.0070993396
-0.0056824608 0.0103753493 0.0049538028
-0.0052185743 0.0108259564 0.0057085912
-0.0047762397 0.0111504104 0.0026321104
-0.0044899184 0.0113356030 0.0058254610
-0.0039032122 0.0116143156 0.0020791417
-0.0036668212 0.0117133879 0.0067462988
-0.0031467719 0.0118543157 0.0054660462
-0.0027516885 0.0119406269 0.0048008554
-0.0026960334 0.0119448925 0.0069730370
-0.0015100016 0.0120000024 0.0057791856
-0.0017081718 0.0120000021 0.0049225171
-0.0012344713 0.0120000018 0.0036602599
-0.0015274316 0.0120000022 0.0052507417
0.0016574373 0.0120000018 0.0036814268
-0.0013378735 0.0120000012 0.0015264771
0.0010754312 0.0120000011 0.0010832839
-0.0001345066 0.0120000019 0.0038720005
0.0010880041 0.0120000017 0.0032304926
0.0024500471 0.0119665019 0.0052130811
0.0029823268 0.0118911398 0.0027823708
0.0029217829 0.0119051766 0.0013537983
0.0038385614 0.0116331720 0.0075571689
0.0037854606 0.0116557471 0.0008228781
0.0046204016 0.0112412631 0.0054541295
0.0048109973 0.0111247133 0.0041840732
0.0055245877 0.0105456872 0.0031289097
0.0055307147 0.0105387247 0.0068423978
0.0059327603 0.0100705391 0.0010495538
0.0060906736 0.0098637220 0.0041937399
0.0064227565 0.0093227298 0.0011030299
0.0065761903 0.0089776577 0.0050154788
0.0067693577 0.0084838278 0.0074483629
0.0068827175 0.0080145214 0.0018186801
0.0069441930 0.0077057618 0.0063871519
0.0069955296 0.0070568071 0.0032294303
0.0070000002 -0.0035250802 0.0022068246
0.0070000002 0.0042558141 0.0011590314
0.0070000002 -0.0162773400 0.0023335927
0.0070000002 -0.0132175211 0.0018986524
0.0070000002 0.0012020930 0.0012297151
0.0070000002 -0.0096906574 0.0027344215
0.0070000002 0.0018182002 0.0014597638
0.0070000002 -0.0084442175 0.0023375151
0.0070000002 -0.0130358660 0.0009489829
0.0070000002 0.0018333354 0.0011416170
0.0070000002 -0.0139308088 0.0033754107
0.0070000002 -0.0133758722 0.0024816576
0.0070000002 -0.0156249106 0.0030592819
0.0070000002 -0.0020141047 0.0018510475
0.0070000002 -0.0115261699 0.0018308360
0.0070000002 -0.0053115440 0.0014872546
0.0070000002 -0.0149155614 0.0029800937
0.0070000002 -0.0232003999 0.0061072063
0.0070000002 -0.0341372799 0.0099000222
0.0070000002 -0.0300960249 0.0075888159
0.0070000002 -0.0333332093 0.0107888362
0.0070000002 -0.0359273014 0.0118863741
0.0070000002 -0.0316514726 0.0096126851
0.0070000002 -0.0329385065 0.0117240504
0.0070000002 -0.0150576228 0.0049093716
0.0070000002 -0.0073878381 0.0034564640
0.0070000002 -0.0171735511 0.0051219857
0.0070000002 -0.0168451238 0.0043610724
0.0070000002 -0.0052305441 0.0027594597
0.0070000002 -0.0231855960 0.0101537868
0.0070000002 -0.0252838424 0.0129443179
0.0070000002 -0.0236819616 0.0115078768
0.0070000002 -0.0256069666 0.0140404025
0.0070000002 -0.0295635009 0.0184051833
0.0070000002 -0.0025195072 0.0072502080
0.0070000002 -0.0072466046 0.0077417690
0.0070000002 0.0031418746 0.0076802920
0.0070000002 -0.0090008300 0.0076445103
0.0070000002 -0.0019420128 0.0041307244
0.0070000002 -0.0063206409 0.0062182336
0.0070000002 0.0048383373 0.0069858474
0.0070000002 -0.0103186547 0.0067499814
0.0070000002 -0.0055460087 0.0050520476
0.0070000002 -0.0021967427 0.0050292575
0.0070000002 -0.0031066337 0.0042503466
0.0070000002 -0.0049788182 0.0062733689
0.0070000002 0.0037218206 0.0073012686
0.0070000002 -0.0073365738 0.0055592319
0.0070000002 0.0057399694 0.0022758779
0.0070000002 0.0041924653 0.0048563413
0.0070000002 -0.0049192963 0.0048475286
0.0070000002 -0.0078363634 0.0053120980
0.0070000002 -0.0010389731 0.0057866765
0.0070000002 -0.0001420703 0.0048520377
0.0070000002 0.0048070603 0.0039250596
0.0070000002 0.0053214566 0.0025708404
0.0070000002 0.0067726051 0.0035664573
0.0070000002 0.0022097687 0.0029586595
0.0070000002 0.0047489644 0.0029505829
0.0070000002 0.0053114759 0.0059517033
0.0070000002 0.0038531991 0.0028281399
0.0070000002 -0.0052968283 0.0040418207
0.0070000002 0.0025275461 0.0019214449
0.0070000002 -0.0155526657 0.0064611268
0.0070000002 -0.0107807050 0.0050649850
0.0070000002 -0.0124567323 0.0051171861
0.0070000002 -0.0122036317 0.0046903212
0.0070000002 -0.0145602051 0.0051848148
0.0070000002 -0.0299598413 0.0141719149
0.0070000002 -0.0271120744 0.0112418458
0.0070000002 -0.0309074254 0.0198336930
0.0070000002 -0.0231583590 0.0149348961
0.0070000002 -0.0155136690 0.0097545899
0.0070000002 -0.0168422373 0.0087989644
0.0070000002 -0.0206899936 0.0111719878
0.0070000002 -0.0249825090 0.0152595962
0.0070000002 -0.0232130316 0.0147379955
0.0070000002 -0.0284535622 0.0178757257
0.0070000002 -0.0263224007 0.0156802416
0.0070000002 -0.0194971144 0.0121443663
0.0070000002 -0.0225581287 0.0127756731
0.0070000002 -0.0152411787 0.0094104892
0.0070000002 -0.0143668337 0.0081409882
0.0070000002 -0.0137024430 0.0080185614
0.0070000002 -0.0296196298 0.0087782002
0.0070000002 -0.0235063183 0.0053692496
0.0070000002 -0.0327545514 0.0134063883
0.0070000002 -0.0278595419 0.0086206725
0.0070000002 -0.0279813030 0.0075580349
0.0070000002 -0.0240590890 0.0060997520
0.0070000002 -0.0307910968 0.0121640654
0.0070000002 -0.0288840134 0.0111234859
0.0070000002 -0.0258387236 0.0054583557
0.0070000002 -0.0241922266 0.0041334571
0.0070000002 -0.0242475706 0.0089733336
0.0070000002 -0.0199226049 0.0017831128
0.0070000002 -0.0208249464 0.0015557450
0.0070000002 -0.0223870312 0.0018971619
0.0070000002 -0.0234496352 0.0025447602
0.0070000002 -0.0275440702 0.0102971710
0.0070000002 -0.0272537120 0.0105861296
0.0070000002 -0.0229020851 0.0070304541
0.0070000002 -0.0286040935 0.0120610739
0.0070000002 -0.0369586607 0.0120627581
0.0070000002 -0.0385655349 0.0127037556
0.0070000002 -0.0373533501 0.0147321040
0.0070000002 -0.0399342658 0.0144139304
0.0070000002 -0.0380813662 0.0160916362
0.0070000002 -0.0391136330 0.0168946182
0.0070000002 -0.0392721391 0.0184339600
0.0070000002 -0.0382288709 0.0193208510
0.0070000002 -0.0367215000 0.0188073262
0.0070000002 -0.0359641578 0.0196200533
0.0070000002 -0.0350218326 0.0190375161
0.0070000002 -0.0342095707 0.0189220664
0.0070000002 -0.0331834288 0.0193195661
0.0070000002 -0.0324485332 0.0192378948
0.0070000002 -0.0299148271 0.0151540209
0.0070000002 -0.0322578495 0.0192471928
0.0070000002 -0.0267688459 0.0136612622
0.0070000002 -0.0276617836 0.0148118281
0.0070000002 -0.0237085311 0.0100551378
0.0070000002 -0.0292478072 0.0164531925
0.0070000002 -0.0302177860 0.0152473421
0.0070000002 -0.0246166543 0.0099373993
0.0068575869 -0.0330144767 0.0175688698
0.0065748486 -0.0341246925 0.0143571361
0.0068878532 -0.0373048369 0.0166921579
0.0046589447 -0.0366826468 0.0172716687
0.0027571734 -0.0369631321 0.0162350998
0.0055138420 -0.0369173653 0.0158127368
-0.0041784784 -0.0369634805 0.0162629002
-0.0039737214 -0.0368951999 0.0157252862
-0.0054643232 -0.0366371861 0.0173486410
-0.0011586609 -0.0367595940 0.0153650849
-0.0012461993 -0.0366290463 0.0151409283
0.0014096774 -0.0365225363 0.0149964457
-0.0025757861 -0.0363416283 0.0147981196
-0.0002907763 -0.0360882255 0.0145948752
-0.0023582110 -0.0359209715 0.0144941033
0.0000222406 -0.0357173982 0.0143975792
0.0035031450 -0.0354753223 0.0143171923
-0.0042089396 -0.0352850410 0.0142776534
-0.0046316540 -0.0349588260 0.0142520986
-0.0019506924 -0.0347226918 0.0142655984
0.0013462789 -0.0344460236 0.0143203870
-0.0047922949 -0.0342408215 0.0143909671
-0.0048060075 -0.0339117528 0.0145564615
0.0050658910 -0.0338411260 0.0145999203
-0.0043054229 -0.0334370120 0.0149707990
0.0036455975 -0.0334884539 0.0149063582
-0.0000329220 -0.0335680771 0.0148235448
0.0012838834 -0.0359162162 0.0180715538
0.0015996909 -0.0365071617 0.0175843722
0.0015282282 -0.0371741512 0.0170750113
0.0010718155 -0.0375037045 0.0164827871
0.0004935379 -0.0386209533 0.0168413480
-0.0003015556 -0.0370040324 0.0156973721
-0.0009284322 -0.0394460322 0.0176507186
-0.0014421844 -0.0378384364 0.0172819318
-0.0016202399 -0.0377217586 0.0180801668
-0.0014532449 -0.0364081394 0.0180767966
-0.0010508509 -0.0356747784 0.0182059447
-0.0002308455 -0.0365856221 0.0192550485
0.0004554473 -0.0374592928 0.0197858382
