0.0033837716 0.0215206198 -0.0245000012
-0.0166728860 -0.0140143170 -0.0245000012
0.0209462257 -0.0058151597 -0.0245000012
0.0225521279 0.0009401631 -0.0227249467
-0.0137277273 0.0156419697 -0.0223909122
0.0179349290 0.0118501815 -0.0223648197
0.0206071889 0.0009461329 -0.0224363043
-0.0015643771 -0.0205360089 -0.0225000009
-0.0203993738 -0.0006175707 -0.0224410250
-0.0185943582 -0.0085965705 -0.0223573007
-0.0073790571 0.0208910977 -0.0224532295
0.0111215851 -0.0184967403 -0.0225000009
-0.0013939735 -0.0255677863 -0.0223935533
0.0173807759 0.0190988500 -0.0222800827
0.0144461664 0.0214509651 -0.0213567935
-0.0147268557 0.0212965220 -0.0210919537
-0.0258691774 -0.0016327936 -0.0214262998
-0.0101689205 -0.0237445925 -0.0217470678
0.0183992802 -0.0181710197 -0.0213115959
-0.0209076113 -0.0024453161 -0.0209723104
-0.0151217042 -0.0132579522 -0.0209076458
0.0095489977 0.0178224937 -0.0209009512
-0.0002527470 -0.0210746832 -0.0209808168
0.0157975481 -0.0130314412 -0.0209248478
0.0167206062 0.0132279241 -0.0209779633
0.0118423306 -0.0160929907 -0.0209390623
0.0181512264 -0.0088254504 -0.0203710056
-0.0043789351 0.0196210345 -0.0201528096
0.0071659428 0.0193836927 -0.0201500002
0.0200980563 -0.0032615160 -0.0201500002
-0.0010658902 -0.0208195362 -0.0201500002
-0.0196525759 -0.0044919427 -0.0201500002
-0.0212365187 -0.0027832972 -0.0209782902
0.0169143631 0.0133891525 -0.0202490230
-0.0071782476 -0.0202007247 -0.0201695729
-0.0039348253 -0.0223441797 -0.0210129951
-0.0236350978 0.0042173065 -0.0181573730
0.0233440298 -0.0031035662 -0.0175742809
0.0137683234 0.0176987911 -0.0229944857
0.0185864973 0.0124211838 -0.0241761472
0.0020391375 0.0222711994 -0.0243849171
-0.0073387651 0.0213037717 -0.0237003053
-0.0041024059 0.0220411907 -0.0210930022
-0.0204604442 -0.0129646047 -0.0225000009
-0.0205459701 -0.0157709681 -0.0229599680
0.0235742865 -0.0096691159 -0.0224954040
-0.0002484880 0.0256135445 -0.0224622698
-0.0246497485 -0.0076540697 -0.0228450839
0.0093410853 0.0242489802 -0.0312806213
-0.0090731089 0.0242972068 -0.0250077671
-0.0085818199 0.0244926408 -0.0367193028
-0.0235907077 0.0107620551 -0.0241872582
-0.0242192812 -0.0093424327 -0.0338672740
0.0237823836 0.0103401447 -0.0294637248
0.0144247444 0.0215937421 -0.0341175853
0.0166886612 0.0198809036 -0.0385569569
0.0180131000 0.0186958059 -0.0375185052
0.0191126673 0.0175764967 -0.0287143723
0.0207446751 0.0155953788 -0.0308531989
0.0222856198 0.0132941047 -0.0232782324
0.0078093386 0.0247830547 -0.0319414640
0.0051838442 0.0254405872 -0.0305855730
0.0026431941 0.0258188271 -0.0354535814
-0.0000788886 0.0259560026 -0.0260564267
-0.0021360845 0.0258816916 -0.0282772764
-0.0065984854 0.0251202493 -0.0246517219
-0.0064571449 0.0251531687 -0.0280427605
-0.0136114620 0.0221046707 -0.0272535059
-0.0153295149 0.0209987086 -0.0258803548
-0.0166239430 0.0199368690 -0.0318950888
-0.0177090398 0.0190283997 -0.0283269419
-0.0199941457 0.0165547373 -0.0347030522
-0.0208658187 0.0153728584 -0.0346884503
-0.0227753667 0.0125118160 -0.0280051612
-0.0252766193 -0.0058826394 -0.0372142920
-0.0254930806 -0.0050577854 -0.0243403454
-0.0256459485 -0.0039975341 -0.0275064895
-0.0259773389 0.0003530209 -0.0248425729
-0.0259592139 0.0010119213 -0.0300619565
-0.0255763426 0.0045500303 -0.0388545681
-0.0250190370 0.0070003922 -0.0303090435
0.0245943137 -0.0082444691 -0.0239482740
0.0100385604 -0.0239780658 -0.0293572427
0.0104669242 -0.0237730094 -0.0384044961
-0.0080112347 -0.0247116155 -0.0358659604
0.0238444711 0.0101454061 -0.0343399389
-0.0233340513 -0.0113622448 -0.0247428182
-0.0218741082 -0.0139709744 -0.0243405799
-0.0218619560 -0.0139971570 -0.0384027877
-0.0197193337 -0.0169027276 -0.0351690051
-0.0187224620 -0.0179830255 -0.0341107725
-0.0154005164 -0.0209155638 -0.0231014027
-0.0142228331 -0.0217264658 -0.0256046603
-0.0111021673 -0.0234803935 -0.0306415822
-0.0055499463 -0.0253517436 -0.0299824562
-0.0052547557 -0.0254179165 -0.0303250634
-0.0018696086 -0.0259060890 -0.0304095902
0.0016730232 -0.0259420128 -0.0335615343
0.0019429891 -0.0259160343 -0.0348470098
0.0049651479 -0.0255035960 -0.0249403426
0.0093187416 -0.0242635442 -0.0273423278
0.0140175195 -0.0218492971 -0.0286450255
0.0169271820 -0.0196775424 -0.0267771667
0.0174938994 -0.0191423847 -0.0340343147
0.0190140977 -0.0176810367 -0.0265455009
0.0208008985 -0.0155385406 -0.0338357337
0.0215347623 -0.0145259973 -0.0361016148
0.0233036319 -0.0114920096 -0.0256654978
0.0255285203 -0.0046956077 -0.0282887538
0.0257965224 -0.0028754216 -0.0273650871
0.0259867383 -0.0006908985 -0.0231180847
0.0259245658 0.0017596334 -0.0333849524
0.0256777163 0.0036594907 -0.0360575156
0.0251416459 0.0065048822 -0.0253060850
0.0246444890 0.0082423511 -0.0259740126
-0.0151122331 0.0209791107 -0.0390900209
-0.0140189752 -0.0218482060 -0.0509449935
-0.0119344942 -0.0230636889 -0.0457518703
-0.0106343238 -0.0237000179 -0.0499438443
-0.0088989342 -0.0243818857 -0.0405336319
-0.0057234678 -0.0253229098 -0.0539462566
-0.0042993667 -0.0256282079 -0.0481981387
-0.0020481302 -0.0258947701 -0.0468079725
0.0010204940 -0.0259692410 -0.0516440341
0.0013913655 -0.0259548627 -0.0461451871
0.0042573384 -0.0256446222 -0.0536932191
0.0066411539 -0.0251209348 -0.0525768921
0.0083773104 -0.0245625844 -0.0411120985
0.0098955036 -0.0240363312 -0.0537910332
0.0127147639 -0.0226575737 -0.0470204607
0.0144457729 -0.0215882048 -0.0523725338
0.0166520257 -0.0199354872 -0.0517652362
0.0183704638 -0.0183618274 -0.0392199740
0.0206948970 -0.0156597658 -0.0508591006
0.0217984659 -0.0141051336 -0.0513694183
0.0225006315 -0.0130026908 -0.0451436531
0.0232879137 -0.0114535784 -0.0435008088
0.0244033696 -0.0088550094 -0.0552152865
0.0252002417 -0.0062361468 -0.0536650345
0.0255207933 -0.0048159391 -0.0463189299
0.0259238835 -0.0018672974 -0.0518404977
0.0259667714 0.0008266905 -0.0542375611
0.0257482608 0.0033828777 -0.0550613198
0.0256695851 0.0041263562 -0.0433804263
0.0256249896 0.0043345835 -0.0399905078
0.0247253432 0.0079407889 -0.0500660857
0.0238296608 0.0103292612 -0.0485323054
0.0236193917 0.0107587236 -0.0392294772
0.0218290195 0.0140671324 -0.0438038088
0.0202776284 0.0162074105 -0.0412006617
0.0190609360 0.0176376832 -0.0500779982
0.0170518141 0.0195939584 -0.0500082132
0.0154700106 0.0208720494 -0.0401070607
0.0138080122 0.0219824813 -0.0395522497
0.0125985268 0.0227326916 -0.0412195674
0.0087782086 0.0244308173 -0.0485252826
0.0087378604 0.0244454193 -0.0418367175
0.0048012643 0.0255366654 -0.0478442700
0.0024669849 0.0258506219 -0.0539969065
0.0014979227 0.0259476584 -0.0497277377
0.0001442907 0.0259553598 -0.0426566411
-0.0032991745 0.0257582110 -0.0451668212
-0.0051558517 0.0254454345 -0.0507790429
-0.0086272401 0.0244886652 -0.0504850139
-0.0088811164 0.0244022363 -0.0410636786
-0.0116484865 0.0232064523 -0.0503344098
-0.0128495147 0.0225771301 -0.0530456317
-0.0163095988 0.0201992372 -0.0549401321
-0.0158396109 0.0205677591 -0.0459174211
-0.0173893553 0.0193049236 -0.0393597438
-0.0199091105 0.0166778940 -0.0452884563
-0.0221611692 0.0135298731 -0.0556477056
-0.0229019709 0.0121813392 -0.0511051403
-0.0238962225 0.0101864907 -0.0472893136
-0.0241036012 0.0097035499 -0.0501211293
-0.0252869555 0.0058701284 -0.0509889516
-0.0254337591 0.0052324995 -0.0498865928
-0.0257733274 0.0031865536 -0.0413180962
-0.0259638362 -0.0004697246 -0.0476672722
-0.0259516559 -0.0014220953 -0.0457565488
-0.0254750877 -0.0050714882 -0.0451914760
-0.0253648831 -0.0055193112 -0.0394214249
-0.0246282452 -0.0082294773 -0.0399476357
-0.0239855642 -0.0100006089 -0.0551991888
-0.0223854471 -0.0131558625 -0.0503649494
-0.0216690215 -0.0143105889 -0.0427595800
-0.0209958191 -0.0152960267 -0.0397468194
-0.0195110051 -0.0171827983 -0.0541755729
-0.0171541056 -0.0195134447 -0.0485833309
-0.0158529648 -0.0205678394 -0.0396888756
0.0180695911 0.0182766803 -0.0563977784
-0.0025751187 -0.0255852463 -0.0563634599
0.0088887490 -0.0024298203 -0.0565997001
-0.0047268637 0.0075848964 -0.0566000007
-0.0060159443 0.0089692677 -0.0565959649
0.0075771980 0.0234632765 -0.0564935740
0.0108058463 0.0008857640 -0.0565953897
0.0108999293 0.0051552723 -0.0565777035
-0.0102124348 0.0119934671 -0.0566000007
-0.0064615368 0.0191213016 -0.0566000007
-0.0072645648 0.0184441875 -0.0566000007
-0.0094675903 0.0067593527 -0.0566000007
-0.0245940616 -0.0004795593 -0.0566000007
-0.0022166177 -0.0082927074 -0.0565972976
0.0024933257 -0.0160704950 -0.0565996800
-0.0125488860 0.0004591041 -0.0566000007
-0.0125469192 -0.0010468495 -0.0565999090
-0.0100331873 -0.0047969335 -0.0565977515
-0.0064055583 -0.0245789299 -0.0565096459
-0.0047589996 -0.0169557004 -0.0565986113
-0.0050168048 -0.0149814878 -0.0565985141
-0.0098386825 -0.0140775023 -0.0565983036
-0.0029309491 -0.0134210635 -0.0565816294
0.0133315914 -0.0041688112 -0.0566000007
0.0225590014 -0.0002646502 -0.0565167653
-0.0211270601 0.0029563886 -0.0566000007
-0.0108913899 0.0038322450 -0.0566000007
-0.0150085908 -0.0061938079 -0.0565982395
-0.0108565702 -0.0109000325 -0.0565979403
-0.0159937031 -0.0070003991 -0.0565985294
-0.0177187119 -0.0048519451 -0.0565986317
-0.0114545516 0.0099832563 -0.0566000007
0.0093614636 -0.0064940946 -0.0566000007
0.0176352817 -0.0068234429 -0.0566000007
0.0159276913 -0.0159416697 -0.0566000007
0.0094492888 -0.0095318346 -0.0566000007
0.0066662654 -0.0144036076 -0.0566000007
0.0122035765 -0.0200922173 -0.0566000007
0.0039281297 -0.0182910814 -0.0566000007
0.0054735726 -0.0050179333 -0.0554473744
0.0022893953 -0.0071656436 -0.0546442436
-0.0068507677 -0.0028809689 -0.0548004134
-0.0072873278 -0.0000369392 -0.0549013527
0.0075144766 -0.0009396397 -0.0538719533
0.0013776489 -0.0082447958 -0.0539241482
0.0223599333 -0.0073974668 -0.0546000004
0.0093451474 -0.0062544718 -0.0546000004
0.0100911785 -0.0082601095 -0.0546000004
0.0122514751 -0.0095331421 -0.0546000004
0.0015508607 -0.0096427685 -0.0546000004
0.0204641031 -0.0132703887 -0.0546000004
0.0119156922 0.0008292541 -0.0546000004
0.0088316779 0.0058120143 -0.0546000004
-0.0034487645 -0.0185727752 -0.0546000004
-0.0061069178 -0.0057155470 -0.0546000004
-0.0082724294 -0.0118567614 -0.0546000004
0.0207367204 -0.0095956933 -0.0546000004
-0.0113137910 -0.0207180140 -0.0546000004
-0.0221398182 -0.0099850390 -0.0546000004
-0.0204427891 -0.0124912016 -0.0546000004
-0.0126935812 -0.0115097732 -0.0546000004
0.0072978224 0.0091130777 -0.0546000004
0.0073683393 -0.0199951064 -0.0546000004
0.0154269690 -0.0190937863 -0.0546000004
-0.0091532042 0.0128177597 -0.0546000004
-0.0062063486 0.0112694722 -0.0546000004
-0.0106804534 0.0043440958 -0.0546000004
-0.0025287414 -0.0081776187 -0.0546000004
-0.0161313224 0.0010010744 -0.0546000004
-0.0171794382 -0.0011265782 -0.0546000004
-0.0142878805 -0.0038286435 -0.0546000004
-0.0205897125 -0.0064211397 -0.0546000004
0.0065108320 0.0083526821 -0.0546000004
0.0121746730 0.0148642784 -0.0546000004
-0.0102719281 0.0200080472 -0.0546000004
-0.0094769431 0.0214719013 -0.0546000004
-0.0209692868 0.0134756853 -0.0547845170
-0.0072901452 0.0239131834 -0.0534434006
0.0004300664 0.0248988659 -0.0524762189
0.0094172830 0.0230943731 -0.0539144568
-0.0152181819 0.0197089409 -0.0524427353
-0.0219748650 0.0118678858 -0.0554905043
-0.0198001509 -0.0151088194 -0.0543996561
-0.0236757082 -0.0079211810 -0.0509616049
-0.0249225695 -0.0014313705 -0.0535968331
-0.0240588247 0.0062432881 -0.0554513898
-0.0134633306 -0.0211250951 -0.0443497412
-0.0095625184 -0.0231653250 -0.0446092817
-0.0052188503 -0.0244877988 -0.0461444723
-0.0011666031 -0.0250647707 -0.0484269328
0.0026813609 -0.0248945239 -0.0468604903
0.0061604189 -0.0242571280 -0.0474314391
0.0095664158 -0.0231470090 -0.0438719527
0.0134666346 -0.0210930617 -0.0489785007
0.0168647675 -0.0185240548 -0.0410118615
0.0196004147 -0.0156099085 -0.0471988939
0.0221879080 -0.0116257435 -0.0420759836
0.0242176891 -0.0062806985 -0.0493536824
0.0247159711 -0.0039464927 -0.0471826805
0.0250506789 -0.0007292720 -0.0434074025
0.0247562843 0.0037794984 -0.0476655733
0.0234919525 0.0087134403 -0.0434289734
0.0209406532 0.0137250975 -0.0489330407
0.0193547487 0.0158977826 -0.0439377267
0.0147682829 0.0202379582 -0.0459698747
-0.0243251473 0.0039800380 -0.0408928615
0.0134146458 0.0211648065 -0.0462887826
0.0102381387 0.0228645758 -0.0408161467
0.0052637903 0.0244672509 -0.0475048586
0.0032756527 0.0248684402 -0.0414430246
-0.0028324663 0.0248911688 -0.0447014301
-0.0062976346 0.0242423676 -0.0446121452
-0.0094619204 0.0231915458 -0.0428629268
-0.0145921785 0.0203269220 -0.0491995796
-0.0169006476 0.0185187364 -0.0464167446
-0.0201555244 0.0148568895 -0.0459775477
-0.0224339728 0.0111558215 -0.0433110686
-0.0241436352 0.0065961508 -0.0474071918
-0.0249426361 0.0024659606 -0.0441589470
-0.0250208625 0.0015360326 -0.0425557146
-0.0244901117 -0.0050909239 -0.0496159086
-0.0234539486 -0.0088289434 -0.0428114255
-0.0211381681 -0.0133828595 -0.0497024253
-0.0198598592 -0.0152759744 -0.0416437125
-0.0164962299 -0.0188813409 -0.0434354078
0.0216819330 -0.0117594617 -0.0409745896
-0.0117482930 -0.0191694602 -0.0410000011
-0.0090404457 -0.0199827823 -0.0410000011
-0.0088033433 0.0218601128 -0.0409140395
0.0215985394 -0.0046630364 -0.0410000011
0.0159017834 0.0185929076 -0.0408458307
0.0193293905 0.0145003010 -0.0408525066
-0.0222266531 0.0078534597 -0.0410000011
-0.0192217949 -0.0133408397 -0.0410000011
-0.0215219126 0.0031151970 -0.0410000011
0.0082159125 0.0211100264 -0.0409573775
-0.0046295860 0.0216008849 -0.0410000011
-0.0006267858 -0.0214490671 -0.0331235667
0.0070427351 -0.0201627913 -0.0361569620
-0.0018897282 -0.0213601363 -0.0408094410
-0.0119071186 0.0178584028 -0.0384232783
-0.0161812563 0.0140236259 -0.0379292794
-0.0183064877 0.0111529388 -0.0372796496
-0.0203638283 0.0067303341 -0.0381318896
-0.0213184320 0.0021379499 -0.0378127295
-0.0213890161 -0.0011461396 -0.0402446296
-0.0196820481 -0.0084833953 -0.0385164438
-0.0176461630 -0.0121158219 -0.0384427408
-0.0157749448 -0.0144355559 -0.0378274974
-0.0095468198 -0.0191327262 -0.0393320167
-0.0066411460 -0.0203221315 -0.0397633551
0.0015614456 -0.0240132486 -0.0395678249
0.0111279654 -0.0183421387 -0.0345675199
0.0170564095 -0.0130372121 -0.0339915903
0.0200904310 -0.0075626153 -0.0352973835
0.0185176933 -0.0109220026 -0.0405350793
0.0155509626 0.0148192527 -0.0331789532
0.0186674148 0.0106087935 -0.0329076426
0.0202253746 0.0070954556 -0.0377074625
0.0211996698 0.0030674369 -0.0400047282
0.0214631793 -0.0010432740 -0.0392476713
-0.0056071758 0.0206478305 -0.0388238947
-0.0011489837 0.0214475347 -0.0335907869
0.0046692637 0.0209522003 -0.0343552901
0.0094741030 0.0192304433 -0.0366957105
-0.0194677464 -0.0088934602 -0.0261427984
-0.0214656632 -0.0003698041 -0.0324439214
-0.0214036102 0.0025563674 -0.0293126052
-0.0200310542 0.0076180115 -0.0291255203
-0.0172848728 0.0126720525 -0.0278176499
-0.0132657523 0.0168722801 -0.0302685962
-0.0092109947 0.0193968880 -0.0296660975
-0.0020582635 0.0212869324 -0.0281251759
0.0015902810 0.0213460536 -0.0256417498
0.0076708593 0.0200298376 -0.0312153673
0.0120759626 0.0177366204 -0.0314900571
0.0159512511 0.0143652678 -0.0310850754
0.0192590526 0.0094439580 -0.0290673615
-0.0020773441 0.0212363771 -0.0259306149
-0.0197403833 0.0086698487 -0.0252764987
-0.0112541291 -0.0182409216 -0.0257094440
0.0110070595 -0.0185935579 -0.0248294352
0.0207165650 0.0058618829 -0.0253813538
0.0211435563 0.0033419303 -0.0286498539
0.0214137381 -0.0008253653 -0.0260760566
0.0205106068 -0.0062061923 -0.0323046304
0.0178239387 -0.0119394711 -0.0304160350
0.0155291242 -0.0148389414 -0.0318212244
0.0115206740 -0.0181187642 -0.0300508527
0.0051223645 -0.0208278067 -0.0327761243
0.0004165458 -0.0214471865 -0.0314957222
-0.0077406521 -0.0199097359 -0.0283965605
-0.0126277427 -0.0173392913 -0.0266022948
-0.0156978758 -0.0146365111 -0.0303555780
-0.0189342319 -0.0100712820 -0.0277475216
0.0136615506 -0.0181830792 -0.0379999988
0.0070035174 -0.0231023085 -0.0401165310
0.0159712892 -0.0147036742 -0.0395982315
-0.0049247401 -0.0221033394 -0.0355432876
-0.0029209472 -0.0247995839 -0.0519424357
0.0250261390 0.0009441618 -0.0514079048
0.0192746025 0.0159449882 -0.0503530582
0.0239500653 0.0070468123 -0.0509899956
0.0238876948 -0.0073286295 -0.0516638448
0.0176524095 -0.0176852699 -0.0529343604
0.0129124975 -0.0213551588 -0.0521644994
0.0028617105 -0.0247981169 -0.0510131242
-0.0131481474 -0.0212287957 -0.0535859935
-0.0052574434 -0.0200786372 -0.0545546890
0.0078504088 -0.0145000017 -0.0513387011
-0.0008143708 -0.0182444342 -0.0515851845
0.0048938555 -0.0193836216 -0.0524449743
0.0145487237 -0.0152003174 -0.0524790189
-0.0007560353 -0.0195987645 -0.0512024896
0.0092489875 -0.0166441597 -0.0509999990
-0.0050005791 -0.0230995435 -0.0550626525
0.0209034314 -0.0043431845 -0.0533000007
0.0209778469 -0.0020581943 -0.0550193400
0.0127264587 0.0155283689 -0.0543164370
0.0128594120 0.0167040074 -0.0537526861
-0.0148113709 0.0162879046 -0.0533000007
-0.0135963906 0.0167181519 -0.0550626928
-0.0165578780 0.0103989800 -0.0556762643
0.0096192071 0.0094238627 -0.0550367335
0.0230733669 0.0067589196 -0.0548577581
0.0100717200 0.0167854023 -0.0564864395
0.0018539364 0.0245825053 -0.0553410810
0.0086851071 0.0116702990 -0.0562120935
-0.0217844882 -0.0087940138 -0.0274008929
-0.0087000604 -0.0239026903 -0.0286013729
0.0229880320 -0.0083351303 -0.0274302985
-0.0091343562 0.0229517295 -0.0272675044
0.0089361503 0.0235355365 -0.0286725495
-0.0173188205 -0.0145424496 -0.0227807719
-0.0110464192 -0.0207751686 -0.0231232187
0.0059382610 -0.0217676186 -0.0242480891
0.0040841989 -0.0232438386 -0.0223093433
0.0214438884 -0.0062748610 -0.0244682181
-0.0243335322 -0.0057130913 -0.0218897345
-0.0223456211 0.0001558852 -0.0239639976
0.0050553349 0.0228538587 -0.0218105767
0.0181565885 0.0129133093 -0.0213955391
-0.0134452731 0.0203802395 -0.0220850188
0.0111169091 0.0193082808 -0.0139450840
0.0136318814 0.0195233258 -0.0182693639
0.0123598969 0.0213744312 -0.0126690124
0.0111271689 0.0195471998 -0.0188832677
-0.0200558388 0.0090118651 -0.0070000007
0.0113739989 0.0222040496 -0.0071967700
0.0057549210 0.0252493264 -0.0072841510
-0.0003757653 0.0244663528 -0.0070226903
-0.0233308917 -0.0005603306 -0.0070000007
-0.0217152237 0.0047122909 -0.0094999988
-0.0195531257 0.0088786019 -0.0081659591
0.0141953465 0.0160102801 -0.0078748190
0.0047515323 -0.0203252390 -0.0090645755
0.0216846188 -0.0001064339 -0.0086870582
-0.0126936761 -0.0172535114 -0.0090366146
0.0221494942 0.0043874216 -0.0099870695
0.0241091890 0.0051063390 -0.0202306808
0.0221611135 0.0065674129 -0.0114765398
-0.0149517919 0.0210512723 -0.0072111806
-0.0180719614 -0.0152004963 -0.0092486707
-0.0158118002 -0.0147038327 -0.0090052813
-0.0041770904 -0.0222699414 -0.0103912038
0.0127559761 -0.0185040260 -0.0128912831
0.0182788883 -0.0176265055 -0.0070544111
0.0248660730 -0.0016863049 -0.0070540364
0.0157367297 -0.0197171778 -0.0070009348
0.0178340791 -0.0173711149 -0.0070000007
-0.0201279806 -0.0149386581 -0.0070316859
-0.0217087806 -0.0142290731 -0.0072929353
-0.0249584965 -0.0070852728 -0.0101188477
-0.0244237508 -0.0088351901 -0.0140386012
-0.0231027266 -0.0118783604 -0.0160908766
-0.0225769541 -0.0127739929 -0.0181251417
-0.0193607081 -0.0172993807 -0.0120477705
-0.0194594167 -0.0171553566 -0.0189998507
-0.0154745565 -0.0208535842 -0.0204794804
-0.0141256237 -0.0218053083 -0.0127847865
-0.0124205913 -0.0227658554 -0.0198325119
-0.0087278344 -0.0244763691 -0.0139337203
-0.0065785785 -0.0250727369 -0.0206730268
-0.0035441758 -0.0257248557 -0.0157895629
-0.0005374979 -0.0259630308 -0.0192441023
0.0017902799 -0.0258978288 -0.0074958825
0.0058491125 -0.0253242212 -0.0110840825
0.0075110625 -0.0248482947 -0.0144837837
0.0107210823 -0.0235784632 -0.0184309430
0.0135180378 -0.0221765988 -0.0125530520
0.0148770642 -0.0212548987 -0.0119712637
0.0177755011 -0.0189260312 -0.0167207909
0.0194641529 -0.0171415602 -0.0123087550
0.0208704527 -0.0154614680 -0.0168540262
0.0229975843 -0.0119763824 -0.0145114775
0.0241969258 -0.0094226939 -0.0150487571
0.0248728889 -0.0073918530 -0.0162912381
0.0256545422 -0.0039788749 -0.0193268354
0.0259055851 -0.0017059018 -0.0110291433
0.0258248909 0.0019462089 -0.0194143743
0.0259540908 0.0010245585 -0.0084600546
0.0249954432 0.0069827700 -0.0119261144
0.0240525070 0.0097711765 -0.0145986216
0.0229469392 0.0121544199 -0.0133081637
0.0214170482 0.0146720547 -0.0124364139
0.0203597422 0.0161630501 -0.0095528099
0.0169764740 0.0196254243 -0.0111161470
0.0170285139 0.0195620776 -0.0138310001
0.0135901139 0.0221470245 -0.0087067085
0.0108539749 0.0235814961 -0.0177471240
0.0096062946 0.0241169715 -0.0203067188
0.0067864013 0.0250231637 -0.0203336364
0.0043912140 0.0255374512 -0.0176113310
0.0003791062 0.0259727754 -0.0119254491
-0.0012012328 0.0259161231 -0.0110240276
-0.0052992503 0.0254137660 -0.0086212597
-0.0085070573 0.0245521265 -0.0188611365
-0.0110654518 0.0235041941 -0.0179756326
-0.0139678150 0.0219184223 -0.0102439272
-0.0153782893 0.0208910565 -0.0106479068
-0.0183677129 0.0183733288 -0.0091516773
-0.0187699689 0.0179668897 -0.0137264508
-0.0221758340 0.0135605659 -0.0115570407
-0.0225085624 0.0129143273 -0.0198981358
-0.0238093365 0.0103908082 -0.0121654233
-0.0247038801 0.0080714070 -0.0140452245
-0.0255772210 0.0044688103 -0.0182077279
-0.0258883318 0.0019748878 -0.0163299237
-0.0258279503 -0.0018197180 -0.0203747166
-0.0256928856 -0.0037050280 -0.0195402164
0.0217363907 0.0012262423 -0.0073606653
0.0227634762 -0.0039465247 -0.0131021665
-0.0199396038 -0.0120382213 -0.0073357349
0.0148935199 -0.0196268910 -0.0076745560
0.0194376563 -0.0135831784 -0.0128691009
0.0187104387 -0.0119343022 -0.0208112549
0.0188785004 -0.0115177164 -0.0179792777
0.0044678171 -0.0238154202 -0.0135924058
0.0069397314 -0.0230224050 -0.0091751463
0.0055458164 -0.0214034369 -0.0121666709
-0.0135208932 -0.0207700537 -0.0143312646
-0.0112625001 -0.0208576329 -0.0109244153
-0.0115693687 -0.0188013152 -0.0082963395
-0.0137173433 -0.0200948880 -0.0202982313
-0.0241006670 -0.0068349191 -0.0096000005
-0.0213307256 -0.0056736195 -0.0200782987
-0.0226595804 -0.0041890599 -0.0205220580
-0.0010231203 0.0215719676 -0.0072852939
0.0031408098 0.0228231655 -0.0132138439
-0.0139406753 0.0183952686 -0.0113608489
-0.0025626382 0.0212484409 -0.0076626324
0.0201852541 0.0128656189 -0.0094999988
0.0125473172 0.0173325618 -0.0076656686
-0.0151252321 0.0150965755 -0.0093134351
-0.0125981015 -0.0137480180 -0.0090000015
0.0023629143 -0.0203003622 -0.0090000015
0.0092370844 -0.0146915544 -0.0090000015
0.0137554006 -0.0112240235 -0.0090000015
0.0168497828 -0.0019557283 -0.0090000015
0.0166682048 0.0067199159 -0.0090000015
0.0119958717 0.0116144858 -0.0090000015
0.0051283463 0.0156909489 -0.0090000015
-0.0059930777 0.0161227890 -0.0090000015
-0.0139106161 0.0152314909 -0.0090000015
-0.0173649337 0.0088846627 -0.0090000015
-0.0198079151 -0.0020785824 -0.0090000015
-0.0151000090 -0.0090299565 -0.0090000015
-0.0116734331 0.0122797768 -0.0087604547
0.0079649898 -0.0150145828 -0.0088016390
0.0148171725 -0.0098991715 -0.0087000001
-0.0025056004 -0.0176458780 -0.0087000001
-0.0128077287 -0.0127087696 -0.0087000001
-0.0173586228 0.0020013112 -0.0087000001
-0.0076837449 0.0170227426 -0.0087000001
0.0065721386 0.0161553113 -0.0087000001
0.0176057189 0.0071293426 -0.0086655936
-0.0074388829 0.0182267844 -0.0086189276
-0.0032073350 0.0196199488 -0.0054195949
0.0030193713 0.0196492569 -0.0058236411
0.0095320001 0.0173984213 -0.0052527525
0.0160443160 0.0119077990 -0.0073620471
0.0183413828 0.0075986416 -0.0046243607
0.0199104189 0.0013047183 -0.0066531638
0.0188000505 -0.0066754675 -0.0059174861
0.0136541314 -0.0144227219 -0.0074908413
0.0103684930 -0.0169042791 -0.0057126173
0.0033368625 -0.0196762359 -0.0041639305
-0.0054599480 -0.0192178072 -0.0073777018
-0.0134113488 -0.0147574253 -0.0078926968
-0.0137454378 -0.0144427480 -0.0081232196
-0.0181039902 -0.0082608148 -0.0032874847
-0.0198726982 0.0009275381 -0.0044048004
-0.0186873680 0.0069941437 -0.0075398253
-0.0128194336 0.0151660481 -0.0037835137
-0.0085949679 0.0179116155 -0.0060032440
0.0141345998 0.0137973385 -0.0030320966
0.0076007377 0.0183459384 -0.0008524330
-0.0071054781 0.0186087167 -0.0025653716
-0.0198888811 0.0016687890 -0.0022558858
0.0141470321 0.0123892028 -0.0020000017
-0.0094936556 -0.0173559159 -0.0005570975
0.0077174544 -0.0182878742 -0.0028677550
0.0199486444 -0.0010299438 -0.0025537127
-0.0131102823 -0.0132150312 -0.0020000017
-0.0110118482 0.0151501800 -0.0012753536
-0.0114197652 -0.0160512578 -0.0002061513
-0.0025827618 -0.0073673344 -0.0000000014
-0.0014724669 -0.0082366297 -0.0000088756
0.0071497522 0.0089209096 -0.0000000014
-0.0080323248 0.0088231288 -0.0000000014
0.0044310804 0.0134491166 -0.0000571282
-0.0141361485 -0.0006383646 -0.0000000014
-0.0055939752 -0.0094365956 -0.0000000014
0.0170778221 -0.0027246240 -0.0000827539
0.0086104175 0.0107716310 -0.0000000014
0.0135242076 0.0092282222 -0.0000240166
0.0171171834 0.0026226573 -0.0000000014
0.0103438595 -0.0099577034 -0.0000080851
-0.0018108937 -0.0153283220 -0.0000000014
-0.0016385454 -0.0131476228 -0.0000000014
0.0083452360 -0.0170046550 -0.0000000758
0.0060077848 -0.0174491563 -0.0000448115
-0.0075979361 -0.0048397329 -0.0000388022
-0.0168023019 -0.0101106485 -0.0001405082
-0.0133632169 0.0101034673 -0.0000031867
-0.0064759608 0.0161530768 -0.0000121811
0.0157085231 0.0001510075 -0.0000261655
0.0094666455 -0.0126714611 -0.0000000014
-0.0027263869 0.0121348043 -0.0000000014
-0.0097586234 0.0057658553 -0.0000000014
-0.0126138715 0.0047915087 -0.0000219809
0.0177388975 0.0029536182 -0.0006695827
-0.0140417665 0.0070767498 -0.0030059238
-0.0018477290 -0.0162441865 -0.0030017845
0.0142213659 -0.0039420038 -0.0030049990
0.0000997853 0.0148299661 -0.0030924939
0.0015521893 -0.0163538942 -0.0031118375
-0.0088928213 -0.0137117529 -0.0030068577
0.0137578546 0.0004561218 -0.0031952765
0.0136256643 0.0008915472 -0.0109374243
0.0134628333 -0.0013332447 -0.0206887954
0.0129620367 -0.0041284461 -0.0206632144
0.0132381221 -0.0033299228 -0.0065041721
0.0106587313 -0.0084820378 -0.0066329730
0.0096482268 -0.0096014583 -0.0129666072
0.0078091534 -0.0111440243 -0.0092533744
0.0063129546 -0.0120822281 -0.0151214732
0.0045590662 -0.0128307366 -0.0059806478
0.0030966449 -0.0132424309 -0.0100172384
0.0006779923 -0.0136094600 -0.0131570843
-0.0014056689 -0.0135769044 -0.0115499059
-0.0042405694 -0.0129345224 -0.0134258186
-0.0054936167 -0.0124786753 -0.0080923770
-0.0066277684 -0.0118949892 -0.0100253805
-0.0095792635 -0.0096839933 -0.0086432024
-0.0105496978 -0.0086073175 -0.0133525877
-0.0121477262 -0.0061076540 -0.0137474769
-0.0133265424 -0.0028519503 -0.0063620800
-0.0136039955 -0.0011047639 -0.0062120748
-0.0136028632 0.0006145479 -0.0079278633
-0.0133278923 0.0028313521 -0.0035345330
-0.0130176326 0.0039661994 -0.0047667716
-0.0123044210 0.0058495072 -0.0120055650
-0.0098526305 0.0094402613 -0.0118984599
-0.0103177811 0.0089316787 -0.0068022903
-0.0088440819 0.0103177538 -0.0160730197
-0.0053187484 0.0125058818 -0.0127176034
-0.0035653915 0.0131294994 -0.0113531019
-0.0013122727 0.0135678793 -0.0063349516
0.0005665834 0.0136018305 -0.0161541891
0.0024253809 0.0134198771 -0.0137512314
0.0052290217 0.0126140685 -0.0054636438
0.0060627715 0.0122006664 -0.0160616278
0.0085875875 0.0105980769 -0.0095357752
0.0094443378 0.0098393738 -0.0119454243
0.0113831278 0.0074118195 -0.0186372619
0.0119383593 0.0065469680 -0.0056251650
0.0134078079 0.0022622589 -0.0144038171
-0.0088724234 0.0104004420 -0.0208432788
0.0140991681 0.0008339989 -0.0212000012
0.0164489266 0.0063630594 -0.0212000012
-0.0193156511 0.0005793106 -0.0212000012
-0.0142419860 -0.0064033355 -0.0212000012
-0.0098653937 -0.0123254024 -0.0212000012
-0.0140472780 -0.0146152474 -0.0212000012
-0.0007602714 -0.0141585918 -0.0212000012
0.0049826157 -0.0160804992 -0.0212000012
0.0089778984 -0.0146012893 -0.0212000012
0.0118029034 -0.0099601808 -0.0212000012
0.0172651640 -0.0056278887 -0.0212000012
0.0109024376 0.0170556154 -0.0212000012
0.0031295877 0.0174587096 -0.0212000012
-0.0052638991 0.0185172474 -0.0212000012
-0.0111568985 0.0153896543 -0.0212000012
-0.0080766453 0.0119139838 -0.0212000012
-0.0147321193 0.0087830511 -0.0212000012
-0.0137686435 0.0022704402 -0.0212000012
0.0159527909 -0.0126551189 -0.0212826748
-0.0082199326 -0.0186986318 -0.0213518162
-0.0186867266 0.0084140636 -0.0221141781
0.0075651172 0.0189964097 -0.0214362184
-0.0065218342 -0.0121231946 -0.0208081348
-0.0131540992 -0.0130682770 -0.0046073387
-0.0054072763 -0.0170748406 -0.0079999994
0.0048852174 -0.0178103341 -0.0060103538
0.0132477608 -0.0132132200 -0.0040908531
0.0172866339 -0.0041694825 -0.0054766011
0.0168862284 0.0048247329 -0.0070822129
0.0050753877 0.0179418106 -0.0052607688
-0.0181685998 -0.0044835830 -0.0040450386
-0.0174687238 0.0045404675 -0.0075157629
-0.0118984599 0.0122178487 -0.0079999994
-0.0032405522 0.0175654995 -0.0056740113
-0.0126108818 0.0101550436 -0.0026834723
0.0141773443 -0.0074845676 -0.0027322537
0.0054301072 -0.0147021178 -0.0023531868
-0.0136619068 0.0058295614 -0.0023798351
0.0146750227 0.0034046356 -0.0024843438
-0.0015211574 0.0147760711 -0.0028098234
-0.0058003199 -0.0133275864 -0.0027926076
0.0134737637 0.0051779499 -0.0021864157
-0.0004222184 -0.0145636793 -0.0025956233
-0.0121804523 0.0036513929 -0.0015000007
-0.0103521762 0.0017866360 -0.0015000007
-0.0104871499 -0.0056773594 -0.0015000007
-0.0063224251 -0.0098486127 -0.0015000007
0.0028889725 -0.0136069089 -0.0015000007
0.0071927598 -0.0094865528 -0.0015000007
0.0089948222 -0.0036714086 -0.0015000007
0.0138636855 0.0001377558 -0.0015000007
0.0096952001 0.0087024257 -0.0015000007
0.0059305106 0.0097771772 -0.0015000007
0.0017497221 0.0123405168 -0.0015000007
-0.0064794744 0.0089801770 -0.0015000007
-0.0139886178 0.0033734475 -0.0018468014
0.0075658277 0.0123949612 -0.0025071829
0.0052339677 0.0046061132 -0.0476270911
0.0061708850 0.0032288412 -0.0400923675
0.0056882360 0.0039529696 -0.0037898849
0.0062724351 0.0029688892 -0.0413767976
0.0065511406 0.0025380528 -0.0025359457
0.0069159696 0.0003718207 -0.0052386723
0.0069331064 0.0001311729 -0.0429679973
0.0068295058 -0.0014502120 -0.0031409051
0.0068734121 -0.0011248417 -0.0091947791
0.0064538684 -0.0025408877 -0.0400569946
0.0067263533 -0.0019519717 -0.0335513095
0.0061808664 -0.0030921293 -0.0073061186
0.0056972902 -0.0039738643 -0.0425743040
0.0052511688 -0.0045039799 -0.0067290489
0.0048874543 -0.0049304185 -0.0199353335
0.0040453106 -0.0056431545 -0.0299124122
0.0033275565 -0.0060921785 -0.0249160744
0.0021535329 -0.0065983726 -0.0520166578
0.0020429910 -0.0066399547 -0.0194017236
0.0015675691 -0.0068169831 -0.0487824054
0.0000290377 -0.0069679082 -0.0457085176
-0.0007569785 -0.0069145758 -0.0215273741
-0.0009334807 -0.0069267924 -0.0349660214
-0.0022104517 -0.0066206706 -0.0332849659
-0.0017487765 -0.0067452489 -0.0232064065
-0.0040446213 -0.0056239256 -0.0518949554
-0.0031443011 -0.0062643716 -0.0362430711
-0.0041181655 -0.0056364047 -0.0078801267
-0.0051394408 -0.0046913457 -0.0177414089
-0.0055864549 -0.0040668544 -0.0365004520
-0.0054694605 -0.0043222203 -0.0068930846
-0.0059516137 -0.0035835601 -0.0304601995
-0.0064154929 -0.0027548927 -0.0231982472
-0.0068652553 -0.0012101113 -0.0358578816
-0.0068895360 -0.0011399537 -0.0086333713
-0.0069509526 -0.0001043597 -0.0214451117
-0.0068035637 0.0014324213 -0.0264685107
-0.0067455432 0.0016009519 -0.0085866792
-0.0066264869 0.0021234864 -0.0268123155
-0.0065801419 0.0023055288 -0.0163072889
-0.0057952070 0.0038567327 -0.0435049704
-0.0050523225 0.0048003325 -0.0448939188
-0.0051697823 0.0046460235 -0.0315739362
-0.0043785174 0.0054131737 -0.0257750425
-0.0040185515 0.0056529221 -0.0399540237
-0.0038526065 0.0057816639 -0.0243548515
-0.0024415962 0.0064739897 -0.0352884488
-0.0010995907 0.0068659743 -0.0056652791
-0.0012390020 0.0068312190 -0.0085440543
-0.0003972800 0.0069339222 -0.0254841230
0.0001636572 0.0069122395 -0.0065599336
0.0015044701 0.0067709466 -0.0470253766
0.0020608570 0.0066305373 -0.0345699908
0.0021980965 0.0065941379 -0.0343367073
0.0031553349 0.0062036322 -0.0371100679
0.0040863545 0.0056733462 -0.0456407340
0.0044844341 0.0053479727 -0.0332461922
0.0052366817 0.0046194726 -0.0248548387
-0.0023313600 -0.0056899438 -0.0525551712
0.0036393725 0.0047056859 -0.0290852703
0.0031905086 0.0050048340 -0.0211594414
0.0025894130 0.0053701352 -0.0144368082
0.0023755336 0.0054974068 -0.0500399354
0.0016628094 0.0057029991 -0.0069068227
0.0004089821 0.0059424321 -0.0080845921
0.0000143426 0.0059403662 -0.0303885752
-0.0006497729 0.0059522052 -0.0063279680
-0.0016514454 0.0056998097 -0.0349066692
-0.0020960340 0.0055511088 -0.0294496755
-0.0023760550 0.0054432435 -0.0105642753
-0.0036150752 0.0046887860 -0.0382938562
-0.0041642641 0.0042153026 -0.0118650464
-0.0047681549 0.0035669777 -0.0274018027
-0.0050054376 0.0032527994 -0.0070931880
-0.0053150907 0.0026545329 -0.0215727700
-0.0058042036 0.0013215534 -0.0517940654
-0.0059233406 0.0004764235 -0.0190316027
-0.0059752309 -0.0002411856 -0.0150578565
-0.0059115832 -0.0006625289 -0.0426953521
-0.0057676015 -0.0015870680 -0.0148586682
-0.0055145570 -0.0022875089 -0.0177120199
-0.0056434200 -0.0019643809 -0.0204989781
-0.0051801163 -0.0031161008 -0.0066381395
-0.0042575960 -0.0041030712 -0.0461912671
-0.0033088574 -0.0049532563 -0.0279397694
-0.0034829200 -0.0047972751 -0.0125542655
-0.0027247810 -0.0052817571 -0.0464156789
-0.0021858429 -0.0054842408 -0.0054104898
-0.0017597160 -0.0057253804 -0.0467880973
0.0001312475 -0.0059530001 -0.0129038193
-0.0002081553 -0.0059460904 -0.0295317422
0.0010814634 -0.0058780228 -0.0127419425
0.0021953746 -0.0054793536 -0.0509752574
0.0028903686 -0.0052311054 -0.0375483013
0.0030547177 -0.0051172299 -0.0480748129
0.0035552041 -0.0047520397 -0.0256169373
0.0043659155 -0.0041263096 -0.0355081811
0.0048906578 -0.0033884236 -0.0461716625
0.0049562210 -0.0032218282 -0.0099827615
0.0056960071 -0.0018268746 -0.0350445811
0.0055534448 -0.0021973554 -0.0076872283
0.0059409580 -0.0002354478 -0.0503123225
0.0059616999 -0.0001632516 -0.0271646574
0.0056753453 0.0017934507 -0.0499034538
0.0058356844 0.0010139834 -0.0423248759
0.0057482507 0.0016767230 -0.0031928345
0.0052333545 0.0028590279 -0.0445928676
0.0051329198 0.0030919394 -0.0160647634
0.0044691156 0.0038758189 -0.0046346730
0.0045150550 0.0038204088 -0.0021709786
-0.0026864226 0.0055883962 -0.0003040889
0.0022016024 0.0070757203 -0.0015809309
0.0053053246 -0.0174067838 -0.0019613749
0.0102937384 -0.0125549391 -0.0020000017
0.0183412927 -0.0049790309 -0.0011397469
0.0052420298 0.0182612098 -0.0024828699
-0.0029212661 0.0166016819 -0.0016571092
-0.0162518835 -0.0031598529 -0.0006594918
-0.0061589722 0.0216168139 -0.0182005997
-0.0042236470 0.0235792133 -0.0184091454
-0.0054459454 0.0242362830 -0.0101496708
-0.0209822212 0.0112655239 -0.0117768751
-0.0187392437 0.0116331073 -0.0164695315
-0.0196931596 0.0135784008 -0.0111239517
-0.0213577876 0.0118767038 -0.0144803176
0.0239049261 0.0052706848 -0.0274150935
0.0238074116 0.0055035422 -0.0324999988
0.0115582694 0.0207396651 -0.0279271000
0.0206537640 -0.0116348847 -0.0247509624
0.0056004151 -0.0237779698 -0.0279931254
0.0044127136 -0.0225511039 -0.0274143559
-0.0113454841 -0.0197849579 -0.0316967191
-0.0224568757 -0.0063955027 -0.0267138994
-0.0239702113 -0.0054333612 -0.0277008402
-0.0202373446 0.0131292227 -0.0264599263
-0.0052572967 0.0218541226 -0.0246774506
0.0221452401 0.0120769465 -0.0390367701
0.0093946827 -0.0231131604 -0.0390000008
0.0217378389 0.0126243739 -0.0390000008
0.0161211683 0.0190130925 -0.0391889955
-0.0237808261 0.0077055252 -0.0390980788
-0.0033686687 0.0155347042 -0.0179231094
0.0024831875 0.0157172480 -0.0189313391
0.0096978900 0.0126069415 -0.0193624001
0.0139200851 0.0075937277 -0.0137361109
0.0159096654 0.0015098999 -0.0184247664
0.0148178621 -0.0057223691 -0.0141717561
0.0118155038 -0.0106254315 -0.0173369588
0.0061080640 -0.0146710969 -0.0168796981
0.0000779797 0.0159014610 -0.0137278032
0.0007179168 -0.0159164053 -0.0154140855
-0.0080350685 -0.0137039721 -0.0163843849
-0.0130727945 -0.0090047685 -0.0172989571
-0.0153739211 -0.0039561937 -0.0161735284
-0.0157048522 0.0027739796 -0.0165535119
-0.0135854010 0.0083057663 -0.0186158916
-0.0079158161 0.0137387801 -0.0160921702
-0.0127444469 -0.0100904625 -0.0140000004
-0.0176230161 -0.0048010385 -0.0140000004
-0.0030823063 0.0192652367 -0.0140000004
0.0060354415 0.0177039727 -0.0140000004
-0.0166776327 0.0050513292 -0.0140000004
-0.0138252209 0.0128248674 -0.0139476387
-0.0051604873 0.0180535286 -0.0140000004
0.0143835834 0.0079673993 -0.0140000004
0.0187276124 -0.0017723419 -0.0140000004
0.0003549949 -0.0197108806 -0.0140000004
-0.0093899807 -0.0170114248 -0.0140000004
0.0149776893 -0.0091509721 -0.0140000004
0.0070736074 -0.0148520534 -0.0140000004
-0.0161327630 -0.0123636194 -0.0140623398
0.0159330364 -0.0123950457 -0.0148175040
0.0102645653 0.0177171387 -0.0140797566
-0.0195576744 0.0055076817 -0.0142744723
0.0154719156 -0.0122591702 -0.0151705819
-0.0176599702 -0.0084525228 -0.0164980594
-0.0128138259 -0.0148839213 -0.0159697319
-0.0061382710 -0.0186636740 -0.0166844075
-0.0007152063 -0.0196483586 -0.0182295906
0.0079237256 -0.0180186464 -0.0153467847
0.0120083336 -0.0156341530 -0.0181339810
0.0172367352 -0.0095086587 -0.0157888143
0.0193359430 -0.0039106006 -0.0179908894
0.0196117810 0.0021588010 -0.0176476182
0.0179768545 -0.0033171743 -0.0209999997
0.0159079419 -0.0108202466 -0.0209999997
0.0182703384 0.0040511368 -0.0209999997
-0.0030152015 0.0174105492 -0.0209999997
0.0036028094 0.0152080381 -0.0209999997
0.0108995246 0.0129476335 -0.0209999997
0.0093234780 -0.0168781833 -0.0209999997
0.0058672502 -0.0172983587 -0.0209999997
-0.0145158026 -0.0108720861 -0.0209999997
-0.0162281060 -0.0073056886 -0.0209999997
-0.0095732590 0.0109701597 -0.0209999997
-0.0087324963 0.0171615236 -0.0209999997
0.0007365667 -0.0178765935 -0.0209999997
-0.0001466436 -0.0149894265 -0.0209999997
-0.0184505723 0.0053689959 -0.0209999997
0.0138232582 -0.0004501329 -0.0206685233
0.0138601031 -0.0007624109 -0.0172116058
0.0126056187 -0.0056311800 -0.0118231180
0.0119358771 -0.0068798130 -0.0139230810
0.0083760722 -0.0108232193 -0.0128681631
0.0057943103 -0.0124649797 -0.0144254143
0.0029996768 -0.0134575774 -0.0182974389
-0.0041587248 -0.0132231036 -0.0128258578
-0.0041361432 -0.0132242652 -0.0176181426
-0.0086662469 -0.0107877193 -0.0174939679
-0.0122034457 -0.0064825937 -0.0111540936
-0.0134833955 -0.0030926364 -0.0146360879
-0.0137744118 -0.0006117348 -0.0168452254
-0.0127056020 0.0052530267 -0.0116632998
-0.0132157385 0.0039562851 -0.0195176644
-0.0101867204 0.0093162520 -0.0116002637
-0.0082585547 0.0110500234 -0.0143647418
-0.0022502370 0.0136767604 -0.0129647611
0.0024563989 0.0135362219 -0.0151968713
0.0067307719 0.0120841088 -0.0176008165
0.0106549617 0.0087622902 -0.0143148940
0.0116522016 0.0074496486 -0.0130869196
0.0133549554 0.0036399888 -0.0144274655
-0.0143304560 0.0024898178 -0.0209698956
-0.0003058609 0.0137902039 -0.0109179402
0.0031212568 -0.0137447981 -0.0103647123
0.0144058745 -0.0020607594 -0.0101999994
-0.0139362501 0.0052569377 -0.0101999994
0.0022172983 -0.0147716279 -0.0145101028
-0.0046350990 -0.0140741338 -0.0114171387
-0.0077640603 -0.0127150391 -0.0114043745
-0.0106578982 -0.0105249538 -0.0107417101
-0.0130594760 -0.0072038193 -0.0151156419
-0.0141321588 -0.0045312355 -0.0195515361
-0.0146849407 -0.0023366901 -0.0124067072
-0.0144554114 0.0038787535 -0.0125181094
-0.0127313820 0.0077724608 -0.0106257765
-0.0097622438 0.0112519915 -0.0123756522
-0.0059471078 0.0136288652 -0.0138548648
-0.0040152802 0.0142731317 -0.0182963234
-0.0016863226 0.0148199034 -0.0182066765
0.0050331570 0.0140332417 -0.0144973470
0.0073401911 0.0129721790 -0.0131015187
0.0113665466 0.0097011443 -0.0178410731
0.0132119259 0.0069000303 -0.0144067254
0.0143821311 0.0038842214 -0.0180009677
0.0148670302 0.0007422905 -0.0161018358
0.0142603613 -0.0040244125 -0.0135692143
0.0119326144 -0.0089473640 -0.0148330357
0.0101968728 -0.0108710887 -0.0150023915
0.0080391793 -0.0125272641 -0.0195641573
0.0029223303 -0.0145920781 -0.0176638847
0.0050326372 -0.0140409745 -0.0199528706
0.0007291111 -0.0154561691 -0.0200302481
0.0018541583 0.0153677423 -0.0199112947
-0.0160377712 0.0114039168 -0.0209207118
0.0171290146 0.0097319560 -0.0201625264
0.0120823097 0.0155718449 -0.0201911869
0.0063527189 0.0186350037 -0.0159067385
-0.0016302867 0.0196453237 -0.0198195177
-0.0068497916 0.0183557118 -0.0159433158
-0.0128646696 0.0149121985 -0.0180607976
-0.0158735868 0.0116113849 -0.0153827629
-0.0190035249 0.0052290565 -0.0153562083
-0.0194709793 -0.0029231516 -0.0158165263
-0.0167136578 0.0110977017 -0.0150454498
-0.0010845971 0.0210856415 -0.0138375540
-0.0188895482 -0.0101635670 -0.0138032032
-0.0085161949 0.0193544602 -0.0140000004
0.0067036476 -0.0201437813 -0.0140000004
0.0196864941 -0.0078337078 -0.0137980889
0.0093932562 -0.0127720233 -0.0092827215
-0.0074690099 -0.0142371656 -0.0090000015
0.0158389952 -0.0012911670 -0.0091817098
-0.0033538701 -0.0154626137 -0.0092505325
