0.0198799728 -0.0073937791 0.0340000018
-0.0168756157 0.0059028959 0.0340000018
-0.0000376376 -0.0201463013 0.0340000018
0.0118324873 -0.0138977107 0.0342727361
-0.0069179572 -0.0119892201 0.0390000008
-0.0170232972 0.0130880412 0.0390000008
0.0128889576 0.0154723715 0.0390000008
-0.0036510577 0.0101192955 0.0390000008
0.0006511278 -0.0264522217 0.0389821947
0.0077180565 0.0032675374 0.0390000008
0.0197327618 -0.0107342956 0.0383149429
-0.0103303013 0.0198964400 0.0378416533
-0.0000414603 -0.0497288823 0.0360579278
-0.0071143533 0.0083492087 0.0348609727
0.0086198474 0.0040294772 0.0348372838
-0.0037737592 -0.0167598673 0.0347268645
0.0035000001 -0.0394771736 0.0353932457
0.0038203300 -0.0284617017 0.0361533323
0.0014750653 -0.0415128267 0.0309999995
0.0096518735 -0.0719706639 0.0480838631
0.0586696504 -0.0488497233 0.0484426567
0.0075289768 -0.0723147914 0.0484540841
0.0529515864 -0.0430561151 0.0485000014
0.0035201987 -0.0602041488 -0.0417200666
0.0036900638 -0.0649191853 -0.0312496650
0.0050000004 -0.0586950527 -0.0371888497
0.0051312899 -0.0428224078 -0.0428686297
0.0035000001 -0.0700216733 0.0430883101
0.0035000001 -0.0566877243 0.0376887221
0.0050434236 -0.0570866300 0.0434270406
0.0050000004 -0.0659590916 0.0333364081
0.0753192827 -0.0386296385 0.0470936266
0.0521716750 -0.0514100945 0.0472466393
0.0514950702 -0.0476513061 0.0476626267
0.0574871290 -0.0374088564 0.0469999984
0.0693448812 -0.0471632582 -0.0485000014
0.0501614187 -0.0425471771 -0.0485000014
0.0484059016 -0.0468785986 -0.0477968361
0.0302957535 -0.0368807794 -0.0485000014
0.0069834286 -0.0567382180 -0.0484371741
0.0647703155 -0.0375026455 -0.0471037880
0.0437689941 -0.0570850003 -0.0471518483
0.0264057289 -0.0736893850 -0.0466752895
0.0776656259 -0.0381562863 -0.0470319061
0.0426400006 -0.0487015914 -0.0480675620
0.0056578474 -0.0768499970 0.0066093697
0.0058358679 -0.0768499970 0.0230107181
0.0464510355 -0.0766065619 0.0399009849
0.0180207445 -0.0768361086 -0.0414906577
0.0177352617 -0.0768499970 0.0271092619
0.0457674228 -0.0768499970 -0.0233617871
0.0383623608 -0.0768499970 0.0328763305
0.0446403359 -0.0768499970 0.0044126536
0.0134081659 -0.0768499970 -0.0186459448
0.0327031582 -0.0768499970 0.0067924686
0.0301401704 -0.0768499970 0.0151528808
0.0353014894 -0.0768499970 -0.0292600112
0.0314613663 -0.0768499970 -0.0185750364
0.0381678487 -0.0768499970 -0.0160618949
0.0291198254 -0.0768499970 -0.0389947065
0.0527944112 -0.0753500015 -0.0097229928
0.0460513671 -0.0753500015 -0.0141640199
0.0317104748 -0.0753500015 0.0111090985
0.0366238211 -0.0753500015 0.0068735084
0.0160590313 -0.0753500015 -0.0010603753
0.0337732021 -0.0753500015 -0.0151153936
0.0435823697 -0.0753500015 -0.0066819362
0.0255621783 -0.0753500015 0.0264818276
0.0407022176 -0.0753500015 0.0232207495
0.0301494387 -0.0759868672 -0.0415261546
0.0301707537 -0.0753500015 -0.0395494671
0.0147831037 -0.0753500015 -0.0149641017
0.0316461873 -0.0753500015 -0.0249326872
0.0424019216 -0.0755427459 0.0443635079
0.0481753319 -0.0766736368 0.0374382547
-0.0198414035 -0.1285530914 0.0108237393
-0.0089483588 -0.0863817819 0.0197957164
-0.0099608717 -0.0895056038 -0.0158006095
-0.0180654983 -0.1215347789 0.0010666503
-0.0170263707 -0.1174281755 -0.0148805688
-0.0117208919 -0.0964611431 0.0073166244
-0.0163996196 -0.1149512974 0.0122037391
-0.0175664374 -0.1195625172 0.0138056863
-0.0083403467 -0.0831013580 -0.0151869524
-0.0169189099 -0.1227086676 0.0182176650
-0.0149066269 -0.1151658177 -0.0080599504
-0.0169201104 -0.1231230298 0.0009738644
-0.0105759407 -0.0980511134 -0.0092922501
-0.0101345353 -0.0963066977 -0.0067802915
-0.0075605957 -0.0861345862 -0.0059060899
-0.0138631333 -0.1110419758 0.0147049227
-0.0055340004 -0.0781255584 -0.0142893851
-0.0042713477 -0.0752121628 -0.0009335922
0.0027768861 -0.0762775764 0.0147602412
0.0005789880 -0.0757561122 -0.0034225648
0.0646757693 -0.0715823753 0.0218616838
0.0631717401 -0.0724160725 -0.0164277708
0.0603567928 -0.0739764236 -0.0263993084
0.0739226897 -0.0735478646 -0.0134455685
0.0747372493 -0.0750309085 0.0181824039
0.0720892727 -0.0680683125 0.0261192709
0.0751815122 -0.0727248454 -0.0136656654
0.0583808866 -0.0733566496 -0.0103202092
0.0581963829 -0.0734589218 0.0017374785
0.0658391946 -0.0692224412 -0.0152741349
0.0030770265 -0.0747003136 0.0140905235
-0.0020323600 -0.0735470393 0.0176779820
-0.0042462716 -0.0737797282 0.0243818747
0.0334917405 -0.0757656612 -0.0473258032
0.0260731958 -0.0370259480 -0.0476452853
0.0473627146 -0.0751845942 0.0460902969
0.0075716878 -0.0376203321 -0.0483288914
0.0741070295 -0.0733375750 0.0228658278
0.0070374517 -0.0795216551 0.0218648582
0.0054394332 -0.0564870784 -0.0461161461
0.0046312626 -0.0732098825 0.0467637044
0.0044679872 -0.0362340863 0.0405650859
0.0085551118 -0.0396586007 0.0475880576
0.0678245623 -0.0509983893 -0.0475532567
0.0421605882 -0.0749844125 -0.0192898748
0.0174825089 -0.0717504091 -0.0208348123
0.0198336152 -0.0615109690 -0.0485000014
0.0348620552 -0.0643699013 -0.0487252989
0.0199825638 -0.0471343401 -0.0488644714
0.0406695635 -0.0713974223 -0.0491191997
0.0142249349 -0.0709785941 -0.0494870610
0.0264824677 -0.0443099453 -0.0491078726
0.0335183213 -0.0451645715 -0.0493830733
0.0200065324 -0.0517335477 -0.0617455869
0.0296482003 -0.0621783840 -0.0563600516
0.0386475123 -0.0448499992 -0.0443851988
0.0189596680 -0.0585708589 -0.0674816724
0.0425976310 -0.0415472358 0.0485143041
0.0256954359 -0.0503472400 0.0485000014
0.0327720934 -0.0647585918 0.0485750823
0.0321754084 -0.0410937817 0.0485000014
0.0194617110 -0.0470755894 0.0494999997
0.0157682457 -0.0615088511 0.0494999997
0.0319820099 -0.0459949035 0.0492826699
0.0416463292 -0.0655891779 0.0494999997
0.0201244346 -0.0529083729 0.0606059181
0.0337017842 -0.0575654404 0.0626908405
0.0424400009 -0.0652188219 0.0471235465
0.0262718410 -0.0534476986 0.0696598048
-0.0241670023 -0.0645486239 0.0350103268
-0.0093682803 -0.0661998618 -0.0087248288
-0.0278125708 -0.0834830432 -0.0188996762
-0.0061610004 -0.0682764149 -0.0355005486
-0.0100863917 -0.0862753974 0.0404323109
-0.0123519140 -0.0881865907 0.0278956844
-0.0142565053 -0.0737301300 0.0481344264
-0.0150592758 -0.0654010808 0.0242825248
-0.0133323143 -0.0653345808 -0.0222526070
-0.0052912721 -0.0704043470 0.0065522800
-0.0233974577 -0.0645693318 -0.0332793792
-0.0182873134 -0.0649409990 -0.0318855403
-0.0253149652 -0.0768848221 -0.0463135778
-0.0135090005 -0.0709155289 -0.0448879200
-0.0135990325 -0.0882887229 -0.0210763546
-0.0233835988 -0.0861454413 -0.0102975767
-0.0196936054 -0.0869427713 -0.0173566188
-0.0241605358 -0.0672986692 -0.0425696066
-0.0058104908 -0.0727741103 0.0095732051
-0.0090127492 -0.0855192843 0.0074447587
-0.0075780920 -0.0800889519 0.0325794131
-0.0084365894 -0.0834816998 0.0296309799
-0.0084319208 -0.0777284559 0.0229603937
-0.0268222611 -0.0746107988 -0.0301332110
-0.0279149943 -0.0790175501 0.0070964609
-0.0261827080 -0.0721218426 -0.0347017469
-0.0263617789 -0.0727909968 0.0169306533
-0.0250217326 -0.0674951900 0.0313331110
0.0856972067 -0.0793492488 -0.0214948782
0.0940438704 -0.0738111301 0.0126004128
0.0895050642 -0.0769472860 0.0014623210
0.0853882460 -0.0532471026 -0.0335508908
0.0906079832 -0.0513114084 -0.0095810170
0.0728280211 -0.0585687240 0.0226504929
0.0774681293 -0.0558420815 -0.0084959293
0.0833163095 -0.0529607654 -0.0098388188
0.0819552981 -0.0566246837 -0.0193341932
0.0821066721 -0.0568977681 -0.0343154126
0.0897295531 -0.0706497979 0.0358696338
0.0791050253 -0.0560943481 -0.0153795829
0.0879483568 -0.0765679518 -0.0252319995
0.0888632886 -0.0759441437 -0.0038756843
0.0760255126 -0.0583665485 0.0333720629
0.0868171671 -0.0666898202 -0.0429253053
0.0911146068 -0.0752596993 -0.0066301673
0.0885852580 -0.0776258613 -0.0277593543
0.0762123214 -0.0576267900 0.0231600127
0.0973508203 -0.0670763455 0.0117301539
0.0982154163 -0.0665970921 -0.0068884654
0.0958393920 -0.0679141439 0.0153393314
0.0908830568 -0.0540945588 -0.0166163366
0.0832455348 -0.0583281060 0.0022658078
0.0841909055 -0.0578040785 -0.0182075263
0.0917178966 -0.0542635990 0.0086967195
0.0937977649 -0.0578117854 0.0067118681
0.0920306128 -0.0534931211 -0.0122229103
0.0995208206 -0.0664025511 0.0057874078
0.0924067377 -0.0550901434 -0.0366871581
0.0934475336 -0.0564445104 0.0133722559
0.0920195732 -0.0521237128 -0.0283142784
0.0936617902 -0.0668534109 0.0416078082
0.0978932631 -0.0704576103 -0.0004886435
0.0893606838 -0.0766400898 -0.0348311726
0.0905348317 -0.0737008958 -0.0386099303
0.0821140290 -0.0657749536 0.0439636238
0.0854604437 -0.0793882223 -0.0319170785
0.0791137272 -0.0664433821 -0.0013834229
0.0796924339 -0.0674873976 0.0297233230
0.0759263208 -0.0606931514 -0.0266365370
0.0810060853 -0.0698572845 0.0183109914
0.0759218937 -0.0606851659 0.0201027564
0.0779082367 -0.0580907420 -0.0384883771
0.0780036466 -0.0775498416 -0.0311511043
0.0833051899 -0.0800252773 0.0222765996
0.0761239724 -0.0743938750 0.0036778831
0.0759374750 -0.0732308036 0.0371389051
0.0706518795 -0.0633324519 0.0081941829
0.0758867305 -0.0737643365 0.0291960773
0.0711005681 -0.0653175206 0.0095645163
0.0725448800 -0.0675467364 0.0342028809
0.0847373966 -0.0796686245 0.0128655108
0.0776917025 -0.0594057249 -0.0340482618
-0.0565378165 -0.0343305714 -0.0236826616
-0.0239721047 -0.0633470962 -0.0126332014
-0.0287262561 -0.0821353195 0.0055360155
-0.0316492294 -0.0841211459 -0.0112506611
-0.0307434685 -0.0839798818 -0.0093849102
-0.0487885180 -0.0862897429 0.0113010850
-0.0450789996 -0.0857774265 -0.0126713689
-0.0403346438 -0.0852313686 -0.0019139454
-0.0404744322 -0.0852669791 0.0027259602
-0.0525158455 -0.0418496451 0.0186147486
-0.0396527663 -0.0522583480 0.0386348377
-0.0361845099 -0.0570027345 0.0490568735
-0.0607570598 -0.0372219039 0.0146423640
-0.0605311322 -0.0386403931 -0.0168287175
-0.0559791404 -0.0872039217 0.0221709022
-0.0484005162 -0.0862949831 -0.0348225739
-0.0581031002 -0.0875088507 -0.0049378712
-0.0317486879 -0.0840958900 -0.0345425086
-0.0240363927 -0.0631298428 -0.0282807930
-0.0340275387 -0.0556449573 -0.0229478999
-0.0308253514 -0.0580401164 -0.0123635313
-0.0493053411 -0.0441941811 0.0027789806
-0.0578449511 -0.0378018075 -0.0092844367
-0.0336343671 -0.0559259874 0.0209673412
-0.0560610231 -0.0391911653 -0.0156510200
-0.0407411346 -0.0857293337 -0.0412668873
-0.0454695168 -0.0481568829 -0.0374106956
-0.0581354315 -0.0375658151 0.0019228473
-0.0572332680 -0.0382461975 0.0002730404
-0.0321102491 -0.0677863721 0.0487718652
-0.0499769862 -0.0838986054 0.0213852790
-0.0567388400 -0.0420996911 0.0263928849
-0.0296366829 -0.0797853472 0.0425470420
-0.0507487535 -0.0464513841 0.0247326651
-0.0267710307 -0.0643480738 0.0120715062
-0.0461932286 -0.0496882980 0.0022086812
-0.0502071086 -0.0467076544 0.0162440705
-0.0430683156 -0.0520430197 0.0025012139
-0.0478210580 -0.0484890831 0.0110442722
-0.0269844835 -0.0641237223 -0.0087760217
-0.0247573746 -0.0659281701 0.0328363912
-0.0516149121 -0.0928966766 0.0200066383
-0.0531068689 -0.0353731480 0.0240396363
-0.0470148930 -0.0498473417 -0.0368432662
-0.0429195863 -0.0521008678 -0.0212190108
-0.0623165439 -0.0375793530 -0.0085943434
-0.0565950156 -0.0421679823 -0.0243137832
-0.0496801300 -0.0838339546 -0.0158381982
-0.0524632418 -0.0842242256 -0.0234981280
-0.0429456015 -0.0829726785 0.0197152849
-0.0487314133 -0.0837063810 0.0162560264
-0.0444410538 -0.0831611511 0.0134395996
-0.0422966395 -0.0828896273 0.0166163858
-0.0554391579 -0.0846318639 -0.0235012905
-0.0339510445 -0.0608595660 -0.0446027159
-0.0526683173 -0.0898158221 -0.0256526838
0.0111691433 0.0188355536 -0.0503119516
-0.0562831738 -0.0132070492 -0.0078453031
0.0128986496 0.0147859832 -0.0535626661
0.0806204210 0.0635102741 -0.0031535023
0.0010349563 0.0131758284 0.0509857370
0.0327538469 0.0265884610 0.0501548126
-0.0139632674 0.0002229216 0.0518001703
-0.0437094228 -0.0070250893 -0.0315006941
-0.0205908609 0.0016711499 -0.0477460792
0.0486916982 0.0406995337 -0.0444710137
0.0248829620 0.0230115982 -0.0533193894
-0.0532129811 -0.0092962189 0.0137248740
0.0840004185 0.0634826254 0.0048408132
0.0116004303 0.0176851289 0.0528695585
-0.0220303847 -0.0003185586 0.0478902530
0.0752128023 0.0581290092 0.0269822993
-0.0526059427 -0.0103218652 -0.0068465735
-0.0185054678 0.0015287720 -0.0459366502
0.0288522211 0.0251096604 -0.0492069275
0.0678591808 0.0516308736 -0.0318955597
0.0455046491 0.0359697888 0.0444380163
-0.0435902202 -0.0085044962 0.0281175988
0.0203289521 0.0203010809 0.0508693841
0.0621219941 0.0464051983 0.0365824311
0.0993117250 -0.0426176804 -0.0478504248
0.1024114818 -0.0349842929 -0.0456532707
0.0919852125 -0.0492713029 0.0006843302
0.1108683246 -0.0097629258 0.0287794929
0.1050087661 -0.0208126752 0.0388574349
0.1109226344 -0.0716800695 -0.0121332598
0.1115384370 -0.0149731381 -0.0278895232
0.0989072795 -0.0399987098 -0.0450304271
0.1076733613 -0.0149843422 -0.0377404104
0.1053761830 -0.0302063413 0.0426925137
0.1003048246 -0.0666773343 0.0373239350
0.1006503540 -0.0673813618 -0.0215529860
0.0951440940 -0.0524470138 0.0435574574
0.1135771170 -0.0133314559 0.0206545763
0.0935620036 -0.0468178773 0.0323244079
0.0984277491 -0.0385955064 0.0224614988
0.1068991343 -0.0244674736 0.0207332552
0.0996185439 -0.0369835998 -0.0373043781
0.1120610056 -0.0158833651 -0.0264753553
0.0965443605 -0.0417513379 -0.0126507301
0.1064513475 -0.0252134708 -0.0083499305
0.0932156144 -0.0473094322 -0.0167964147
0.0986038998 -0.0383124158 -0.0099764249
0.1149865967 -0.0109814583 -0.0090124939
0.1066459085 -0.0248888916 -0.0081745059
0.1062566855 -0.0255392368 0.0024786152
0.1112326361 -0.0672495307 -0.0032641427
0.1009651107 -0.0663443255 0.0124650653
0.1051824783 -0.0667231874 0.0113962687
0.1039396478 -0.0328320045 0.0443497971
0.0986703710 -0.0575411918 0.0463048313
0.1075435428 -0.0276187770 0.0373946366
0.0987639951 -0.0425535911 0.0396225033
0.1132598275 -0.0177452583 0.0136628987
0.1051726030 -0.0723447299 -0.0321229714
0.1179869037 -0.0054448271 -0.0080433867
0.0937947638 -0.0514570672 -0.0359345345
0.1042217875 -0.0330097401 -0.0396730268
0.1095480006 -0.0239490360 -0.0037783694
0.0926044143 -0.0522266491 -0.0294885010
0.1170552269 -0.0114214715 0.0059240914
0.1159340150 -0.0132883907 0.0092325734
0.1059105207 -0.0300000191 0.0136509396
0.1092642005 -0.0244189799 0.0000971678
0.1030865129 -0.0347365148 -0.0243095000
0.1038371601 -0.0334836504 -0.0219347381
0.1165514459 -0.0122640589 0.0029871601
0.1131815885 -0.0047601922 0.0213312629
0.1016644581 -0.0691634350 -0.0208691574
0.0943902189 -0.0482842374 0.0490000059
0.0456648029 -0.1006731426 -0.0586484022
0.0901897551 -0.0340508467 -0.0546747588
0.0880585057 0.0262404744 -0.0446145390
0.1144580630 0.0211993146 -0.0042530353
0.1065025698 -0.0184873963 -0.0404255914
0.0208965145 -0.1461566680 -0.0061193467
0.0885059215 -0.0506350143 -0.0546378019
0.0402501930 -0.1296123618 -0.0390864382
0.0408243120 -0.1235127852 -0.0454938666
0.0358812829 -0.1133395797 -0.0543340276
0.0498380753 -0.1265519892 -0.0385407533
0.0890628336 -0.0955424890 -0.0373259935
0.0633068826 -0.1050031954 -0.0503822816
0.0779404912 -0.0972458914 -0.0460991169
0.0911878791 -0.0725305955 -0.0483051456
0.1006398483 0.0154453957 -0.0393624445
0.0937837417 0.0086938003 -0.0464765751
0.0894026468 -0.0795681852 -0.0468787819
0.0784257634 -0.0897246055 -0.0498461433
0.0573137490 -0.0982426406 -0.0559303057
0.0264370753 -0.1344534492 -0.0367852920
0.0878865255 -0.0024396529 -0.0522565796
0.1165826975 0.0098832353 -0.0076423201
0.1068069238 0.0193170628 -0.0314661678
0.1000133615 -0.0121842061 -0.0465536188
0.1135249674 0.0205770464 -0.0123828564
0.1060431442 0.0262246571 -0.0291326423
0.1049529268 0.0426106603 -0.0160447641
0.1011826787 0.0505421124 -0.0140552755
0.0950892805 0.0425068792 -0.0321791570
0.1117396169 0.0084276798 -0.0269876250
0.1166830135 -0.0040748031 -0.0177279662
0.1099017034 -0.0050576279 -0.0342447362
0.0999136513 -0.1016548945 -0.0040154873
0.1133093556 -0.0692340662 -0.0138579562
0.1094370356 -0.0843546050 -0.0052924474
0.0816001897 -0.1214645695 -0.0094667343
0.0590794928 -0.1365384788 -0.0075662927
0.0848854845 -0.1151893873 -0.0182955848
0.1070941835 -0.0779670025 -0.0236140417
0.0822798340 -0.1154442084 -0.0230364550
0.0618927932 -0.1289291509 -0.0260773856
0.0217175551 -0.1426041554 -0.0225267627
0.1096209090 -0.0793647781 -0.0148654393
0.0989093327 -0.1022006930 -0.0097027270
0.0465322660 -0.1402283386 -0.0132201461
0.0139967131 -0.1445402705 -0.0147477663
0.1003127224 -0.0855232250 -0.0303554661
0.0834571922 -0.1057958013 -0.0341799971
0.0581280509 -0.1255312606 -0.0343978262
0.0259131012 -0.1386167448 -0.0301721474
0.1120794831 -0.0748932913 0.0109046003
0.1126071528 -0.0120873691 0.0305336710
0.0850868521 -0.0317907689 0.0569724095
0.0038767081 -0.1439926266 0.0161727013
0.0929023360 -0.1109737956 0.0048588385
0.1102850528 -0.0827838784 -0.0008708021
0.0980981997 -0.0077510064 0.0472636093
0.1025533705 -0.0195150023 0.0448607202
0.0883542967 -0.0277819827 0.0550949857
0.0970735322 -0.0834590088 0.0364262266
0.0241153567 -0.1344081515 0.0375542741
0.0427467994 -0.1300678682 0.0374143372
0.0096731946 -0.1336716651 0.0407560817
0.0901334648 -0.0740031440 0.0485585674
0.0880333539 -0.0816550867 0.0470135067
0.0616764829 -0.1048077674 0.0513032043
0.0795925135 -0.0911948324 0.0484254302
0.0792916863 -0.0811059022 0.0532802169
0.0305837502 -0.1183338917 0.0521544950
0.0490161611 -0.1101435861 0.0529752751
0.0480597309 -0.1412670694 0.0055424869
0.0344011125 -0.1446025764 0.0054417488
0.0643168217 -0.1339774836 0.0040960549
0.1109943102 -0.0796512140 0.0068014410
0.0939264264 0.0499144058 0.0278331055
0.1012465932 0.0261894801 0.0347936008
0.1015540875 0.0300995684 0.0326199903
0.0921908558 0.0262203320 0.0422013584
0.1063353591 0.0419577922 0.0132284904
0.1124849892 0.0104328929 0.0246046899
0.1133269927 0.0161793186 0.0186033866
0.1174325207 0.0051033561 0.0060466923
0.0952183407 -0.0123870400 0.0501756810
0.1109126196 0.0285863785 0.0153780942
0.1097075410 -0.0744259233 0.0196949269
0.0244490797 -0.1422430806 0.0219013166
0.0617849930 -0.1316491629 0.0203003372
0.0679300192 -0.1240540594 0.0279555060
0.0915298791 -0.1070271782 0.0204366563
0.1139877944 0.0020420896 0.0245383813
0.0112526527 -0.1456652789 0.0096181428
0.0444730073 -0.1393162687 0.0192287404
0.0758091014 -0.1241409495 0.0163271645
0.0953441693 -0.1033239818 0.0180595707
0.1077220170 -0.0841619907 0.0141166666
0.0217258679 -0.1395160174 0.0287684987
0.0602112561 -0.1272420795 0.0303224961
0.0810998916 -0.1084874720 0.0342177439
0.0989475387 -0.0825557697 0.0343137789
0.0098454528 -0.1367552615 -0.0014999984
0.0069716845 -0.1438551181 -0.0047209401
0.0762107896 -0.0797273136 -0.0569686077
0.0424343926 -0.1106224451 -0.0562728294
0.0091154528 -0.1362537826 -0.0367838652
0.0919541098 -0.0865318442 -0.0431222202
0.0749218124 -0.1120398588 -0.0387571066
0.0451813473 -0.1283192636 -0.0410563080
0.0256851964 -0.1347663757 -0.0391546157
0.0969132631 -0.0714824572 -0.0452688897
0.0162269857 -0.1253095215 -0.0495970108
0.0445629006 -0.1155911596 -0.0525642380
0.0746574655 -0.0933897430 -0.0529196689
0.0231178586 -0.1201988246 -0.0531683535
0.0836013902 -0.0769417595 -0.0541259961
0.0936951265 -0.0546127990 -0.0523848092
0.0599882556 -0.1008944274 -0.0560563057
0.0952424660 -0.0468975739 -0.0525149345
0.0890791457 -0.0162970579 -0.0554478092
0.1141776743 -0.0751704660 -0.0061367334
0.0870281539 -0.0330841076 -0.0575502715
0.1172941652 0.0150354261 -0.0008893832
0.1141043154 0.0284890777 0.0014248910
0.1185128460 -0.0039453859 -0.0170450926
0.1152501620 0.0089230086 -0.0217578889
0.1134356386 0.0129052655 -0.0248459248
0.1123460844 0.0102517458 -0.0281544263
0.0966926110 0.0052888126 -0.0474396230
0.0983911160 0.0056985246 -0.0461144473
0.0930101769 0.0343145402 -0.0402894947
0.1011835036 0.0553597705 -0.0042366184
0.0904039075 0.0200819379 -0.0471745880
0.1099602716 0.0336533745 -0.0184068437
0.0894756049 0.0001188419 -0.0525546680
0.1064816642 -0.0056368474 -0.0417221633
0.0770789663 -0.1276682721 -0.0013917140
0.1101726469 -0.0840611551 -0.0099219267
0.0930553866 -0.1114836542 -0.0100620114
0.0540455952 -0.1397238855 -0.0107785122
0.0812072822 -0.1232047902 -0.0117934097
0.0317660243 -0.1467474609 -0.0009714986
0.0175369593 -0.1475245147 -0.0080680712
0.1046009290 -0.0877412400 -0.0237844260
0.0736987646 -0.1243008880 -0.0234205111
0.0507930856 -0.1394900822 -0.0169469271
0.0238957073 -0.1462801740 -0.0145293137
0.0946216664 -0.1022167629 -0.0257066838
0.0699303958 -0.1241294074 -0.0289418080
0.0374389722 -0.1388746025 -0.0291453656
0.0987055057 -0.1002277436 -0.0201138038
0.0173259288 -0.1467072281 -0.0139452581
0.1036066431 -0.0865278218 -0.0269751881
0.0746928266 -0.1194592862 -0.0305199566
0.0387622773 -0.1345540192 -0.0356256164
0.1071932255 0.0464376377 0.0038064191
0.0948823800 0.0512006370 0.0263899456
0.0986644449 -0.0860527889 0.0353313001
0.0887495691 -0.0948950184 0.0405917019
0.0705103605 -0.1193263728 0.0347640312
0.0478270739 -0.1306058453 0.0367876753
0.0192488566 -0.1341718322 0.0402100540
0.0558003835 -0.1201916791 0.0443667162
0.0319855186 -0.1284321293 0.0451332791
0.0522543476 -0.1190240763 0.0474310920
0.0790753258 -0.0974079958 0.0470165333
0.0891608124 0.0333501439 0.0427498319
0.0910866342 0.0114586469 0.0488861572
0.0925630504 -0.0705086370 0.0496377057
0.0433342007 -0.1186691953 0.0507416852
0.0910280996 -0.0603350368 0.0539578200
0.0991336380 -0.0417345665 0.0502372969
0.0260057242 -0.1165197780 0.0551635656
0.0729247456 -0.0964194168 0.0520036153
0.0860284228 -0.0695470749 0.0548911620
0.0924213412 -0.0110961505 0.0530998569
0.0927897966 -0.0263328971 0.0546140659
0.1166412220 0.0114434229 0.0160031920
0.1179615681 -0.0012640267 0.0180747195
0.1067323378 0.0467001967 0.0093683709
0.1159406496 0.0128187204 0.0177399865
0.1021195629 0.0400523827 0.0285759603
0.1011224881 0.0555264774 0.0061452530
0.0992707295 0.0480105473 0.0252303376
0.1075766789 -0.0017392699 0.0393245755
0.1139320234 -0.0078275827 0.0306629002
0.1060106295 0.0188066464 0.0352591421
0.1026237878 0.0283455452 0.0351094108
0.0700812178 -0.1324520923 0.0004384517
0.0929413840 -0.1133679327 0.0029450927
0.1129761655 -0.0790690891 0.0066987383
0.1117006248 -0.0811667771 0.0099669773
0.0865904392 -0.1179204534 0.0117424212
0.0625904789 -0.1349584331 0.0144414479
0.0399590340 -0.1447665145 0.0069759267
0.0543526702 -0.1403374926 0.0056625105
0.0116918341 -0.1475962044 0.0032778451
0.0958208403 -0.1026524985 0.0232012285
0.0738896834 -0.1237161930 0.0241394358
0.0516052172 -0.1383559840 0.0188483818
0.0148594118 -0.1443631424 0.0223689574
0.0978556778 -0.0975289047 0.0258344860
0.0860376581 -0.1083221396 0.0312179430
0.0546769014 -0.1304159134 0.0327218803
0.0294267985 -0.1412423285 0.0272601157
0.1036007791 -0.0918813194 0.0209519992
0.0590313209 -0.0939729337 0.0580692680
0.0793657467 -0.0548721255 0.0588511486
0.0603967342 -0.0905571889 -0.0583973863
0.0893448503 0.0411337689 0.0378420492
0.0150137197 -0.1254898600 0.0478782095
0.0641903446 -0.0825808461 -0.0613571069
0.0564461605 -0.0924065198 -0.0606315616
0.0811190585 -0.0586317951 0.0594667702
0.0549531364 -0.0928141831 0.0609663172
0.1190000922 -0.0081391815 -0.0101132927
0.1141522983 -0.0145953664 -0.0303143056
0.1193818153 -0.0048045326 0.0059065323
0.0014601739 -0.1385017550 0.0051809880
0.0958397158 0.0520195663 0.0014981048
0.0883173125 0.0512062203 0.0106614821
0.0914801995 0.0479080038 -0.0071278196
0.0880284782 0.0531980974 0.0069988124
0.0959731085 0.0520614487 0.0102237172
0.0816574801 -0.0414512126 0.0540000014
0.0819318878 -0.0415069701 0.0505875354
0.0815936216 -0.0515928439 -0.0533152228
0.0783089719 -0.0411583308 -0.0489213517
0.0767365847 -0.0484008591 -0.0540043861
0.0291637872 -0.0439905695 0.0642736049
0.0124253932 -0.0700801381 -0.0674416802
0.0430501354 -0.0397769073 -0.0669097277
0.0543267581 -0.0912179831 -0.0616693465
0.0546604793 -0.0432151326 -0.0660528087
0.0418064665 -0.0257708896 -0.0657018464
0.0655537622 -0.0255833136 -0.0631041430
0.0034345594 -0.0181592300 -0.0636177674
0.0089986067 -0.0253922472 -0.0656194758
0.0474208613 -0.0147377466 -0.0639049222
0.0315694950 -0.0067008409 -0.0632259947
0.0272981621 -0.0279492531 -0.0664706998
0.0184905624 0.0009844532 -0.0612300364
0.0032593385 -0.0012498847 -0.0594061075
-0.0011338830 -0.0676723998 -0.0661000613
-0.0048316147 -0.0401943801 -0.0650420103
-0.0138369762 -0.0601285872 -0.0637309238
-0.0214068051 -0.0815097512 -0.0594559297
-0.0013080990 -0.0286439247 -0.0644159754
-0.0198178382 -0.0268189649 -0.0587699674
-0.0039662570 -0.0561692713 -0.0659446134
0.0191614611 -0.1046820942 -0.0610805512
0.0182464753 -0.0937963415 -0.0644405470
0.0208968994 -0.1040358015 -0.0613901193
0.0634613707 -0.0689567933 -0.0639911874
0.0413259816 -0.0744864808 -0.0667055469
0.0735794555 -0.0445219355 -0.0626422589
0.0544643097 -0.0729283550 -0.0650091545
0.0578683912 -0.0484727876 -0.0659222599
0.0329410317 -0.0910356811 -0.0647204826
0.0197598561 -0.0920593786 -0.0648430457
0.0619809535 -0.0031589384 -0.0603862859
0.0040922783 -0.0357134190 0.0638179283
0.0727870278 -0.0529349185 0.0600952215
0.0676956308 -0.0482616555 0.0612446959
0.0555531355 -0.0330333374 0.0626244787
0.0637395732 -0.0246385103 0.0608031028
0.0536055193 -0.0475108959 0.0637066502
0.0547050012 -0.0124653849 0.0602829455
0.0624711240 0.0063947520 0.0558245710
0.0788627284 -0.0140127624 0.0563876821
0.0159564943 -0.0286271846 0.0640592577
0.0446143459 -0.0010510886 0.0591005202
0.0346153571 0.0034164406 0.0584657399
0.0529213967 -0.0165339290 0.0611017310
0.0073220961 -0.0010298677 0.0572973791
0.0148058005 -0.0147363679 0.0617810069
-0.0081636067 -0.0166331028 0.0580563778
-0.0112814319 -0.0632550868 0.0618896920
-0.0057252803 -0.0822614132 0.0612240371
-0.0092843567 -0.0507039472 0.0623976517
-0.0204628210 -0.0349630635 0.0574022629
-0.0174668274 -0.0619601726 0.0601059963
-0.0007897988 -0.0293953858 0.0623310554
0.0093215170 -0.1014855991 0.0588958103
0.0037848472 -0.0872741371 0.0618836265
0.0213754444 -0.0929529562 0.0619365543
0.0371046362 -0.1012161728 0.0587134543
0.0502006960 -0.0735631826 0.0631351206
0.0079869478 -0.0768412737 0.0638360191
0.0416913351 -0.0232057593 0.0628548403
-0.0002428309 -0.0143466872 0.0594179377
0.0000633311 -0.0598637457 -0.0641969612
0.0673304144 -0.0692949727 -0.0604369298
0.0397399074 -0.1005672604 -0.0584330764
0.0674662310 -0.0267488049 -0.0605589202
0.0655599747 -0.0382585065 -0.0616412721
0.0457718808 -0.0140881662 -0.0613556032
0.0718930357 -0.0129665060 -0.0577394055
0.0374022628 -0.0254209837 -0.0633728024
0.0370428508 -0.0009319978 -0.0595644029
0.0034219011 -0.0053395186 -0.0578192005
0.0433116934 0.0080171145 -0.0570880859
-0.0160560209 -0.0748339934 -0.0594972059
-0.0115494907 -0.0675467042 -0.0616246735
-0.0222823264 -0.0540801624 -0.0583238504
-0.0028928858 -0.0416866090 -0.0631195591
-0.0144404647 -0.0653959517 -0.0610626518
0.0206306673 -0.0247834421 -0.0634902063
-0.0151606209 -0.0439126225 -0.0603974983
-0.0008321596 -0.0265628112 -0.0617486426
0.0065553139 -0.0414577227 -0.0645703637
0.0080127918 -0.1049411730 -0.0577414315
0.0127385541 -0.1016306441 -0.0592783123
-0.0034952109 -0.0956827580 -0.0586750835
0.0512762695 -0.0683667526 -0.0637866210
0.0496450010 -0.0541707940 -0.0645589104
0.0658707516 -0.0108783534 -0.0586989640
0.0034259316 -0.0854490172 -0.0622518536
0.0325717472 -0.0088467583 -0.0611359213
-0.0078244368 -0.0240342171 -0.0600624007
0.0082388580 -0.1402716015 0.0241114737
0.0072918538 -0.1421224078 -0.0219893313
0.0252950998 -0.1178793376 0.0530009704
0.0280672498 -0.1102619815 -0.0539202936
0.0184870881 -0.1241549055 -0.0448769839
0.0106145509 -0.1241178555 0.0450601296
0.0844625689 0.0564562529 0.0218749979
-0.0488326237 -0.0179931059 0.0279642739
-0.0163808164 -0.1379991947 0.0070446663
0.0010766697 -0.1237581032 0.0459278994
-0.0261609078 -0.1298293773 0.0186801143
-0.0545918083 -0.0208325515 0.0186674023
-0.0411005898 -0.0966107333 0.0392328670
0.0632505786 0.0407645661 0.0422855240
0.0616807909 0.0316856536 0.0477998289
0.0820495356 0.0084090148 0.0510950476
0.0493068892 0.0208229417 0.0526539793
-0.0159329892 -0.0113517521 0.0534267247
0.0282315578 0.0139524766 0.0547270233
-0.0181078530 -0.1127679439 0.0467228791
-0.0271431686 -0.0355071127 0.0544355014
-0.0317003902 -0.0497595560 0.0536012188
-0.0294721327 -0.0511880972 0.0549294776
-0.0400827419 -0.0435757441 0.0469552355
-0.0189775826 -0.0978173760 0.0535779666
0.0024021912 -0.1169846934 0.0509568018
-0.0004797684 -0.1261423014 0.0436012779
-0.0142162363 -0.1155744014 0.0466464588
-0.0551193908 -0.1000238099 0.0039677549
-0.0375640040 -0.0239299947 0.0437378885
-0.0442343808 -0.1167249352 0.0062807164
-0.0498659547 -0.1085922561 0.0082324428
-0.0411505627 -0.1154924519 0.0210464451
-0.0366578846 -0.1147981165 0.0300463697
-0.0258197590 -0.1212573612 0.0344219908
-0.0242357321 -0.0809245769 0.0555904594
-0.0192155485 -0.1181463232 0.0425057585
-0.0124427744 -0.1298261095 0.0342712889
-0.0314102346 -0.0923279480 0.0488631484
0.0897337276 0.0588524653 0.0124243437
0.0836674622 0.0360738225 0.0408863329
0.0649540880 0.0226150897 0.0511949564
-0.0445643591 -0.1024397495 -0.0305145127
-0.0124310493 -0.1389603480 -0.0122330357
-0.0503141434 -0.0864769994 -0.0333931199
-0.0574795933 -0.0195104981 -0.0001005979
0.0356308402 0.0194360950 -0.0532319655
0.0684849581 0.0026852148 -0.0555422394
0.0088477223 0.0059723915 -0.0549403250
0.0270830532 0.0146682296 -0.0547735914
-0.0308832601 -0.0579937764 -0.0542657270
0.0008591763 -0.1135381118 -0.0527787050
-0.0021744926 -0.1429241860 -0.0090747438
0.0763214252 0.0197792288 -0.0498602218
0.0555250445 0.0261163603 -0.0503903374
-0.0528953428 -0.0328859340 -0.0294769011
-0.0397953358 -0.0217513743 -0.0405041071
-0.0369259634 -0.0494606046 -0.0502480149
-0.0049028034 -0.0020483986 -0.0547008253
-0.0421115401 -0.1010725827 -0.0350767796
-0.0337316855 -0.0866870109 -0.0489830566
0.0128578161 -0.1154584842 -0.0529849162
-0.0252492671 -0.0253220529 -0.0530623089
-0.0569866643 -0.0961316072 -0.0029775308
-0.0243624610 -0.1337981669 -0.0053075166
-0.0458360775 -0.1135664112 -0.0106471905
-0.0354743680 -0.1073384965 -0.0374173649
-0.0179095133 -0.0941461188 -0.0548756834
-0.0173327323 -0.1056324890 -0.0512031772
-0.0281822942 -0.1212580399 -0.0315411946
-0.0352952641 -0.1197204964 -0.0251535893
-0.0187430893 -0.1331073934 -0.0219446619
-0.0053865857 -0.1196761051 -0.0468049843
0.0039894212 -0.1288049961 -0.0419616944
-0.0050687852 -0.1165823191 -0.0492415372
0.0691468354 0.0345308895 -0.0452185130
0.0617226205 0.0211716505 -0.0516997449
0.0697829054 0.0217418038 -0.0504767569
0.0775363810 -0.0297222470 0.0495442246
-0.0537897108 -0.0166513731 -0.0005104449
0.0043979427 0.0053715696 0.0512457421
0.0287403363 0.0262172385 0.0460403192
0.0559975160 0.0409308697 0.0383766959
-0.0037838598 0.0026870229 0.0500625715
-0.0415450465 -0.0152063483 0.0315799118
0.0668626255 0.0436757275 0.0369168914
-0.0494997051 -0.0134285539 -0.0138797710
0.0832187471 0.0584292040 -0.0092315615
0.0397721842 0.0271768850 -0.0467147036
0.0124143252 0.0092436628 -0.0515091424
-0.0047975848 0.0069188340 -0.0471400655
0.0736137460 0.0534157924 -0.0246871042
0.0830792377 0.0569526769 -0.0029953892
-0.0530726167 -0.0948542006 -0.0192488087
-0.0349995478 -0.0616240294 0.0524583794
0.0040737085 0.0092235525 -0.0533241344
0.0867635729 0.0629676421 0.0040078240
-0.0387229863 -0.0105253357 0.0373358345
0.0525309561 0.0388989291 0.0433856732
-0.0320857669 -0.0075124195 0.0409203785
0.0632240831 0.0480518972 0.0356282688
0.0043557309 0.0115371535 0.0513130339
-0.0066456518 0.0052575323 0.0500555635
0.0670259514 0.0514775932 -0.0316365768
-0.0536626215 -0.0105551181 -0.0035220759
0.0129594564 0.0172134878 -0.0508079666
0.0609606844 0.0484436374 -0.0349935383
-0.0203394472 -0.0057785580 -0.0519469803
-0.0511891282 -0.0178952578 -0.0287436936
-0.0619863664 -0.0364547375 -0.0177894139
-0.0592932572 -0.0892424416 -0.0181591524
-0.0028681012 -0.1446583724 -0.0128852823
-0.0281224995 -0.0680835315 -0.0582552128
0.0434864440 0.0154447684 -0.0575785504
0.0304884103 0.0081188056 -0.0596705761
0.0579933030 0.0016252626 -0.0597727581
0.0733337218 0.0027914761 -0.0573224307
0.0790751035 0.0000917022 -0.0565095763
0.0852337279 0.0336964656 -0.0441143286
0.0826781209 0.0191167309 -0.0502736899
0.0333905808 0.0238680152 -0.0537447031
-0.0433333718 -0.0188426716 -0.0392447109
-0.0282535286 -0.0167195302 -0.0515327727
-0.0200321924 -0.0161442154 -0.0561956717
0.0026671009 0.0083245439 -0.0556891139
-0.0001914892 -0.1404190342 -0.0276724137
0.0057376068 -0.1160668721 -0.0550877825
-0.0459946476 -0.0269825100 -0.0399834960
-0.0599011894 -0.0262461430 -0.0159704355
-0.0531241674 -0.0258345834 -0.0304427520
-0.0504474871 -0.0280119764 -0.0350714229
-0.0364849010 -0.0252864722 -0.0486021111
-0.0466160230 -0.0897725521 -0.0402122178
-0.0246343170 -0.0970632234 -0.0542516099
-0.0398935831 -0.0952793103 -0.0446318826
-0.0492968953 -0.1033877412 -0.0274497521
-0.0370261418 -0.1041472728 -0.0426967508
-0.0437730903 -0.1161063136 -0.0213148245
-0.0528503087 -0.1060447227 -0.0159087583
-0.0240133050 -0.1009233467 -0.0528506819
-0.0362341979 -0.1201708646 -0.0283833804
-0.0364382691 -0.1262862162 -0.0148331925
-0.0260770207 -0.1330014497 -0.0183671900
-0.0230166206 -0.1269073978 -0.0346534803
-0.0362846411 -0.1197071866 -0.0289040555
-0.0058225620 -0.1346961194 -0.0353930764
-0.0067709229 -0.1444017841 -0.0072417190
0.0096269573 -0.1241103321 -0.0500568796
-0.0069649893 -0.1247274038 -0.0460151105
-0.0584912377 -0.0956486734 -0.0126269781
0.0880619779 0.0628159152 -0.0101880631
0.0937832571 0.0545065809 -0.0240472655
0.0613644010 0.0208410142 -0.0547836462
0.0674762092 0.0459672923 -0.0409370797
0.0458494193 0.0348984254 -0.0487332180
0.0690918289 0.0321442584 -0.0492810800
0.0881203020 0.0506895980 0.0327690373
0.0473023291 0.0127009426 0.0581215516
-0.0352288040 -0.0623530479 0.0545379763
0.0090400505 -0.1057164683 0.0600943807
0.0086417546 -0.1233085465 0.0502865306
-0.0056885843 -0.1448170582 0.0074130771
-0.0491992999 -0.0887389230 0.0373351541
-0.0525149175 -0.0366131926 0.0357731140
-0.0641763283 -0.0351525433 0.0044624534
-0.0511837283 -0.0163127450 0.0271309388
0.0600328433 0.0246963747 0.0532828766
0.0813644325 0.0051761011 0.0546963273
0.0710834329 0.0108009208 0.0560102416
0.0251762929 0.0135841150 0.0575521482
-0.0261216488 -0.0139609781 0.0519343582
-0.0302434908 -0.0224564995 0.0521242006
-0.0229214862 -0.0268719363 0.0575661312
-0.0032640461 0.0023866309 0.0561821248
-0.0369071099 -0.0283916806 0.0492062406
-0.0540632180 -0.0292604110 0.0306281585
-0.0325713646 -0.0404462007 0.0547809111
-0.0368896568 -0.0207401831 0.0467872991
-0.0577231096 -0.0187283645 0.0149659597
-0.0587974646 -0.0874674656 0.0216194773
-0.0556312139 -0.1038814422 0.0061333374
-0.0514882245 -0.1048271141 0.0211134246
-0.0369502812 -0.0963000111 0.0466733359
-0.0472705638 -0.1167602687 0.0049265349
-0.0434022203 -0.1165515811 0.0216070879
-0.0314449135 -0.1081062882 0.0446496973
-0.0550750950 -0.1062625366 -0.0002460076
-0.0295712236 -0.1285137260 0.0244420928
-0.0294202526 -0.1224072416 0.0336142645
-0.0162433400 -0.1111826534 0.0518363581
-0.0227871238 -0.1348326205 0.0190708278
-0.0181946458 -0.1239847247 0.0409214418
-0.0132589528 -0.0956760277 0.0586760176
-0.0117120245 -0.1068134395 0.0553641282
-0.0191348781 -0.1390794720 0.0107731899
0.0052011805 -0.1176133409 0.0539003461
0.0026905820 -0.1225488176 0.0503825843
-0.0197280445 -0.1290460901 0.0341851380
-0.0305903321 -0.0781381448 0.0555614091
0.0942429876 0.0609394436 -0.0006054805
0.0827139740 0.0552218100 0.0300418852
0.0756782143 0.0328795811 0.0477385309
0.0431506045 0.0288130592 0.0518725737
0.0719525254 0.0412250199 0.0440258769
0.0830898885 0.0523622285 0.0330129469
-0.0363431637 -0.0648973157 0.0532996869
0.0775503598 -0.0354496381 0.0613011337
0.0695780923 -0.0581356465 0.0632796888
0.0441702986 -0.0212065260 0.0650661311
0.0467904164 -0.0143872627 0.0638650013
0.0580221288 -0.0392243777 0.0654899099
0.0495352698 -0.0289474325 0.0655398011
0.0684603738 -0.0298406802 0.0630315059
0.0302414330 -0.0245020414 0.0659996265
0.0164315497 -0.0239237637 0.0658957935
0.0392770714 0.0100512559 0.0592851292
0.0376474235 -0.0084207629 0.0635134001
0.0218776558 -0.0038777617 0.0625470695
0.0112162152 -0.0063418440 0.0619680805
0.0090443381 0.0043590958 0.0586634562
-0.0160569257 -0.0461026842 0.0630287231
-0.0024255759 -0.0336999734 0.0651394916
-0.0117370868 -0.0880376861 0.0615530648
-0.0123695915 -0.0698866078 0.0639857388
0.0062058076 -0.0345522339 0.0664439250
0.0247567345 -0.0935165440 0.0643958917
-0.0093875414 -0.0275041254 0.0625676369
-0.0019730974 -0.0657313918 0.0661382937
0.0027301750 -0.0966470658 0.0622507297
0.0352781940 -0.0989991900 0.0623027291
0.0452199860 -0.0654076225 0.0673271827
0.0582116553 -0.0828281641 0.0628946005
0.0729984208 -0.0489619639 0.0629891934
0.0522606761 -0.0875391702 0.0629858951
0.0173785504 -0.0836769100 0.0661475822
0.0647247967 -0.0131462646 0.0616303370
0.0610130894 -0.0039817446 0.0605997800
-0.0090225487 -0.0181923866 0.0608987953
0.0967146054 0.0572094430 0.0089239198
0.0041907369 -0.1425380462 0.0185696890
0.0163640458 0.0207361278 0.0483265404
-0.0364145753 -0.0058726965 -0.0351112863
0.0517602544 0.0428346043 -0.0384207160
0.0855717004 -0.0116875514 -0.0552749386
0.0161447756 -0.1235143077 -0.0504676403
0.0410164355 0.0246679038 0.0491045390
0.0191498666 0.0117095477 0.0526212265
0.0665497803 0.0426931882 -0.0386499085
-0.0395578207 -0.0165886979 -0.0355101844
-0.0595673437 -0.0352198335 0.0184064745
-0.0511624121 -0.0847631392 -0.0326144462
-0.0468946275 -0.0996345721 0.0249633759
-0.0512201692 -0.0294554059 -0.0282178638
-0.0472336811 -0.1008356690 -0.0223973405
-0.0367871680 -0.1204486695 -0.0137716839
-0.0234343267 -0.1232741065 0.0155532746
-0.0293192253 -0.1284776383 0.0156765913
0.0788001991 0.0481951281 0.0081157566
0.0802317932 0.0539883660 0.0067715453
0.0830632751 0.0485320195 0.0003939612
0.0783587599 -0.0338125702 -0.0533645047
0.0040894890 -0.1329609976 0.0109999999
-0.0052529734 -0.1392442405 -0.0064333855
-0.0120921084 -0.1396051663 -0.0036258099
0.0038756458 -0.1311786333 0.0105634949
0.0022322704 -0.1347178049 -0.0061011170
-0.0091937038 -0.1368619110 0.0080000004
0.0826691300 -0.0089283009 0.0541945151
0.0010500467 -0.1425997470 0.0069853117
0.0456909864 -0.0953516293 -0.0582945709
0.0984525240 0.0540854399 0.0098099481
0.0879147029 -0.0070012088 -0.0501018824
0.0876848993 -0.0256116800 0.0547323283
0.0090290480 -0.1268281254 -0.0445010844
0.0303492905 -0.1123259195 -0.0554801556
0.0838882225 -0.0361344743 -0.0573985433
0.0823179211 -0.0465872636 0.0581546772
0.0992747408 0.0551311906 0.0030665852
0.0932979022 0.0506206835 0.0274451610
0.0861444183 -0.0019351522 -0.0526560331
0.0847914621 -0.0064092568 -0.0511986921
0.0861445994 -0.0279268277 -0.0533805671
0.0859968507 0.0255834911 -0.0427148460
0.0743173368 -0.0665910724 -0.0565890423
0.0829664348 -0.0398706786 -0.0551298411
0.0968217820 0.0527037224 0.0093881813
0.0818936478 -0.0080066599 0.0523669278
0.0948974707 0.0564401245 -0.0003921411
0.0651361043 -0.0795719335 0.0572735369
0.0762057893 -0.0499425774 0.0576543854
0.0029744182 -0.1445567176 0.0053961636
0.0077320535 -0.0421386623 0.0636950897
0.0092060789 -0.0642352414 0.0631140419
0.0348911519 -0.0679733819 0.0645399695
0.0294767229 -0.0343955915 0.0626975749
0.0204682252 -0.0731916419 0.0630824975
0.0427996269 -0.0724354820 -0.0634953110
0.0232799527 -0.0431498798 -0.0636138373
0.0404949387 -0.0668857963 -0.0630665673
0.0065371331 -0.0572061273 -0.0630459365
0.0359570381 -0.0751065362 -0.0625777068
0.0084634685 -0.0511776529 0.0648178721
0.0176656896 -0.0397708090 0.0648724303
0.0199508226 -0.0691713829 0.0639986487
0.0101149696 -0.0464588653 -0.0670687205
0.0089366383 -0.0494011728 -0.0647724901
0.0104791840 -0.0550827383 -0.0641019825
0.0162469442 -0.0678021207 0.0636258461
0.0088910585 -0.0533491043 0.0677561955
0.0403149046 -0.0470171061 0.0675770643
0.0156644780 -0.0561591475 0.0680676875
0.0319721035 -0.0506043829 0.0665752438
0.0108481032 -0.0440794067 0.0657210720
0.0100345330 -0.0653942634 0.0649999976
0.0314804230 -0.0506402864 0.0649999976
0.0183597096 -0.0600275360 0.0649999976
0.0165053401 -0.0605783704 -0.0680307163
0.0329539524 -0.0465227504 -0.0678977512
0.0377048718 -0.0510040887 -0.0678770142
0.0256266108 -0.0671343388 -0.0679819433
0.0174759102 -0.0725855850 -0.0654729933
0.0106486005 -0.0552824288 -0.0649712013
0.0305792874 -0.0371588273 -0.0649999976
0.0243404490 -0.0414462718 -0.0649999976
0.0122408800 -0.0632211180 -0.0649999976
