0.0010482213 0.0282398186 -0.0225054156
-0.0175875175 0.0282829663 -0.0155447132
-0.0176032988 0.0289722581 -0.0176735271
-0.0223947638 0.0290290637 -0.0009375718
-0.0156403909 0.0285454891 0.0176831943
0.0154383043 0.0298024074 0.0174520202
0.0157062381 0.0292534501 0.0154913534
0.0246403920 0.0291617154 -0.0008897309
0.0175436680 0.0292136574 -0.0155024778
0.0194790246 0.0123547406 -0.0710000023
0.0178642992 0.0153531844 -0.0710000023
0.0165580627 0.0164221176 -0.0710000023
0.0160218124 0.0147123958 -0.0710000023
0.0203039599 0.0052386864 -0.0710000023
0.0149573937 0.0159332709 -0.0710000023
0.0160879271 0.0176408809 -0.0710000023
0.0164407467 0.0208727730 -0.0710000023
0.0140302022 0.0208767263 -0.0710000023
0.0190333917 -0.0064770597 -0.0710000023
0.0110907974 0.0218874045 -0.0710000023
0.0052812147 0.0210467411 -0.0710000023
0.0077836981 0.0249522968 -0.0710000023
0.0016142463 0.0216399331 -0.0710000023
-0.0008638060 0.0242517910 -0.0710000023
-0.0002744785 0.0223611934 -0.0710000023
0.0139876010 0.0246404928 -0.0710000023
-0.0124190048 0.0232949682 -0.0710000023
-0.0120934803 0.0249812164 -0.0710000023
-0.0052455491 0.0211377795 -0.0710000023
-0.0092474727 0.0212137309 -0.0710000023
-0.0118075087 0.0213312703 -0.0710000023
-0.0147412712 0.0205571654 -0.0710000023
-0.0126894276 0.0157986645 -0.0710000023
-0.0195549833 0.0239085542 -0.0710000023
-0.0190939455 0.0229126664 -0.0710000023
-0.0165899070 0.0123006278 -0.0710000023
-0.0198637232 0.0212192072 -0.0710000023
-0.0201170824 0.0227391301 -0.0710000023
-0.0196507192 0.0036902488 -0.0710000023
0.0134377312 -0.0150561132 -0.0710000023
-0.0129857708 -0.0152231124 -0.0710000023
-0.0106785805 0.0056451939 -0.0649999976
-0.0048108924 -0.0102995553 -0.0649999976
0.0204019458 -0.0090124697 -0.0649999976
0.0131124162 -0.0116004012 -0.0649999976
0.0125609864 -0.0124106446 -0.0649999976
0.0024483748 -0.0204017592 -0.0649999976
0.0023073343 -0.0182455746 -0.0649999976
0.0046237348 -0.0169581068 -0.0649999976
0.0045267140 -0.0142296293 -0.0649999976
0.0050778157 -0.0208417812 -0.0649999976
0.0038999299 -0.0205624411 -0.0649999976
0.0111931634 -0.0161730298 -0.0649999976
-0.0074890454 -0.0209493938 -0.0649999976
-0.0029294735 -0.0128306721 -0.0649999976
-0.0001066396 -0.0189756765 -0.0649999976
-0.0005896779 -0.0150945714 -0.0649999976
-0.0015464877 -0.0172977856 -0.0649999976
-0.0031663521 -0.0203373627 -0.0649999976
-0.0112423444 -0.0178244296 -0.0649999976
-0.0114409574 -0.0147284608 -0.0649999976
-0.0144061549 -0.0151558657 -0.0649999976
-0.0160073129 -0.0113958344 -0.0649999976
-0.0195394328 -0.0086129606 -0.0649999976
-0.0200876341 -0.0062926581 -0.0649999976
-0.0218361586 -0.0012661746 -0.0649999976
-0.0092051648 0.0041379219 -0.0649999976
-0.0047218817 0.0110192720 -0.0649999976
-0.0037392738 0.0092815519 -0.0649999976
-0.0074398652 -0.0074302836 -0.0649999976
-0.0076861507 -0.0098478300 -0.0649999976
0.0061047468 -0.0079386933 -0.0649999976
0.0112029186 -0.0040383537 -0.0649999976
0.0111812287 -0.0082106242 -0.0649999976
0.0112646609 0.0080627983 -0.0649999976
0.0118665090 0.0114436654 -0.0649999976
0.0090604354 0.0078928729 -0.0649999976
0.0094623620 0.0118522131 -0.0649999976
0.0056123976 0.0106235259 -0.0649999976
-0.0091063835 0.0135999238 -0.0649999976
-0.0026308230 0.0155259546 -0.0649999976
-0.0016718271 0.0128334167 -0.0649999976
-0.0010065119 0.0124168601 -0.0649999976
-0.0067992747 0.0165142541 -0.0649999976
0.0131649728 -0.0062947985 -0.0649999976
0.0154136341 -0.0034340442 -0.0649999976
0.0138104342 -0.0026078263 -0.0649999976
0.0173579565 -0.0052732991 -0.0649999976
0.0185470313 -0.0091956249 -0.0649999976
0.0220255410 0.0144077203 -0.0649999976
0.0205935744 0.0116916615 -0.0649999976
0.0224819517 0.0020638589 -0.0649999976
0.0191863216 0.0072865555 -0.0649999976
0.0216427158 0.0008526743 -0.0649999976
0.0212062936 0.0002171979 -0.0649999976
0.0174415529 0.0026685942 -0.0649999976
0.0168402878 0.0014991844 -0.0649999976
0.0175268443 0.0053449126 -0.0649999976
0.0134972036 0.0073600239 -0.0649999976
0.0187440270 0.0172403558 -0.0649999976
0.0194940407 0.0126068981 -0.0649999976
0.0137371629 0.0142044043 -0.0649999976
0.0149266926 0.0108867711 -0.0649999976
0.0094151266 -0.0110810396 -0.0649999976
0.0026777004 -0.0116875729 -0.0649999976
0.0065108999 -0.0126923108 -0.0649999976
0.0003570112 0.0170210929 -0.0649999976
0.0038816255 0.0140135532 -0.0649999976
0.0030749383 0.0129412105 -0.0649999976
0.0075753441 0.0126216981 -0.0649999976
-0.0121363950 -0.0101668879 -0.0649999976
-0.0122645245 -0.0064952754 -0.0649999976
-0.0110418938 -0.0109000248 -0.0649999976
-0.0062216079 -0.0131218242 -0.0649999976
-0.0183225108 -0.0038798959 -0.0649999976
-0.0192277304 -0.0032760789 -0.0649999976
-0.0182910923 -0.0023320994 -0.0649999976
-0.0193622405 0.0021262334 -0.0649999976
-0.0147194070 0.0012826218 -0.0649999976
-0.0191521408 0.0025892425 -0.0649999976
-0.0208796564 0.0094264411 -0.0649999976
-0.0199968032 0.0047537527 -0.0649999976
-0.0199021033 0.0084883855 -0.0649999976
-0.0172621746 0.0094221190 -0.0649999976
-0.0102619234 -0.0060349885 -0.0649999976
-0.0105078751 0.0003137238 -0.0649999976
-0.0122691703 0.0101980517 -0.0649999976
-0.0133367681 0.0158888854 -0.0649999976
-0.0205945871 0.0176851572 -0.0649999976
-0.0168690435 0.0140108950 -0.0649999976
-0.0206629418 0.0165861133 -0.0649999976
-0.0198109713 0.0121109357 -0.0649999976
0.0127814301 0.0179265519 -0.0649999976
0.0019549594 0.0186584855 -0.0649999976
-0.0109772730 0.0186905171 -0.0649999976
-0.0289999992 0.0292292490 0.0007201194
0.0173602498 0.0311491341 -0.0117119366
-0.0116597827 0.0301540328 -0.0174491283
0.0126427313 0.0303550145 0.0167270812
-0.0138953040 0.0288386212 0.0157037635
-0.0132145870 0.0312856037 -0.0162882223
0.0030944985 0.0285729877 -0.0207694330
0.0147687903 0.0284077935 -0.0148844401
-0.0088973843 0.0310216841 0.0190167082
-0.0117033829 0.0317455025 0.0174239523
-0.0190778775 0.0294653401 0.0086830418
-0.0177994717 0.0293073252 0.0110677166
-0.0198634997 0.0319731851 0.0066504685
-0.0206431754 0.0309018745 0.0035471240
-0.0207249623 0.0315049681 -0.0030045028
-0.0202603060 0.0303561903 -0.0053640536
-0.0191696109 0.0302348633 -0.0085002949
-0.0167446726 0.0317401334 -0.0126148224
-0.0102793900 0.0301739169 -0.0182460977
-0.0063075370 0.0315275879 -0.0200236169
-0.0033277097 0.0297924421 -0.0207202965
0.0069141516 0.0299975109 -0.0197998261
0.0101690187 0.0299551981 -0.0183098206
0.0131754640 0.0299699285 -0.0163182466
0.0188750302 0.0297751372 -0.0091228535
0.0202824242 0.0299755909 -0.0052923481
0.0207759310 0.0292389067 -0.0026663475
0.0206240762 0.0292914517 0.0036738390
0.0198584158 0.0302674716 0.0066669503
0.0183110348 0.0293665566 0.0102522370
0.0175713087 0.0291452715 0.0114023702
0.0089796425 0.0287502860 0.0189805645
0.0042707230 0.0308267962 0.0205050601
0.0030375436 0.0304286740 0.0207723682
-0.0002748139 0.0319574999 0.0209794053
-0.0040009431 0.0316773311 0.0205666355
-0.0011945218 0.0098954924 -0.0671781325
-0.0044128500 0.0089340457 -0.0658982460
-0.0081192310 0.0057726612 -0.0665580445
-0.0098651090 0.0015418122 -0.0664047090
-0.0094642183 -0.0031690653 -0.0659317623
-0.0075134587 -0.0065748600 -0.0661199287
-0.0036302207 -0.0092989938 -0.0668622561
0.0004152906 -0.0099636669 -0.0665145143
0.0050875259 -0.0085989685 -0.0670336240
0.0085088047 -0.0052162921 -0.0669207837
0.0098900952 -0.0012562201 -0.0679184891
0.0094228680 0.0033233855 -0.0671358575
0.0075525580 0.0065357634 -0.0654529295
0.0028999729 0.0095363204 -0.0669681657
-0.0163426222 0.0078028644 -0.0657148789
-0.0144320106 0.0099778654 -0.0675064230
-0.0099620322 0.0144161765 -0.0653727048
-0.0077873435 0.0163270999 -0.0667221808
0.0078851752 0.0143189689 -0.0679014958
0.0099727542 0.0163170022 -0.0659777853
0.0143828004 0.0078213438 -0.0676759970
0.0164122943 0.0098774619 -0.0679909866
0.0142661080 -0.0098119628 -0.0672079713
0.0163476667 -0.0078079096 -0.0678789266
0.0076866958 -0.0161932545 -0.0650964279
0.0100176417 -0.0144854345 -0.0654408449
-0.0100564679 -0.0162030178 -0.0663378107
-0.0077054890 -0.0145238084 -0.0660012730
-0.0164990643 -0.0097836914 -0.0658121595
-0.0142272422 -0.0079914353 -0.0658030762
0.0135394595 0.0320000015 0.0161382923
-0.0277978716 0.0320000015 0.0088104832
0.0281352885 0.0320000015 0.0067466640
0.0191327474 0.0320000015 0.0186898431
-0.0275997943 0.0320000015 0.0021032503
0.0212786288 0.0320000015 -0.0140063454
0.0233049743 0.0320000015 -0.0073220712
0.0233607599 0.0320000015 -0.0103857570
0.0201244576 0.0320000015 -0.0120070157
0.0256305021 0.0320000015 -0.0067198020
0.0247918090 0.0320000015 0.0096484645
0.0263909068 0.0320000015 0.0114545039
0.0264916929 0.0320000015 0.0072271153
0.0226523690 0.0320000015 0.0048585512
0.0214991204 0.0320000015 0.0138956633
0.0235384094 0.0320000015 0.0144022103
0.0167421729 0.0320000015 0.0220170230
0.0120366143 0.0320000015 0.0266210092
0.0114208928 0.0320000015 0.0243524800
0.0107174842 0.0320000015 0.0230771401
0.0066523263 0.0320000015 0.0277939089
-0.0252053486 0.0320000015 0.0105394373
-0.0242768619 0.0320000015 0.0094010026
-0.0231870968 0.0320000015 0.0042160940
-0.0231395213 0.0320000015 0.0082435109
-0.0218186688 0.0320000015 0.0117920112
-0.0215481818 0.0320000015 -0.0044795243
0.0134650073 0.0320000015 -0.0294443111
0.0068512047 0.0320000015 -0.0264533989
0.0171367626 0.0320000015 -0.0284878705
0.0163694631 0.0320000015 -0.0257202954
0.0108688855 0.0320000015 -0.0228793668
0.0180895415 0.0320000015 -0.0254905295
0.0165619530 0.0320000015 -0.0253029605
0.0098693902 0.0320000015 -0.0254024286
0.0129923503 0.0320000015 -0.0243737846
0.0263052761 0.0320000015 -0.0048833467
-0.0159508331 0.0320000015 0.0216763857
-0.0118739546 0.0320000015 0.0263734235
-0.0095388173 0.0320000015 0.0266984526
-0.0078482657 0.0320000015 0.0260130035
-0.0084004231 0.0320000015 0.0248457091
-0.0260359040 0.0320000015 -0.0023984611
-0.0029981471 0.0320000015 -0.0272640958
0.0041840499 0.0320000015 -0.0286193059
-0.0016694729 0.0320000015 -0.0290533783
0.0100899964 0.0320000015 -0.0319329057
0.0210307056 0.0320000015 -0.0319170792
-0.0088463153 0.0320000015 -0.0316829818
-0.0093649341 0.0320000015 -0.0293987318
-0.0009207387 0.0320000015 -0.0273957154
-0.0120669605 0.0320000015 -0.0296573182
0.0269232039 0.0320000015 -0.0026097370
0.0287216513 0.0320000015 0.0027864889
-0.0195388962 0.0320000015 0.0109019852
-0.0244484075 0.0320000015 -0.0126418231
-0.0246513028 0.0320000015 -0.0042528740
-0.0261753639 0.0320000015 -0.0120173132
-0.0267856549 0.0320000015 -0.0055542227
-0.0206071125 0.0320000015 -0.0064652564
-0.0204097629 0.0320000015 -0.0177827976
0.0246389448 0.0320000015 -0.0138164494
0.0111769522 0.0320000015 0.0212460386
-0.0198683420 0.0320000015 0.0170709925
-0.0271862177 0.0320000015 -0.0019684492
-0.0229833070 0.0320000015 -0.0222836914
-0.0193874391 0.0320000015 -0.0212026105
-0.0095097599 0.0320000015 -0.0214523799
0.0049056585 0.0320000015 -0.0227758580
0.0201789885 0.0320000015 -0.0260096112
0.0217453621 0.0320000015 -0.0244717703
0.0219993987 0.0320000015 -0.0198332907
0.0215107693 0.0320000015 -0.0172577296
0.0215639609 0.0320000015 0.0051088262
0.0034458003 0.0320000015 0.0254303441
-0.0209500297 0.0320000015 -0.0106573254
-0.0216545935 0.0320000015 -0.0165392009
-0.0219265169 0.0320000015 -0.0170468879
-0.0198346345 0.0320000015 -0.0165714817
0.0105568176 0.0320000015 -0.0186812314
0.0084789038 0.0320000015 0.0229511786
0.0077211128 0.0320000015 0.0226520511
0.0047568673 0.0320000015 0.0262807258
0.0015332807 0.0320000015 0.0210935143
0.0021910111 0.0320000015 0.0267855070
-0.0006561323 0.0320000015 0.0246155365
-0.0105212038 0.0320000015 0.0220461491
-0.0017901673 0.0320000015 0.0271339916
-0.0062758039 0.0320000015 0.0239893137
-0.0085116145 0.0320000015 0.0212167150
-0.0029141948 0.0320000015 0.0245322402
-0.0217849275 0.0320000015 0.0032229611
0.0214190629 0.0320000015 -0.0043030676
-0.0167156391 0.0320000015 0.0134649920
-0.0088184776 0.0320000015 -0.0245337680
-0.0129250119 0.0320000015 -0.0276705659
-0.0075514893 0.0320000015 -0.0231858009
-0.0151840947 0.0320000015 -0.0275282495
-0.0158496824 0.0320000015 -0.0202495806
-0.0090793021 0.0320000015 -0.0262624828
-0.0178693077 0.0320000015 -0.0248169303
-0.0123665579 0.0320000015 -0.0244290268
-0.0064033802 0.0320000015 -0.0225869437
0.0214830466 0.0320000015 -0.0076050729
0.0195302107 0.0320000015 -0.0092905489
-0.0127653498 0.0320000015 -0.0172855222
0.0125673152 0.0260000005 -0.0259541252
0.0131995923 0.0260000005 -0.0231057778
0.0195086484 0.0260000005 -0.0258095903
0.0099527936 0.0260000005 -0.0258077443
-0.0222674600 0.0260000005 -0.0209182193
-0.0107575194 0.0260000005 -0.0252992343
-0.0175900134 0.0260000005 -0.0255662179
-0.0162180752 0.0260000005 -0.0207504540
-0.0146048347 0.0260000005 -0.0224414045
-0.0165657186 0.0260000005 -0.0245162274
0.0226325382 0.0260000005 -0.0145596145
0.0219417960 0.0260000005 -0.0216329008
0.0139699238 0.0260000005 -0.0221468045
0.0255753129 0.0260000005 0.0060019103
0.0239975015 0.0260000005 0.0116402742
0.0227165776 0.0260000005 0.0133003419
0.0202730112 0.0260000005 0.0187051839
0.0168879098 0.0260000005 0.0201954741
0.0171816461 0.0260000005 0.0232519114
0.0145881293 0.0260000005 0.0245631221
0.0094483738 0.0260000005 0.0270981786
0.0058414271 0.0260000005 0.0267490710
0.0010976250 0.0260000005 0.0260189466
-0.0000443815 0.0260000005 0.0272114716
-0.0021921537 0.0260000005 0.0286408298
0.0288009211 0.0260000005 -0.0016680642
0.0264385752 0.0260000005 0.0060488936
-0.0223071987 0.0260000005 -0.0185525418
-0.0247220934 0.0260000005 -0.0166665049
-0.0250093909 0.0260000005 -0.0140350903
-0.0265029264 0.0260000005 -0.0095776804
-0.0268360396 0.0260000005 -0.0076185269
0.0251747550 0.0260000005 -0.0164847987
0.0270923469 0.0260000005 -0.0040768215
0.0266079514 0.0260000005 -0.0081814330
-0.0274634317 0.0260000005 0.0070069536
-0.0063077762 0.0260000005 0.0291738784
-0.0101454562 0.0260000005 0.0251946085
-0.0133026644 0.0260000005 0.0265148794
-0.0163184548 0.0260000005 0.0204233973
-0.0187242140 0.0260000005 0.0180421667
-0.0203785695 0.0260000005 0.0165791166
-0.0230515919 0.0260000005 0.0136843365
-0.0257890670 0.0260000005 0.0125179246
-0.0258701374 0.0260000005 -0.0059109856
-0.0285251452 0.0260000005 -0.0036445226
-0.0023659167 -0.0109073769 -0.0680000037
-0.0140759104 -0.0129305833 -0.0680000037
0.0138737909 0.0142680344 -0.0680000037
0.0076896619 -0.0067683746 -0.0680000037
-0.0099178747 -0.0073575373 -0.0680000037
-0.0110852561 -0.0027956430 -0.0680000037
-0.0113175242 -0.0085502663 -0.0680000037
-0.0065317173 -0.0097305239 -0.0680000037
-0.0079887211 0.0100174233 -0.0680000037
-0.0107514736 0.0095337215 -0.0680000037
-0.0120254363 0.0069242919 -0.0680000037
0.0087675106 0.0080641178 -0.0680000037
0.0063345283 0.0091668482 -0.0680000037
0.0048224752 0.0103664072 -0.0680000037
0.0099178548 0.0078598543 -0.0680000037
0.0095920693 0.0135127154 -0.0680000037
0.0055312176 0.0130331201 -0.0680000037
0.0032069305 0.0172737922 -0.0680000037
0.0024393357 0.0145715750 -0.0680000037
0.0145890789 -0.0065221608 -0.0680000037
0.0169019859 -0.0000868872 -0.0680000037
0.0172409607 -0.0031795573 -0.0680000037
0.0179504704 -0.0059226915 -0.0680000037
0.0122005373 -0.0064786560 -0.0680000037
0.0147047274 -0.0106100315 -0.0680000037
0.0049661309 -0.0137844484 -0.0680000037
0.0035559251 -0.0179619693 -0.0680000037
0.0040099234 -0.0160786938 -0.0680000037
0.0045850812 -0.0184608394 -0.0680000037
-0.0173681389 -0.0006547904 -0.0680000037
-0.0159024017 -0.0004955633 -0.0680000037
-0.0122695507 -0.0082618334 -0.0680000037
0.0131189324 0.0038640529 -0.0680000037
0.0164335331 0.0057733016 -0.0680000037
0.0160722919 0.0011184233 -0.0680000037
0.0166973123 0.0041544335 -0.0680000037
0.0128724007 0.0067994824 -0.0680000037
0.0172357999 0.0061670216 -0.0680000037
0.0008365978 0.0187816632 -0.0680000037
-0.0057333264 0.0185881271 -0.0680000037
-0.0010518487 0.0110338680 -0.0680000037
-0.0057737452 0.0131428137 -0.0680000037
-0.0116415400 0.0143809334 -0.0680000037
-0.0002449322 0.0136068214 -0.0680000037
-0.0016260121 0.0176792893 -0.0680000037
-0.0126965600 0.0105990490 -0.0680000037
-0.0157587090 0.0114968630 -0.0680000037
-0.0178879934 0.0000465817 -0.0680000037
-0.0139737088 0.0018227009 -0.0680000037
-0.0177537510 0.0045420599 -0.0680000037
-0.0177636637 -0.0045411792 -0.0680000037
-0.0068502574 -0.0136289837 -0.0680000037
-0.0071928635 -0.0179637557 -0.0680000037
-0.0033090982 -0.0190789023 -0.0680000037
-0.0008927196 -0.0184196241 -0.0680000037
-0.0035149891 -0.0155690075 -0.0680000037
-0.0122603604 -0.0144381273 -0.0680000037
0.0122702991 -0.0145786572 -0.0680000037
0.0091931590 -0.0124634410 -0.0680000037
0.0041644141 -0.0112177634 -0.0680000037
-0.0134233144 -0.0118164636 -0.0680000037
-0.0104787836 -0.0113459242 -0.0680000037
0.0115604424 -0.0044138742 -0.0680000037
0.0103108082 -0.0041840172 -0.0680000037
0.0118268019 0.0001115258 -0.0680000037
0.0115639686 0.0124927209 -0.0680000037
0.0104219190 0.0170509383 -0.0684772315
0.0051146430 0.0192750457 -0.0706448044
0.0018954495 0.0198549407 -0.0685469538
-0.0043614862 0.0194670123 -0.0707616971
-0.0069178526 0.0187038742 -0.0687249868
-0.0116006594 0.0162313812 -0.0693832084
-0.0151623450 0.0130027347 -0.0680409150
-0.0175592799 0.0094773624 -0.0706249384
-0.0194543331 0.0046189256 -0.0704462545
-0.0199413169 0.0000952618 -0.0696491919
-0.0195371307 -0.0041477589 -0.0699279964
-0.0181307197 -0.0083232470 -0.0704582459
-0.0170354870 -0.0104420221 -0.0687667650
-0.0139141823 -0.0142996587 -0.0689281652
-0.0105990407 -0.0169353850 -0.0697928589
-0.0058502857 -0.0190872981 -0.0686040273
-0.0009938588 -0.0199178639 -0.0704766658
0.0033639419 -0.0196854105 -0.0687007909
0.0077655475 -0.0183721732 -0.0707240732
0.0111936170 -0.0165086973 -0.0694515615
0.0144990894 -0.0137611464 -0.0681694519
0.0175967366 -0.0094237168 -0.0696931814
0.0191714999 -0.0055918152 -0.0696058066
0.0199358546 -0.0008354985 -0.0685178724
0.0191638419 0.0056245395 -0.0706424673
0.0186516247 0.0070673290 -0.0680038520
0.0162238039 0.0116698082 -0.0705695068
-0.0145696363 0.0279999990 0.0206952666
0.0210060943 0.0279999990 0.0130437635
-0.0145380003 0.0279999990 0.0199446176
-0.0202570724 0.0279999990 0.0120714282
-0.0157375808 0.0279999990 0.0145541553
-0.0245380530 0.0279999990 0.0041289120
-0.0214332699 0.0279999990 0.0009052752
-0.0248633718 0.0279999990 -0.0041256752
-0.0228716003 0.0279999990 -0.0034694189
-0.0232847359 0.0279999990 -0.0054883256
-0.0177455593 0.0279999990 -0.0116466965
-0.0134215309 0.0279999990 -0.0166223821
-0.0082953106 0.0279999990 -0.0204259943
0.0178635656 0.0279999990 -0.0136475722
0.0103191905 0.0279999990 -0.0187242487
0.0210775140 0.0279999990 -0.0081795402
0.0116067314 0.0279999990 0.0192767910
0.0200511518 0.0279999990 0.0164199293
0.0185863350 0.0279999990 0.0140772860
0.0121483638 0.0279999990 0.0181296236
0.0228320861 0.0279999990 0.0074376931
0.0236857029 0.0279999990 0.0030344839
0.0227305438 0.0279999990 0.0014976950
0.0228414631 0.0279999990 -0.0028465250
0.0253263270 0.0279999990 -0.0002950853
0.0181586149 0.0279999990 -0.0128407079
0.0213632503 0.0279999990 -0.0115885373
0.0228493731 0.0279999990 -0.0097978828
0.0147686795 0.0279999990 -0.0208520421
0.0125985288 0.0279999990 -0.0186285734
0.0018829540 0.0279999990 -0.0211775336
0.0035498011 0.0279999990 -0.0222459263
0.0081878580 0.0279999990 -0.0232986172
0.0034606109 0.0279999990 -0.0249062946
-0.0038373525 0.0279999990 -0.0237589708
-0.0120355821 0.0279999990 -0.0226322618
-0.0144698397 0.0279999990 -0.0214553716
-0.0188703583 0.0279999990 -0.0151041362
-0.0220339451 0.0279999990 -0.0132006222
-0.0238162268 0.0279999990 -0.0100737020
-0.0228629305 0.0279999990 0.0055483620
-0.0215605083 0.0279999990 0.0098693725
0.0144264025 0.0279999990 0.0201200992
0.0114896859 0.0279999990 0.0226649951
0.0065551958 0.0279999990 0.0204549881
0.0046756894 0.0279999990 0.0247287497
0.0018930074 0.0279999990 0.0250539494
-0.0010796928 0.0279999990 0.0231609419
-0.0041012854 0.0279999990 0.0224575911
-0.0057534276 0.0279999990 0.0210780327
-0.0092594412 0.0279999990 0.0238426643
-0.0020416748 0.0270399754 0.0258603475
-0.0100074111 0.0275964637 0.0239722445
-0.0161814425 0.0264664199 0.0203286170
-0.0197885576 0.0267840662 0.0167792471
-0.0238294600 0.0271235353 0.0102478070
-0.0255215878 0.0267553233 0.0048140248
-0.0258991946 0.0274855944 -0.0020667315
-0.0243874903 0.0274523481 -0.0089630914
-0.0214196895 0.0265305603 -0.0147002040
-0.0186458400 0.0262167586 -0.0180787660
-0.0128685994 0.0263284053 -0.0225468297
-0.0042896615 0.0260019760 -0.0256021234
0.0026720026 0.0270379565 -0.0258172309
0.0098963777 0.0262747743 -0.0240117086
0.0136949565 0.0271713785 -0.0220837724
0.0204512033 0.0273646201 -0.0159647470
0.0233925576 0.0265628665 -0.0112536580
0.0255169136 0.0275338666 -0.0048480340
0.0259217161 0.0270677602 0.0019028799
0.0242136662 0.0267977540 0.0093632750
0.0221217076 0.0266580247 0.0135457824
0.0177768041 0.0260804253 0.0188903881
0.0131837696 0.0261239869 0.0223835212
0.0049321465 0.0265360303 0.0254686146
-0.0289637520 0.0285735981 0.0015992361
-0.0288907862 0.0295192692 0.0028055109
-0.0283455005 0.0292422016 0.0069132441
-0.0281176519 0.0285501286 0.0080674278
-0.0280346357 0.0319375870 0.0083338365
-0.0264895471 0.0281405575 0.0126742881
-0.0254337367 0.0279643643 0.0148814046
-0.0239315849 0.0269249884 0.0173662682
-0.0237290833 0.0278371282 0.0176493190
-0.0208941159 0.0291270340 0.0210432515
-0.0199101832 0.0300412726 0.0220271835
-0.0190777103 0.0265263730 0.0228265568
-0.0166083385 0.0300094374 0.0247611876
-0.0140746540 0.0273417016 0.0263169102
-0.0133917255 0.0262761370 0.0267165874
-0.0121017635 0.0317310547 0.0272971525
-0.0090933350 0.0307141463 0.0284863526
-0.0052496110 0.0267691526 0.0294671153
-0.0039961314 0.0278608506 0.0296968234
-0.0012517156 0.0300680537 0.0299242865
0.0288958525 0.0289614950 0.0027217538
0.0288267825 0.0265712594 0.0038636225
0.0284225900 0.0297612249 0.0064925810
0.0280748003 0.0290097457 0.0082049435
0.0272331462 0.0261436144 0.0109059098
0.0270796732 0.0274944202 0.0113630820
0.0251409784 0.0293829470 0.0153656862
0.0241578367 0.0262238148 0.0169920019
0.0236023885 0.0280594936 0.0178110329
0.0227520581 0.0265962642 0.0188963987
0.0207053553 0.0262988548 0.0212320120
0.0170874764 0.0312776500 0.0243858068
0.0165167082 0.0285195734 0.0248329755
0.0144447877 0.0280919972 0.0260931569
0.0128463322 0.0316778942 0.0269620492
0.0115204897 0.0273191785 0.0275587628
0.0074544104 0.0307909157 0.0289970635
0.0058109782 0.0319341008 0.0293642413
0.0053765093 0.0278870215 0.0294438604
0.0011763717 0.0319541437 0.0299288441
-0.0210223335 -0.0078571803 -0.0674173519
-0.0217753417 -0.0054805069 -0.0683029217
-0.0224788416 -0.0002958466 -0.0663694771
0.0159551302 -0.0157836018 -0.0665718596
0.0138501345 -0.0176662936 -0.0656630605
0.0111436019 -0.0194856136 -0.0673785452
0.0070658962 -0.0213174673 -0.0667455421
0.0048125337 -0.0219206508 -0.0679263122
0.0011689568 -0.0224163942 -0.0666351825
-0.0031097203 -0.0222775890 -0.0681723958
-0.0054125361 -0.0217901281 -0.0671027745
-0.0076203301 -0.0211106743 -0.0675793542
-0.0107285745 -0.0197122356 -0.0674709919
-0.0143294388 -0.0173074907 -0.0682237217
-0.0161029363 -0.0156357957 -0.0669728104
-0.0192314063 -0.0116354532 -0.0657881837
-0.0213209989 -0.0070564265 -0.0651378755
0.0172315417 -0.0144308946 -0.0650245562
0.0204716555 -0.0093336065 -0.0652916149
0.0216655081 -0.0059854037 -0.0687909185
0.0223336950 -0.0023252569 -0.0680869608
-0.0225000009 0.0001846413 -0.0682649164
-0.0225000009 0.0089374429 -0.0654995235
-0.0225000009 0.0092216437 -0.0671841752
-0.0225000009 0.0098951025 -0.0666177098
-0.0225000009 0.0170017876 -0.0681815778
-0.0225000009 0.0202418697 -0.0687720503
-0.0225000009 0.0222610114 -0.0331787047
-0.0225000009 0.0305449579 -0.0266965786
-0.0225000009 0.0283260714 -0.0312270721
-0.0225000009 0.0228821293 -0.0679649324
-0.0225000009 0.0241634729 -0.0441941595
-0.0225000009 0.0244836313 -0.0558976841
-0.0225000009 0.0215575776 -0.0582051447
-0.0225000009 0.0233893704 -0.0507847179
-0.0225000009 0.0196258662 -0.0654155603
-0.0225000009 0.0234210488 -0.0511659797
-0.0225000009 0.0239850074 -0.0500112759
-0.0225000009 0.0227268901 -0.0444619972
-0.0225000009 0.0197835610 -0.0516354324
-0.0225000009 0.0203383069 -0.0430455380
-0.0225000009 0.0217212665 -0.0444427037
-0.0225000009 0.0200348440 -0.0392158416
-0.0225000009 0.0201730081 -0.0494806840
-0.0225000009 0.0239338457 -0.0375143188
-0.0225000009 0.0259412904 -0.0283780484
-0.0225000009 0.0258550861 -0.0343208708
-0.0225000009 0.0260084107 -0.0344070002
-0.0225000009 0.0243654417 -0.0345688143
0.0225000009 0.0206994135 -0.0337147886
0.0225000009 0.0223113894 -0.0438468569
0.0225000009 0.0205961242 -0.0416150071
0.0225000009 0.0213702344 -0.0363319321
0.0225000009 0.0195930886 -0.0336825271
0.0225000009 0.0211973552 -0.0417746618
0.0225000009 0.0243318144 -0.0454426971
0.0225000009 0.0191687109 -0.0581907723
0.0225000009 0.0210772352 -0.0539448832
0.0225000009 0.0212629136 -0.0532104609
0.0225000009 0.0216375439 -0.0562027943
0.0225000009 0.0199413263 -0.0583915836
0.0225000009 0.0200575770 -0.0518859959
0.0225000009 0.0204490171 -0.0656411723
0.0225000009 0.0220905545 -0.0670803914
0.0225000009 0.0097931434 -0.0669587568
0.0225000009 0.0045959138 -0.0680043095
0.0225000009 0.0210512607 -0.0688486556
0.0225000009 0.0130149501 -0.0651868972
0.0225000009 0.0053426399 -0.0669372600
0.0225000009 0.0000379881 -0.0672379170
0.0225000009 0.0319852138 -0.0300440816
0.0225000009 0.0316586655 -0.0304407149
0.0225000009 0.0264121930 -0.0291886934
0.0225000009 0.0223543929 -0.0326838908
0.0225000009 0.0213897855 -0.0339475206
0.0225000009 0.0292628370 -0.0343797390
0.0225000009 0.0251729752 -0.0295456492
0.0226043138 0.0283575475 -0.0240958704
0.0231413669 0.0294433733 -0.0218976497
-0.0235990361 0.0280962843 -0.0208424615
-0.0227975889 0.0316827886 -0.0230837863
0.0238192349 0.0281281930 -0.0203612064
0.0255109191 0.0296406537 -0.0167862614
0.0259858243 0.0295516110 -0.0155008843
0.0265064160 0.0284926512 -0.0140466310
0.0276239335 0.0296322563 -0.0102506272
0.0279557577 0.0309121609 -0.0089265235
0.0286574004 0.0318730966 -0.0046899496
0.0287569956 0.0303723099 -0.0040188367
0.0289588909 0.0309784213 -0.0002664821
0.0288604360 0.0265418238 -0.0022696937
-0.0289455252 0.0289548487 -0.0005384261
-0.0288910246 0.0270581012 -0.0016473224
-0.0287602020 0.0309752616 -0.0039972307
-0.0283024758 0.0275865648 -0.0070815761
-0.0279125818 0.0305315841 -0.0090988117
-0.0276298912 0.0283864891 -0.0102268537
-0.0260316510 0.0312302439 -0.0153728692
-0.0259559644 0.0280816593 -0.0155842970
-0.0254854315 0.0296055293 -0.0168401230
-0.0236969677 0.0267746517 -0.0206195873
0.0194778943 0.0309066405 -0.0157431335
0.0155585184 0.0316155683 -0.0194130294
0.0178595076 0.0299999993 -0.0150891868
0.0141158588 0.0299999993 -0.0173306704
0.0258545056 0.0302780920 0.0018500741
0.0234899944 0.0307223242 -0.0029956282
0.0243620109 0.0299999993 -0.0016591622
0.0136599075 0.0319266133 0.0161826753
0.0181489187 0.0308862828 0.0191836195
0.0175344082 0.0305802691 0.0137672995
0.0186093678 0.0299999993 0.0182200027
-0.0176713285 0.0304692547 0.0138202234
-0.0183417869 0.0300527601 0.0190716018
-0.0136734555 0.0317919094 0.0160927843
-0.0177311389 0.0299999993 0.0146315202
-0.0233339087 0.0315503993 -0.0029845391
-0.0257811324 0.0315369663 0.0019431934
-0.0213812027 0.0299999993 0.0012634148
-0.0243973959 0.0299999993 -0.0028338611
-0.0156741994 0.0316883607 -0.0194536745
-0.0193730844 0.0318826782 -0.0154448351
-0.0156239493 0.0299999993 -0.0180157574
-0.0186456709 0.0299999993 -0.0179096628
0.0017464991 0.0309256206 -0.0259261035
-0.0029752044 0.0304594200 -0.0232024833
-0.0013548239 0.0299999993 -0.0242650642
0.0199753217 0.0220606767 -0.0290000010
0.0151765465 0.0227949371 -0.0290000010
-0.0174214130 0.0221980461 -0.0290000010
-0.0086461381 0.0226566988 -0.0290000010
0.0216086533 0.0189999994 -0.0491979514
0.0217507420 0.0189999994 -0.0518260960
0.0219799801 0.0189999994 -0.0509187470
-0.0204017138 0.0189999994 -0.0402255949
-0.0174925438 0.0189999994 -0.0496620448
-0.0161479025 0.0189999994 -0.0584460276
-0.0215945129 0.0189999994 -0.0504478828
-0.0196768602 0.0189999994 -0.0586354558
-0.0167192434 0.0189999994 -0.0536454691
-0.0212683173 0.0189999994 -0.0369314350
-0.0174496474 0.0189999994 -0.0637262341
-0.0209388126 0.0189999994 -0.0445304002
-0.0220084012 0.0189999994 -0.0447370943
-0.0194088737 0.0189999994 -0.0643990909
-0.0183680662 0.0189999994 -0.0490415563
-0.0159156947 0.0189999994 -0.0559862536
-0.0111530849 0.0189999994 -0.0623507917
-0.0157829463 0.0189999994 -0.0532277290
-0.0166188666 0.0189999994 -0.0471692891
-0.0103627349 0.0189999994 -0.0626093800
-0.0028226921 0.0189999994 -0.0643642546
-0.0142332197 0.0189999994 -0.0529860860
-0.0072073472 0.0189999994 -0.0598378888
-0.0152191455 0.0189999994 -0.0448397398
-0.0047080288 0.0189999994 -0.0587544515
-0.0106279871 0.0189999994 -0.0543289589
-0.0083534257 0.0189999994 -0.0634546988
-0.0113180888 0.0189999994 -0.0489347065
-0.0101683903 0.0189999994 -0.0521664512
-0.0140154603 0.0189999994 -0.0512376968
-0.0127808019 0.0189999994 -0.0503385911
-0.0041687759 0.0189999994 -0.0361960018
-0.0129336744 0.0189999994 -0.0360347617
-0.0000204054 0.0189999994 -0.0491489509
-0.0153245963 0.0189999994 -0.0353937549
-0.0119950036 0.0189999994 -0.0332666991
0.0052316940 0.0189999994 -0.0556343524
-0.0132821019 0.0189999994 -0.0394943450
-0.0124335762 0.0189999994 -0.0465034882
0.0155022122 0.0189999994 -0.0385732023
-0.0021325467 0.0189999994 -0.0384504168
0.0170761428 0.0189999994 -0.0389711970
0.0088040207 0.0189999994 -0.0432059647
-0.0008140163 0.0189999994 -0.0403369032
-0.0132398113 0.0189999994 -0.0445931427
-0.0062259111 0.0189999994 -0.0494935150
-0.0094870992 0.0189999994 -0.0387087046
-0.0111439460 0.0189999994 -0.0431064928
0.0023626369 0.0189999994 -0.0455878214
0.0053958710 0.0189999994 -0.0470157110
-0.0020959379 0.0189999994 -0.0386612972
0.0084117365 0.0189999994 -0.0325139199
-0.0037399343 0.0189999994 -0.0373375482
0.0205603324 0.0189999994 -0.0344267455
-0.0030569120 0.0189999994 -0.0366524612
0.0021130652 0.0189999994 -0.0369344989
-0.0067597754 0.0189999994 -0.0323147829
-0.0077146596 0.0189999994 -0.0358337583
-0.0068020405 0.0189999994 -0.0477714243
0.0052303851 0.0189999994 -0.0325908755
-0.0146253476 0.0189999994 -0.0428095454
0.0140377136 0.0189999994 -0.0373001127
0.0082518700 0.0189999994 -0.0328985869
0.0058618151 0.0189999994 -0.0426935378
-0.0019422895 0.0189999994 -0.0620840728
-0.0096556884 0.0189999994 -0.0424332388
-0.0055996494 0.0189999994 -0.0513261397
0.0132918253 0.0189999994 -0.0407014008
-0.0009433405 0.0189999994 -0.0583357990
-0.0046592473 0.0189999994 -0.0525707987
0.0001211677 0.0189999994 -0.0333725487
0.0125465529 0.0189999994 -0.0386118888
0.0049265349 0.0189999994 -0.0490495716
-0.0096889343 0.0189999994 -0.0326726405
0.0108408192 0.0189999994 -0.0380981283
0.0140012085 0.0189999994 -0.0371868897
0.0044178438 0.0189999994 -0.0333307974
-0.0037517728 0.0189999994 -0.0497300886
0.0040356004 0.0189999994 -0.0404277751
-0.0084254352 0.0189999994 -0.0486586705
0.0001266783 0.0189999994 -0.0434247838
-0.0013071185 0.0189999994 -0.0588847107
-0.0013506374 0.0189999994 -0.0550215982
0.0024195255 0.0189999994 -0.0499209504
0.0076234755 0.0189999994 -0.0484917501
0.0160918162 0.0189999994 -0.0479533214
0.0078409611 0.0189999994 -0.0646458968
0.0151589453 0.0189999994 -0.0440992604
0.0123457260 0.0189999994 -0.0523335005
0.0201356054 0.0189999994 -0.0366833539
0.0106364166 0.0189999994 -0.0547409218
0.0164450998 0.0189999994 -0.0503338009
0.0119306317 0.0189999994 -0.0589310152
0.0095312861 0.0189999994 -0.0556956349
0.0108107156 0.0189999994 -0.0521059902
0.0135180078 0.0189999994 -0.0564057959
0.0198485100 0.0189999994 -0.0385338562
0.0068172105 0.0189999994 -0.0612150430
0.0071654836 0.0189999994 -0.0604603558
0.0114674219 0.0189999994 -0.0505325815
0.0133935062 0.0189999994 -0.0615859596
0.0185368391 0.0189999994 -0.0481362122
0.0169133342 0.0189999994 -0.0577237202
0.0149286080 0.0189999994 -0.0588714325
0.0187569922 0.0189999994 -0.0513396253
0.0159160261 0.0189999994 -0.0580379287
0.0173757701 0.0189999994 -0.0488645837
0.0132792032 0.0189999994 -0.0619321164
0.0170829431 0.0189999994 -0.0518174455
0.0221915836 0.0259683405 -0.0263618719
-0.0006482065 0.0259666773 -0.0263808829
-0.0101273107 0.0259484920 -0.0265430800
0.0139561722 0.0256733631 -0.0273385462
-0.0160469770 0.0257596061 -0.0271535972
0.0042238190 0.0255178201 -0.0276146175
-0.0054492997 0.0254717035 -0.0276804787
-0.0173074009 0.0252965132 -0.0279299820
0.0043173459 0.0249736598 -0.0282528370
0.0192169326 0.0247553296 -0.0284192926
0.0138878008 0.0242230944 -0.0287271995
0.0011162933 0.0240820526 -0.0287929688
0.0036557666 0.0237757257 -0.0288861546
0.0150510757 0.0235769674 -0.0289394111
0.0203581192 0.0231452079 -0.0289872964
0.0015131972 0.0232323338 -0.0289796735
0.0065546306 0.0215978301 -0.0290351851
-0.0061905785 0.0211719642 -0.0291278622
0.0218611719 0.0213324079 -0.0290848708
0.0140825541 0.0209261608 -0.0292032028
-0.0010534976 0.0205130632 -0.0293958315
0.0075584034 0.0203622222 -0.0294983967
-0.0077401777 0.0198689680 -0.0299045359
0.0004244704 0.0197663627 -0.0300071407
-0.0221024305 0.0195065038 -0.0303506451
-0.0158161024 0.0194408187 -0.0304444536
-0.0126222711 0.0192388874 -0.0308496326
0.0059033364 0.0192932027 -0.0307331538
-0.0189927138 0.0190629491 -0.0314142178
-0.0049202832 0.0190268094 -0.0316935596
-0.0164642125 0.0190019640 -0.0319775422
-0.0218927564 0.0250000004 -0.0527518070
-0.0221105869 0.0250000004 -0.0662311544
0.0022922574 0.0250000004 -0.0593117343
0.0027810028 0.0250000004 -0.0581877624
0.0160146471 0.0250000004 -0.0706242283
-0.0035249139 0.0250000004 -0.0561057298
-0.0031250396 0.0250000004 -0.0601967651
-0.0172603472 0.0250000004 -0.0664887662
-0.0181774133 0.0250000004 -0.0523355442
-0.0208649900 0.0250000004 -0.0643249345
-0.0154651657 0.0250000004 -0.0560688343
0.0076173742 0.0250000004 -0.0691293290
-0.0171967677 0.0250000004 -0.0673174148
-0.0191755517 0.0250000004 -0.0463064195
-0.0096487266 0.0250000004 -0.0547130350
-0.0129352356 0.0250000004 -0.0492799178
-0.0195853165 0.0250000004 -0.0606445325
-0.0049065682 0.0250000004 -0.0608346440
-0.0103572931 0.0250000004 -0.0640663587
-0.0130936380 0.0250000004 -0.0500247595
-0.0170987056 0.0250000004 -0.0704379432
-0.0074200371 0.0250000004 -0.0521367871
0.0119997148 0.0250000004 -0.0654635925
-0.0071358331 0.0250000004 -0.0635300557
-0.0185768086 0.0250000004 -0.0524733893
0.0015145064 0.0250000004 -0.0676864723
-0.0030250560 0.0250000004 -0.0616534619
-0.0171648664 0.0250000004 -0.0546837560
-0.0040963328 0.0250000004 -0.0598324069
-0.0220621459 0.0250000004 -0.0390339605
0.0153342766 0.0250000004 -0.0686809108
-0.0205176037 0.0250000004 -0.0555517744
-0.0156482732 0.0250000004 -0.0457334780
-0.0094830799 0.0250000004 -0.0596322189
-0.0111843926 0.0250000004 -0.0602113418
-0.0090159541 0.0250000004 -0.0622591089
-0.0158166672 0.0250000004 -0.0682998219
-0.0048654358 0.0250000004 -0.0706955191
-0.0218333736 0.0250000004 -0.0446945625
-0.0186027791 0.0250000004 -0.0662366353
-0.0187804539 0.0250000004 -0.0448180531
-0.0028288039 0.0250000004 -0.0589592303
-0.0167832008 0.0250000004 -0.0530632377
-0.0168765282 0.0250000004 -0.0680892364
-0.0214751117 0.0250000004 -0.0476797567
-0.0096470567 0.0250000004 -0.0541063098
-0.0081921428 0.0250000004 -0.0586162268
-0.0039889412 0.0250000004 -0.0573910230
-0.0165767295 0.0250000004 -0.0548700542
-0.0191645089 0.0250000004 -0.0665858033
-0.0133241627 0.0250000004 -0.0516952443
0.0110661687 0.0250000004 -0.0693033178
0.0163578804 0.0250000004 -0.0542846789
0.0002339835 0.0250000004 -0.0442688091
-0.0050615099 0.0250000004 -0.0432657118
0.0068332303 0.0250000004 -0.0529438744
0.0086876496 0.0250000004 -0.0495195274
0.0177116992 0.0250000004 -0.0505671260
0.0190090208 0.0250000004 -0.0447460402
0.0212928685 0.0250000004 -0.0510281847
0.0133910071 0.0250000004 -0.0431680753
0.0178872999 0.0250000004 -0.0459095679
0.0180253966 0.0250000004 -0.0606734709
0.0163369169 0.0250000004 -0.0443517739
-0.0002039879 0.0250000004 -0.0400572004
0.0142497708 0.0250000004 -0.0386262085
-0.0190464702 0.0250000004 -0.0402357984
-0.0102019375 0.0250000004 -0.0388776835
0.0026751033 0.0250000004 -0.0448021389
0.0073171614 0.0250000004 -0.0451883553
0.0045334897 0.0250000004 -0.0420183900
0.0082503764 0.0250000004 -0.0463064439
0.0147782806 0.0250000004 -0.0555775439
0.0191865881 0.0250000004 -0.0382807067
0.0209817472 0.0250000004 -0.0550038864
0.0209549483 0.0250000004 -0.0409328847
-0.0012614951 0.0250000004 -0.0384200726
-0.0040539079 0.0250000004 -0.0448762639
0.0100757183 0.0250000004 -0.0559265659
0.0181808341 0.0250000004 -0.0544795061
0.0132490868 0.0250000004 -0.0630208310
0.0042457574 0.0250000004 -0.0570909123
0.0172626931 0.0250000004 -0.0474379400
-0.0000031564 0.0250000004 -0.0492171839
0.0190448499 0.0250000004 -0.0400053442
0.0109811022 0.0250000004 -0.0475305577
0.0136463820 0.0250000004 -0.0628163579
0.0078575645 0.0250000004 -0.0504012906
0.0144480261 0.0250000004 -0.0405997015
0.0169394513 0.0250000004 -0.0677369172
0.0082423608 0.0250000004 -0.0507335673
-0.0079386061 0.0250000004 -0.0452898613
0.0180676604 0.0250000004 -0.0434634649
0.0116526855 0.0250000004 -0.0553913926
0.0065576937 0.0250000004 -0.0381693129
0.0179962221 0.0250000004 -0.0609226206
-0.0065518200 0.0250000004 -0.0474824654
0.0140301228 0.0250000004 -0.0473145282
0.0112697685 0.0250000004 -0.0597054220
0.0101138609 0.0250000004 -0.0615274290
0.0129793794 0.0250000004 -0.0634389543
0.0155220368 0.0250000004 -0.0487590695
0.0067805155 0.0250000004 -0.0436617170
-0.0014848734 0.0250000004 -0.0382219481
-0.0061433440 0.0250000004 -0.0394311426
0.0040933326 0.0250000004 -0.0494491755
0.0196830794 0.0250000004 -0.0455061482
0.0222524592 0.0250000004 -0.0647369874
0.0222800068 0.0250000004 -0.0678929199
0.0101147250 0.0289372742 -0.0350000001
0.0212920869 0.0282069191 -0.0350000001
-0.0031307247 0.0283684553 -0.0350000001
-0.0080443412 0.0319954648 -0.0320518506
-0.0074720823 0.0319847213 -0.0321746433
0.0198956286 0.0319344235 -0.0325955812
0.0071889590 0.0318598913 -0.0328737428
0.0180475477 0.0316685175 -0.0333489363
-0.0108814716 0.0316189821 -0.0334551645
0.0066594882 0.0313214777 -0.0338950230
0.0009965275 0.0312899962 -0.0339364991
0.0082804281 0.0309336733 -0.0342928220
-0.0010399586 0.0309144193 -0.0343078960
-0.0168534784 0.0306475242 -0.0344947777
0.0029396346 0.0302909153 -0.0346955731
-0.0199869103 0.0300830703 -0.0347924931
-0.0130371687 0.0297700834 -0.0348876654
0.0208834170 0.0294029972 -0.0349647407
-0.0122626966 0.0293296556 -0.0349711576
0.0117458823 0.0250325959 -0.0376274330
0.0137883820 0.0250435769 -0.0375019208
0.0124067663 0.0251061973 -0.0372528179
0.0055444396 0.0252839339 -0.0367530300
-0.0150602652 0.0253346525 -0.0366442634
-0.0107850226 0.0254276480 -0.0364632615
-0.0166639001 0.0255689847 -0.0362614118
0.0090393444 0.0257519213 -0.0360215817
-0.0129482796 0.0260611249 -0.0357123765
0.0204565546 0.0262379593 -0.0355854041
0.0043137670 0.0266896155 -0.0353135033
-0.0048796525 0.0267299680 -0.0352946868
0.0089161828 0.0269969109 -0.0351747671
0.0010065334 0.0274435026 -0.0350551020
0.0081630384 0.0275709989 -0.0350375317
-0.0209419692 0.0277386364 -0.0350228657
0.0222364323 0.0159422100 -0.0692635674
0.0221475300 0.0050431891 -0.0693524698
0.0218713329 0.0214070268 -0.0696286674
0.0209580815 0.0162513312 -0.0705419205
0.0212928809 0.0227130893 -0.0702071205
0.0211028327 -0.0044092859 -0.0698871050
0.0192221476 -0.0077190539 -0.0707393875
0.0173375369 -0.0139220758 -0.0692206309
0.0140372773 -0.0154478035 -0.0705976438
0.0101685814 -0.0197521579 -0.0692339317
0.0070831740 -0.0202518412 -0.0699949354
0.0000439012 -0.0219618571 -0.0695350014
-0.0035166576 -0.0221824197 -0.0690197205
-0.0088633993 -0.0200445508 -0.0695659377
-0.0122308711 -0.0186580809 -0.0691768715
-0.0161685491 -0.0142766119 -0.0699170291
-0.0198140166 -0.0103826579 -0.0690766421
-0.0199787115 -0.0067219573 -0.0703780529
-0.0217086831 -0.0007806208 -0.0697354863
-0.0218460715 0.0036614331 -0.0696539289
-0.0222158543 0.0014398120 -0.0692841454
-0.0224538697 0.0042147089 -0.0690461295
-0.0212886026 0.0158333781 -0.0702113989
-0.0212741208 0.0208777493 -0.0702258806
