0.0041214456 -0.0222249096 -0.0913499966
0.0017487138 -0.0204286877 -0.0909255460
-0.0143090870 0.0232296667 -0.0201239745
0.0274767653 0.0010127933 -0.0211411763
0.0013898589 -0.0151621562 -0.0883499980
0.0026229158 -0.0303314735 -0.0883499980
0.0069126573 -0.0279619760 -0.0883499980
-0.0090358372 -0.0207846269 -0.0883499980
-0.0118490134 -0.0224915707 -0.0883499980
-0.0097013925 -0.0184358174 -0.0883499980
0.0268971978 -0.0161728434 -0.0883499980
0.0249792298 -0.0156883795 -0.0883499980
0.0069410667 -0.0250101698 -0.0883499980
0.0203327787 -0.0242604765 -0.0883499980
0.0215914373 -0.0230080716 -0.0883499980
0.0252573015 -0.0198409745 -0.0883499980
-0.0019919113 -0.0293393687 -0.0883499980
-0.0069974750 -0.0287686888 -0.0883499980
0.0171864434 -0.0180648012 -0.0883499980
0.0204741860 -0.0089532977 -0.0883499980
0.0236067497 -0.0139632163 -0.0883499980
0.0125487690 -0.0187467317 -0.0883499980
0.0143073510 -0.0090917629 -0.0883499980
0.0175829878 -0.0150743334 -0.0883499980
-0.0042547110 -0.0141798473 -0.0883499980
-0.0335175551 -0.0010285904 -0.0211994825
-0.0281341758 0.0161699541 -0.0192545671
-0.0245928618 0.0154436047 -0.0211324828
-0.0167798280 0.0268470201 -0.0210575567
-0.0000875977 -0.0298324969 -0.0192698511
-0.0009300491 -0.0306340338 -0.0213303163
-0.0159692334 -0.0300922428 -0.0207427454
-0.0241934985 -0.0134785794 -0.0193371056
-0.0299419840 -0.0163754721 -0.0214683395
0.0178097652 -0.0283601056 -0.0205818748
0.0270491888 -0.0162525336 -0.0193817516
0.0292672207 -0.0173600182 -0.0216751856
0.0339210989 0.0012291393 -0.0202832647
0.0243312325 0.0130107587 -0.0196366964
0.0291205659 0.0163185077 -0.0216654096
0.0162369752 0.0304845401 -0.0200948017
0.0009617167 0.0334707825 -0.0197169483
0.0001060136 0.0280241787 -0.0217408922
0.0292726327 -0.0119949864 -0.0774576885
0.0270464390 -0.0109568952 -0.0873612058
0.0302828870 -0.0124660757 -0.0873437226
0.0170468008 -0.0062939873 -0.0775758616
0.0219096074 -0.0085615513 -0.0798264337
0.0180690260 -0.0067706587 -0.0836679052
0.0310563187 -0.0138032045 -0.0819395506
0.0296784644 -0.0165043330 -0.0855885556
0.0280736645 -0.0190817824 -0.0845908926
0.0261991836 -0.0215914930 -0.0776111298
0.0228232843 -0.0251294203 -0.0766595735
0.0196897623 -0.0276557879 -0.0766888608
0.0196018467 -0.0277205610 -0.0881726243
0.0174207903 -0.0291397103 -0.0873691870
0.0136512450 -0.0310794886 -0.0804246058
0.0110460396 -0.0321246144 -0.0821775143
0.0056950649 -0.0334646493 -0.0762154314
0.0047999700 -0.0336252362 -0.0836677453
0.0022193702 -0.0338718847 -0.0847617476
-0.0012467423 -0.0339250852 -0.0786349460
-0.0055601020 -0.0334859772 -0.0798820737
-0.0082798187 -0.0329389751 -0.0817223958
-0.0107440196 -0.0322305499 -0.0870507135
-0.0123969756 -0.0316073505 -0.0847549532
-0.0095693280 -0.0169721890 -0.0842949900
-0.0075282923 -0.0125951738 -0.0861556507
-0.0109342267 -0.0198992237 -0.0868018025
-0.0104231166 -0.0188031446 -0.0801902993
-0.0152416131 -0.0291364435 -0.0850616089
-0.0132147726 -0.0247898701 -0.0809964341
-0.0072356728 -0.0121777563 -0.0844530085
-0.0043150550 -0.0127720429 -0.0798900298
-0.0018433005 -0.0133672667 -0.0770447351
0.0011779469 -0.0134045992 -0.0795449115
0.0061509502 -0.0119805147 -0.0868776915
0.0074472765 -0.0112061919 -0.0804286811
0.0100565795 -0.0090055397 -0.0860989623
0.0116778243 -0.0067006510 -0.0839741508
-0.0092602097 0.0337454016 -0.0302701615
-0.0091316136 0.0337849629 -0.0246080185
-0.0349631145 -0.0013603389 -0.0305173382
-0.0347770540 -0.0034185631 -0.0598095626
-0.0348164563 -0.0029742433 -0.0629355795
-0.0349909563 -0.0007862243 -0.0254341423
-0.0349212816 0.0013656890 -0.0713642640
-0.0349264174 0.0015790458 -0.0553345522
-0.0349215284 0.0014696196 -0.0669268987
-0.0349574838 0.0014272594 -0.0374295998
-0.0308976980 0.0164163074 -0.0303774558
-0.0309365052 0.0162604773 -0.0669930661
-0.0301932345 0.0176705544 -0.0634245365
-0.0302037505 0.0176703918 -0.0522330759
-0.0297140587 0.0184543711 -0.0564884501
-0.0293355300 0.0190060313 -0.0650386378
-0.0284493864 0.0202964140 -0.0749103277
-0.0296904593 0.0185066104 -0.0251874220
-0.0140604473 -0.0320086010 -0.0693406387
-0.0166330673 -0.0307799776 -0.0747876282
-0.0160004415 -0.0310869720 -0.0563174663
-0.0192946369 -0.0291503565 -0.0631432574
-0.0185414281 -0.0296225038 -0.0638716145
-0.0188428880 -0.0294333701 -0.0639318029
-0.0184579414 -0.0297009821 -0.0388188339
-0.0164469694 -0.0308638701 -0.0189974608
-0.0297066664 -0.0184037438 -0.0729206356
-0.0304955701 -0.0171453368 -0.0577028411
-0.0297393034 -0.0183729195 -0.0611350935
-0.0302305460 -0.0176382403 -0.0218642572
-0.0318252415 -0.0144288342 -0.0718940293
-0.0314831016 -0.0151657669 -0.0513803975
-0.0317758023 -0.0145353139 -0.0679360924
0.0080043731 -0.0340488705 -0.0477389472
0.0077178660 -0.0341144896 -0.0429551314
-0.0173128668 0.0303759408 -0.0384765764
-0.0166657035 0.0307602918 -0.0372552558
-0.0110295753 0.0332010747 -0.0542385491
-0.0101173159 0.0334817218 -0.0219022143
-0.0136818010 0.0321537203 -0.0679959156
-0.0118529690 0.0329112497 -0.0480462082
-0.0129575009 0.0324537362 -0.0665204472
-0.0149231648 0.0316395289 -0.0600073656
-0.0130223349 0.0324268810 -0.0379715593
-0.0146737566 0.0317428375 -0.0656086692
-0.0153323026 0.0314607366 -0.0635855316
-0.0287778113 0.0198356989 -0.0398215011
-0.0279595519 0.0210138567 -0.0199002442
-0.0287966949 0.0198085097 -0.0269864710
-0.0275180077 0.0216092730 -0.0274453536
-0.0276371816 0.0214726614 -0.0320202875
-0.0252756530 0.0241797308 -0.0221501558
-0.0254336869 0.0239985733 -0.0355021909
-0.0257593122 0.0236253022 -0.0582809454
-0.0253047134 0.0241464183 -0.0553955620
-0.0243725780 0.0250650815 -0.0484271799
-0.0236311461 0.0257397333 -0.0206886479
-0.0237808940 0.0256034732 -0.0260913986
-0.0237568589 0.0256253434 -0.0263365706
-0.0222676391 0.0269804307 -0.0323167106
-0.0223856735 0.0268730276 -0.0746644347
-0.0222389913 0.0270064983 -0.0639700624
-0.0195788507 0.0289587188 -0.0174432115
-0.0219701098 0.0272404258 -0.0722461389
-0.0211284279 0.0278452352 -0.0381988987
-0.0202403736 0.0284833666 -0.0567169488
-0.0208895661 0.0280168747 -0.0756044553
-0.0199408721 0.0286985802 -0.0598026351
-0.0171024582 0.0304723971 -0.0691433086
-0.0178650336 0.0300519427 -0.0532316329
-0.0179989282 0.0299778394 -0.0515511383
-0.0348895889 0.0027184154 -0.0655856073
-0.0345686859 0.0050968163 -0.0423487698
-0.0348414806 0.0031800656 -0.0690319008
-0.0346006156 0.0048724672 -0.0434385173
-0.0345930183 0.0049258484 -0.0664718020
-0.0343661338 0.0065200186 -0.0458391670
-0.0343848578 0.0063884573 -0.0672810586
-0.0342487118 0.0071496854 -0.0396762244
-0.0340031670 0.0080856456 -0.0461399600
-0.0339651004 0.0082307467 -0.0352738750
-0.0339462730 0.0083025126 -0.0360489140
-0.0336296810 0.0095092887 -0.0702194998
-0.0336363084 0.0094840264 -0.0692750734
-0.0335797417 0.0096996458 -0.0375298540
-0.0330413028 0.0114457182 -0.0280667248
-0.0323689729 0.0131701543 -0.0216919390
-0.0332437922 0.0109263600 -0.0510821982
-0.0331429063 0.0111851189 -0.0753730994
-0.0327522402 0.0121871251 -0.0712406119
-0.0318790972 0.0144266199 -0.0598365641
-0.0315238888 0.0151760270 -0.0358483620
-0.0324415754 -0.0131016544 -0.0443119438
-0.0319497361 -0.0141640122 -0.0250180290
-0.0320254995 -0.0140003657 -0.0500994305
-0.0326930569 -0.0124281391 -0.0319894223
-0.0328538121 -0.0119420609 -0.0536243411
-0.0328447638 -0.0119694203 -0.0326752097
-0.0326197325 -0.0126498516 -0.0533779877
-0.0329973287 -0.0115081071 -0.0670627869
-0.0329264814 -0.0117223293 -0.0743968810
-0.0329066231 -0.0117823752 -0.0726074612
-0.0338789269 -0.0087132951 -0.0207433894
-0.0340598758 -0.0078395221 -0.0374776575
-0.0342532009 -0.0069059856 -0.0310593030
-0.0339418429 -0.0084094840 -0.0733926537
-0.0345230124 -0.0056031090 -0.0248345244
-0.0342611003 -0.0068678409 -0.0508695313
-0.0348651904 -0.0024501140 -0.0367890803
-0.0346504178 -0.0048264508 -0.0322200067
-0.0348665324 -0.0024352648 -0.0321464216
-0.0191638788 -0.0292672954 -0.0427306476
-0.0203614435 -0.0284600904 -0.0587985817
-0.0226511113 -0.0266257200 -0.0290362994
-0.0216365022 -0.0274385754 -0.0188964572
-0.0222659795 -0.0269342689 -0.0256699785
-0.0220172195 -0.0271335633 -0.0472255613
-0.0223699921 -0.0268509390 -0.0520916867
-0.0225682286 -0.0266921216 -0.0693461233
-0.0248315341 -0.0245832419 -0.0327938456
-0.0236374213 -0.0257899239 -0.0299505997
-0.0234676907 -0.0259614411 -0.0581017294
-0.0242533247 -0.0251675375 -0.0627606223
-0.0260165125 -0.0233857904 -0.0501799630
-0.0254497709 -0.0239584976 -0.0612014580
-0.0263134565 -0.0230699458 -0.0324601222
-0.0277141645 -0.0212835565 -0.0310610608
-0.0270027262 -0.0221908876 -0.0398109845
-0.0287172928 -0.0200042195 -0.0318454462
-0.0277750769 -0.0212058721 -0.0415508357
-0.0276383722 -0.0213802181 -0.0704648383
-0.0292750733 -0.0191643650 -0.0250653073
-0.0144978939 -0.0318081566 -0.0431321274
-0.0135629527 -0.0322466861 -0.0665169564
-0.0137853021 -0.0321423942 -0.0478826612
-0.0104110793 -0.0333686938 -0.0639756687
-0.0114711868 -0.0330057379 -0.0715212370
-0.0111733383 -0.0331077142 -0.0555913376
-0.0099489527 -0.0335269150 -0.0450258620
-0.0094719372 -0.0336902339 -0.0539846597
-0.0108208049 -0.0332284134 -0.0267209130
-0.0069393373 -0.0342498593 -0.0565380735
-0.0086499083 -0.0338768939 -0.0469237306
-0.0064633556 -0.0343536403 -0.0662620516
-0.0080423721 -0.0340093584 -0.0325697455
-0.0075312218 -0.0341208074 -0.0313899118
-0.0056948710 -0.0345211973 -0.0527585999
-0.0031938092 -0.0347968062 -0.0536198216
-0.0046214864 -0.0346543048 -0.0369046644
-0.0049283465 -0.0346236760 -0.0385018360
-0.0031914997 -0.0347970367 -0.0277495129
-0.0018989703 -0.0349260486 -0.0431048598
-0.0032928773 -0.0347869179 -0.0206620483
-0.0030967888 -0.0348064902 -0.0261558191
0.0007113871 -0.0349695642 -0.0436639188
0.0002672689 -0.0349626817 -0.0566672120
0.0012977000 -0.0349592520 -0.0446970247
-0.0004129053 -0.0349964200 -0.0244506104
0.0017020567 -0.0349427264 -0.0179428166
0.0071030572 -0.0342553001 -0.0608596666
0.0073860365 -0.0341904890 -0.0640044646
0.0063125414 -0.0344124164 -0.0397101472
0.0062747785 -0.0344173880 -0.0181843103
0.0060146700 -0.0344516315 -0.0678033274
0.0050189548 -0.0345827186 -0.0591470519
0.0047036596 -0.0346242276 -0.0644934634
0.0026120698 -0.0348995878 -0.0336307503
0.0025301698 -0.0349078100 -0.0179797986
0.0106958039 -0.0333037560 -0.0725992795
0.0102149480 -0.0334516863 -0.0480954989
0.0316070873 -0.0149941714 -0.0671552353
0.0307508808 -0.0165970113 -0.0749752941
0.0310705643 -0.0159952950 -0.0738039840
0.0301857681 -0.0177076458 -0.0494421599
0.0291135259 -0.0193281974 -0.0569253367
0.0291936732 -0.0192119143 -0.0600864793
0.0279600757 -0.0210078846 -0.0703299948
0.0347921789 0.0032755691 -0.0186487881
0.0347892904 0.0032768695 -0.0648774815
0.0349620672 0.0013473364 -0.0578380052
0.0349856470 0.0009962510 -0.0323849714
0.0349914519 0.0005146942 -0.0400728214
0.0349618284 -0.0003607034 -0.0500900997
0.0349807415 0.0001911918 -0.0434204169
0.0349254100 -0.0019673641 -0.0537560875
0.0298002710 0.0183459232 -0.0193105042
0.0299415509 0.0180919821 -0.0353407301
0.0296917101 0.0184479426 -0.0625230160
0.0301506638 0.0177271141 -0.0477525678
0.0305626666 0.0170531997 -0.0334620450
0.0322401363 0.0135349853 -0.0670049247
0.0319279785 0.0142074121 -0.0585295834
0.0316169068 0.0148776009 -0.0645235291
0.0159744690 0.0311059292 -0.0331967139
0.0166115411 0.0307967244 -0.0519823823
0.0167046397 0.0307550468 -0.0423801852
0.0169900092 0.0305994738 -0.0271471300
0.0186869594 0.0295361725 -0.0532478956
0.0197322115 0.0288727261 -0.0698687852
0.0177763314 0.0301054359 -0.0574732349
0.0188865452 0.0294501388 -0.0355459368
-0.0082237900 0.0339986172 -0.0396607842
-0.0084668356 0.0339429521 -0.0554836559
0.0177078281 -0.0301864595 -0.0229506620
0.0156792391 -0.0312837955 -0.0572931289
0.0104379069 -0.0333830954 -0.0420088520
0.0108978791 -0.0332415897 -0.0211448669
0.0132057391 -0.0323509122 -0.0619372002
0.0125654110 -0.0326161457 -0.0457859236
0.0119875433 -0.0328555070 -0.0395338399
0.0144546723 -0.0318335855 -0.0468035785
0.0150635542 -0.0315813776 -0.0238424608
0.0139632745 -0.0320371298 -0.0357530139
0.0153905556 -0.0314311343 -0.0506534329
0.0283718144 -0.0204202671 -0.0257052435
0.0279799338 -0.0209845103 -0.0437343205
0.0285677780 -0.0201381121 -0.0188979777
0.0263266340 -0.0229749695 -0.0304016268
0.0274702859 -0.0216639775 -0.0717496956
0.0270227458 -0.0221770020 -0.0279279926
0.0264697316 -0.0228109336 -0.0740378193
0.0261823731 -0.0231403387 -0.0564195125
0.0255478379 -0.0238677197 -0.0708668618
0.0231870064 -0.0261438699 -0.0371940360
0.0240163456 -0.0253892284 -0.0306013996
0.0241930866 -0.0252284063 -0.0305745859
0.0225907857 -0.0266863896 -0.0593722000
0.0223049145 -0.0269465127 -0.0440583345
0.0244289053 -0.0250138276 -0.0758242571
0.0199722541 -0.0286760299 -0.0365033507
0.0213107870 -0.0277141970 -0.0276329137
0.0196744395 -0.0288900313 -0.0316885102
0.0209238611 -0.0279922313 -0.0615350283
0.0210888475 -0.0278736766 -0.0720328414
0.0215443036 -0.0275463984 -0.0685035884
0.0171757779 -0.0304307832 -0.0723536095
0.0180624574 -0.0299396846 -0.0627005662
0.0175378706 -0.0302316305 -0.0628394031
0.0348805842 -0.0028719183 -0.0708412508
0.0349568110 -0.0015724826 -0.0280991574
0.0344585434 -0.0058707166 -0.0202832227
0.0346774896 -0.0043323236 -0.0488642374
0.0346553753 -0.0044877069 -0.0503460101
0.0348235954 -0.0033057331 -0.0709273035
0.0344304916 -0.0060678179 -0.0473291501
0.0347008228 -0.0041683769 -0.0757237648
0.0340470001 -0.0079185639 -0.0201340938
0.0339720445 -0.0082042774 -0.0354146001
0.0336042939 -0.0096060582 -0.0339321138
0.0339862113 -0.0081502770 -0.0580860530
0.0335983432 -0.0096287410 -0.0537702443
0.0338135324 -0.0088084894 -0.0490674051
0.0328456597 -0.0119475165 -0.0552369920
0.0329340518 -0.0117208025 -0.0387006403
0.0332056660 -0.0110241485 -0.0672541287
0.0320964028 -0.0138692601 -0.0580208799
0.0318876238 -0.0144047504 -0.0574873246
0.0324537101 -0.0129528149 -0.0530334178
0.0311786845 -0.0158750277 -0.0246879563
0.0314787188 -0.0152674914 -0.0460772393
0.0321252660 0.0137848729 -0.0356583333
0.0320906924 0.0138595510 -0.0217337681
0.0322359022 0.0135459022 -0.0191522786
0.0333560369 0.0104234744 -0.0203618003
0.0325436190 0.0128799973 -0.0202984258
0.0337159764 0.0093351188 -0.0188820619
0.0336712245 0.0094704360 -0.0755826882
0.0332962621 0.0106042166 -0.0706669617
0.0336528956 0.0095258574 -0.0615247319
0.0340072994 0.0080934049 -0.0290434549
0.0339718600 0.0082645361 -0.0327534000
0.0338093044 0.0090494912 -0.0705000334
0.0341177889 0.0075598687 -0.0651027914
0.0341929776 0.0071967943 -0.0584465156
0.0339992237 0.0081324014 -0.0747700592
0.0349247238 0.0017914104 -0.0238045342
0.0347706640 0.0034959948 -0.0436045844
0.0346946361 0.0043372001 -0.0382211709
0.0189212630 0.0294284238 -0.0266298175
0.0195805071 0.0289906001 -0.0244490273
0.0204527887 0.0283869090 -0.0410847945
0.0222342712 0.0269596720 -0.0209336035
0.0215422897 0.0275140539 -0.0500992017
0.0226691363 0.0266112792 -0.0515585758
0.0227952422 0.0265102493 -0.0407253570
0.0226093213 0.0266592001 -0.0379786836
0.0240719977 0.0253507732 -0.0495803799
0.0241734484 0.0252482546 -0.0575778788
0.0238350471 0.0255902179 -0.0388935561
0.0255882072 0.0238186041 -0.0645714363
0.0256314076 0.0237749490 -0.0566167240
0.0245885319 0.0248288019 -0.0683681039
0.0277494009 0.0212386179 -0.0176883614
0.0273975468 0.0216873542 -0.0421904271
0.0271981630 0.0219416378 -0.0220427641
0.0278567711 0.0211016836 -0.0735891701
0.0283668110 0.0204512055 -0.0275106076
0.0278765834 0.0210764160 -0.0411094304
0.0292695356 0.0191727578 -0.0196825034
0.0290122305 0.0195627255 -0.0297160939
0.0138165376 0.0321277434 -0.0383539232
0.0136124684 0.0322234610 -0.0226542644
0.0144035491 0.0318524086 -0.0223440412
0.0125577673 0.0326337184 -0.0320516469
0.0122369345 0.0327435639 -0.0453611488
0.0107220211 0.0332622346 -0.0688742183
0.0099864297 0.0335140838 -0.0429137754
0.0115452144 0.0329803926 -0.0376460050
0.0104347995 0.0333605725 -0.0412716153
0.0082427583 0.0339656671 -0.0752575253
0.0086080086 0.0338860295 -0.0335799334
0.0063711884 0.0343737360 -0.0752704998
0.0074553677 0.0341373463 -0.0452529915
0.0069007724 0.0342582678 -0.0216010138
0.0068245601 0.0342748848 -0.0447620487
0.0024806038 0.0348679937 -0.0740594918
0.0054668156 0.0345699295 -0.0631177172
0.0028675863 0.0348293676 -0.0739435577
0.0035755596 0.0347587024 -0.0442610616
0.0051287021 0.0346036778 -0.0173701550
0.0021370160 0.0349022884 -0.0314834233
-0.0010127523 0.0349750624 -0.0340113957
-0.0003656883 0.0349561596 -0.0613355373
-0.0002852964 0.0349711616 -0.0484456367
-0.0000014008 0.0349928379 -0.0316078844
0.0013281609 0.0349741236 -0.0600321217
-0.0083454318 0.0339707574 -0.0645894275
-0.0071037302 0.0342551459 -0.0468282246
-0.0042498888 0.0346839670 -0.0257208099
-0.0063029831 0.0344136748 -0.0535574074
-0.0062902866 0.0344153463 -0.0610233558
-0.0042004213 0.0346904795 -0.0442502172
-0.0034580817 0.0347882094 -0.0629223992
-0.0049742751 0.0345886007 -0.0606098097
-0.0018162580 0.0349466932 -0.0277196390
0.0168822332 0.0023941913 -0.0759999976
0.0093235505 0.0011128966 -0.0759999976
0.0086499595 0.0003740425 -0.0759999976
0.0288831579 0.0112414225 -0.0759999976
0.0241060374 0.0069522920 -0.0759999976
0.0288009713 0.0058581223 -0.0759999976
-0.0010617351 0.0068260713 -0.0759999976
-0.0037902970 0.0273233103 -0.0759999976
-0.0013273733 0.0208788590 -0.0759999976
-0.0276160276 0.0207761309 -0.0759999976
-0.0065463270 0.0051030332 -0.0759999976
-0.0026737255 0.0097686267 -0.0759999976
-0.0072481382 0.0316942838 -0.0759999976
-0.0148263727 0.0040861059 -0.0759999976
-0.0186895202 0.0051822633 -0.0759999976
-0.0282770898 0.0096584760 -0.0759999976
-0.0236582567 0.0095760549 -0.0759999976
-0.0178601835 0.0086420673 -0.0759999976
-0.0250914839 0.0141828725 -0.0759999976
0.0182662980 0.0135576803 -0.0759999976
0.0075856317 0.0046978591 -0.0759999976
0.0159766586 0.0088301765 -0.0759999976
0.0181553997 0.0088942154 -0.0759999976
0.0306290806 0.0162123135 -0.0759999976
0.0095761922 0.0149550027 -0.0759999976
0.0118442660 0.0199147971 -0.0759999976
0.0190654924 0.0227588903 -0.0759999976
0.0226745013 0.0258926436 -0.0759999976
0.0244208309 0.0249427520 -0.0759999976
-0.0017807028 0.0328102494 -0.0759999976
0.0001464824 0.0312500430 -0.0759999976
0.0012347681 0.0133222485 -0.0759999976
0.0043840170 0.0336300585 -0.0759999976
0.0055229558 0.0207883647 -0.0759999976
0.0051457759 0.0174015774 -0.0759999976
0.0068938824 0.0189351675 -0.0759999976
0.0080905989 0.0160164433 -0.0759999976
0.0151824198 0.0303905948 -0.0759999976
-0.0223433266 0.0210531251 -0.0759999976
-0.0207780374 0.0227785548 -0.0759999976
-0.0092929835 0.0097900201 -0.0759999976
-0.0175727621 0.0249300867 -0.0759999976
-0.0115534399 0.0179884575 -0.0759999976
-0.0121490833 0.0247810556 -0.0759999976
-0.0130227762 0.0239647687 -0.0759999976
-0.0048297945 0.0103202242 -0.0759999976
-0.0107940898 -0.0015522212 -0.0759999976
-0.0195433191 -0.0008129670 -0.0759999976
-0.0244918658 -0.0006953963 -0.0759999976
-0.0289381070 0.0002934584 -0.0759999976
-0.0301239005 0.0045447750 -0.0759999976
-0.0307974898 0.0034712247 -0.0759999976
-0.0327840618 -0.0088126061 -0.0759999976
-0.0160467353 -0.0051225664 -0.0759999976
-0.0319865989 -0.0072251955 -0.0759999976
-0.0064199429 -0.0056102681 -0.0759999976
-0.0272370872 -0.0213341343 -0.0759999976
-0.0133260451 -0.0090399714 -0.0759999976
-0.0273857645 -0.0158490893 -0.0759999976
-0.0201283287 -0.0081563968 -0.0759999976
-0.0304758066 -0.0133040481 -0.0759999976
0.0291541984 -0.0109142461 -0.0759999976
0.0162113972 -0.0006259940 -0.0759999976
0.0231926726 -0.0010542789 -0.0759999976
0.0147724511 -0.0023392344 -0.0759999976
0.0254534579 -0.0045596324 -0.0759999976
0.0149859780 -0.0046583130 -0.0759999976
0.0252944841 -0.0053945794 -0.0759999976
0.0055786434 -0.0067830596 -0.0759999976
-0.0172668897 -0.0286678905 -0.0759999976
0.0040552971 -0.0095598175 -0.0759999976
-0.0027326565 -0.0121542444 -0.0759999976
-0.0068377541 -0.0097525571 -0.0759999976
-0.0198187674 -0.0245643564 -0.0759999976
-0.0049061801 -0.0056424658 -0.0759999976
-0.0216714502 -0.0210162546 -0.0759999976
-0.0033034537 -0.0342789690 -0.0759999976
0.0014189561 -0.0042541191 -0.0459143376
0.0020831445 -0.0039736753 -0.0507506621
0.0024668879 -0.0037521210 -0.0639863573
0.0030133722 -0.0033234597 -0.0141616345
0.0032105700 -0.0031479091 -0.0475959006
0.0037241452 -0.0025153437 -0.0689559497
0.0040476967 -0.0019549359 -0.0245483785
0.0041835602 -0.0016128159 -0.0116304329
0.0044183900 -0.0007579198 -0.0465946175
0.0044828760 -0.0002860320 -0.0342410941
0.0044828760 0.0001904507 -0.0531602122
0.0043839638 0.0009531595 -0.0523441406
0.0041755230 0.0016348974 -0.0695050070
0.0043098501 0.0012658364 -0.0161722364
0.0039986462 0.0020398937 -0.0199179869
0.0032912215 0.0030517923 -0.0615283787
0.0030403195 0.0033008483 -0.0595425163
0.0026641274 0.0036165109 -0.0181186632
0.0021832282 0.0039158921 -0.0439000005
0.0014247087 0.0042520257 -0.0546830197
0.0009966438 0.0043762966 -0.0277841632
0.0005722411 0.0044511302 -0.0519283351
-0.0000265757 0.0044828760 -0.0422693180
-0.0005479891 0.0044554063 -0.0356646465
-0.0013072741 0.0042947680 -0.0439569584
-0.0015128293 0.0042199521 -0.0115982500
-0.0019719420 0.0040378781 -0.0130597433
-0.0027802229 0.0035190952 -0.0491202055
-0.0029418429 0.0033834799 -0.0376813914
-0.0034777185 0.0028295338 -0.0413418138
-0.0037811928 0.0024165344 -0.0451586061
-0.0040885978 0.0018737226 -0.0399732692
-0.0043438756 0.0011723532 -0.0680989759
-0.0044545801 0.0005526754 -0.0328385549
-0.0044828760 0.0002863458 -0.0399232812
-0.0044667682 -0.0004835530 -0.0192444429
-0.0044325015 -0.0006778889 -0.0294452053
-0.0041187967 -0.0017907517 -0.0438706496
-0.0039218622 -0.0021728874 -0.0540948823
-0.0036582279 -0.0026144108 -0.0185070328
-0.0033492555 -0.0029826300 -0.0121728805
-0.0031674490 -0.0031941740 -0.0239046851
-0.0025629603 -0.0036966538 -0.0137793027
-0.0019322320 -0.0040608048 -0.0471042744
-0.0013226522 -0.0042891712 -0.0521131821
-0.0007855639 -0.0044135156 -0.0504331582
-0.0002629145 -0.0044828760 -0.0297105007
0.0001396303 -0.0044828760 -0.0329276275
0.0011638917 -0.0043468059 -0.0428806226
-0.0207212567 -0.0279534628 -0.0169999991
0.0153947445 -0.0309926555 -0.0169999991
0.0343531577 -0.0014953146 -0.0169999991
0.0134407607 0.0321842457 -0.0169999991
-0.0217258638 0.0263745794 -0.0169999991
-0.0333487848 -0.0075368559 -0.0169999991
-0.0063959264 0.0064875323 -0.0088999970
-0.0056767853 -0.0005925904 -0.0088999970
-0.0032512539 -0.0065640088 -0.0088999970
0.0037817276 -0.0055516617 -0.0088999970
0.0050428046 0.0001686166 -0.0088999970
0.0062474832 0.0076510114 -0.0088999970
-0.0019030727 0.0061108841 -0.0088999970
0.0128136385 -0.0300580648 -0.0169000011
0.0074377577 -0.0133079038 -0.0169000011
-0.0006971243 0.0291445028 -0.0169000011
-0.0022787759 0.0336087881 -0.0169000011
-0.0000433856 -0.0175174732 -0.0169000011
0.0036012498 -0.0335733714 -0.0169000011
0.0026473764 -0.0193006971 -0.0169000011
0.0036133347 -0.0161428661 -0.0169000011
0.0091641525 -0.0303887510 -0.0169000011
0.0024155879 0.0132223784 -0.0169000011
0.0045341442 0.0296264973 -0.0169000011
0.0002875876 0.0196953057 -0.0169000011
0.0122691314 0.0200542121 -0.0169000011
0.0100959531 0.0191438449 -0.0169000011
0.0099075922 0.0231553619 -0.0169000011
0.0112209522 0.0313198949 -0.0169000011
0.0074206540 0.0258309080 -0.0169000011
-0.0031520643 -0.0199435304 -0.0169000011
-0.0033927487 -0.0214676730 -0.0169000011
-0.0000712506 -0.0301780627 -0.0169000011
0.0242710432 -0.0029384637 -0.0169000011
0.0290672329 -0.0030758013 -0.0169000011
-0.0089144827 -0.0119235393 -0.0169000011
-0.0181374017 -0.0285567180 -0.0169000011
-0.0052040515 -0.0105202976 -0.0169000011
-0.0167448591 -0.0281106189 -0.0169000011
-0.0106737486 -0.0263853243 -0.0169000011
-0.0040197284 -0.0138308111 -0.0169000011
-0.0068667271 -0.0302044600 -0.0169000011
-0.0203577190 -0.0135179905 -0.0169000011
-0.0190769903 -0.0150219923 -0.0169000011
-0.0209384965 -0.0197963662 -0.0169000011
-0.0189999709 -0.0233654142 -0.0169000011
-0.0171497290 -0.0035493623 -0.0169000011
-0.0293146419 -0.0086482455 -0.0169000011
-0.0118307376 -0.0041465680 -0.0169000011
-0.0300553340 -0.0131013673 -0.0169000011
-0.0276417923 -0.0162962162 -0.0169000011
0.0240887633 0.0001169142 -0.0169000011
0.0300776461 0.0037178608 -0.0169000011
0.0292834461 0.0047528982 -0.0169000011
0.0308330667 0.0064286336 -0.0169000011
0.0152878536 0.0056081433 -0.0169000011
0.0258384041 0.0113118949 -0.0169000011
0.0147211864 0.0070833155 -0.0169000011
-0.0306514206 0.0032236741 -0.0169000011
-0.0285257404 0.0021213438 -0.0169000011
-0.0230608499 -0.0008503316 -0.0169000011
-0.0293801200 -0.0051071420 -0.0169000011
-0.0290186103 -0.0037683867 -0.0169000011
0.0271594724 0.0130480340 -0.0169000011
0.0101778229 0.0069407638 -0.0169000011
0.0234893872 0.0185675351 -0.0169000011
0.0232952698 0.0227599754 -0.0169000011
0.0094024400 0.0125331324 -0.0169000011
0.0188643717 0.0195614815 -0.0169000011
0.0159504188 0.0221840990 -0.0169000011
0.0317583341 -0.0115089530 -0.0169000011
0.0243982130 -0.0090095937 -0.0169000011
0.0313927537 -0.0082680544 -0.0169000011
0.0157269569 -0.0232985858 -0.0169000011
0.0116819702 -0.0148830548 -0.0169000011
0.0186284324 -0.0212742895 -0.0169000011
0.0177159181 -0.0175219478 -0.0169000011
0.0115234443 -0.0099825298 -0.0169000011
0.0209728339 -0.0158444182 -0.0169000011
0.0240571220 -0.0156241757 -0.0169000011
0.0203493487 -0.0125117200 -0.0169000011
0.0301250177 -0.0151537705 -0.0169000011
-0.0191217211 0.0098430899 -0.0169000011
-0.0301565060 0.0141641632 -0.0169000011
-0.0324044222 0.0096999348 -0.0169000011
-0.0140669883 0.0031676347 -0.0169000011
-0.0323190588 0.0057938170 -0.0169000011
-0.0064586309 0.0314900665 -0.0169000011
-0.0069661341 0.0193275337 -0.0169000011
-0.0037668183 0.0092928067 -0.0169000011
-0.0136895399 0.0260892925 -0.0169000011
-0.0161130279 0.0243734353 -0.0169000011
-0.0110484750 0.0187980608 -0.0169000011
-0.0208541216 0.0255678186 -0.0169000011
-0.0121590032 0.0125772933 -0.0169000011
-0.0143539651 0.0140708042 -0.0169000011
-0.0153774912 0.0118261026 -0.0169000011
-0.0231553699 0.0153974491 -0.0169000011
-0.0178255818 0.0118685423 -0.0169000011
-0.0076702589 0.0063569796 -0.0164770504
-0.0092745425 0.0036451889 -0.0111558494
-0.0096689718 -0.0025330991 -0.0137542029
-0.0078798041 -0.0061072533 -0.0136354793
-0.0038783048 -0.0091896953 -0.0139225781
0.0001836823 -0.0099619469 -0.0095467389
0.0054844242 -0.0083366317 -0.0154495464
0.0088941290 -0.0045188109 -0.0167307944
0.0099619469 -0.0004688971 -0.0165777489
0.0091645856 0.0039472926 -0.0090542487
0.0065950419 0.0074705009 -0.0096224282
0.0021570202 0.0097352855 -0.0128397959
-0.0031223675 0.0094648334 -0.0129197360
-0.0062872374 -0.0062481859 -0.0088999970
-0.0083638964 0.0017657280 -0.0088999970
-0.0030245101 0.0068682668 -0.0088999970
0.0034631017 0.0061499897 -0.0088999970
0.0092590209 -0.0004950978 -0.0088999970
0.0053846525 -0.0066397234 -0.0088999970
-0.0042949892 0.0090233525 -0.0124572675
-0.0080468604 0.0059081633 -0.0089641329
-0.0098830282 0.0013191279 -0.0132734383
-0.0092785167 -0.0036342690 -0.0104377290
-0.0068541952 -0.0072530455 -0.0141897270
-0.0023406149 -0.0097029128 -0.0109514795
0.0023494992 -0.0097013455 -0.0146150074
0.0065888067 -0.0074757329 -0.0131363434
0.0092786195 -0.0036339877 -0.0139906874
0.0098151500 0.0017040827 -0.0130733570
0.0085672853 0.0050849206 -0.0133548695
0.0044802744 0.0089163780 -0.0145789232
0.0000611853 0.0099619469 -0.0148662986
0.0058436502 -0.0168191750 -0.0169000011
0.0087696950 -0.0060742395 -0.0169000011
0.0143620870 -0.0118443341 -0.0169000011
0.0045550145 0.0230484922 -0.0169000011
0.0069871546 0.0285005433 -0.0169000011
0.0084936407 0.0279404061 -0.0169000011
0.0077596440 -0.0168597562 -0.0169000011
0.0063369089 -0.0169334669 -0.0169000011
0.0109534273 -0.0290663397 -0.0169000011
0.0057563422 0.0134887505 -0.0169000011
0.0145962871 0.0284636610 -0.0169000011
0.0097135348 0.0168866249 -0.0169000011
0.0162273399 0.0267326274 -0.0169000011
0.0201222921 0.0253413791 -0.0169000011
0.0027263843 0.0331454371 -0.0169000011
0.0009187718 0.0128779206 -0.0169000011
0.0035998180 0.0337259516 -0.0169000011
-0.0064954363 -0.0102145304 -0.0169000011
-0.0064553339 -0.0255857039 -0.0169000011
-0.0070231645 -0.0261998088 -0.0169000011
-0.0098831271 -0.0265819165 -0.0169000011
-0.0131248344 -0.0274028560 -0.0169000011
0.0089151458 -0.0285831303 -0.0169000011
0.0020176836 -0.0110965615 -0.0169000011
0.0146751943 -0.0130886092 -0.0169000011
0.0171490932 -0.0167357179 -0.0169000011
0.0151959737 -0.0177386918 -0.0169000011
0.0154567038 -0.0213804797 -0.0169000011
0.0075302649 -0.0114706035 -0.0169000011
-0.0059693172 0.0220367310 -0.0169000011
-0.0034531452 0.0153285301 -0.0169000011
-0.0032590101 0.0193408263 -0.0169000011
-0.0028661944 0.0343880228 -0.0169000011
0.0044384783 -0.0246111477 -0.0169000011
0.0008790863 -0.0281383662 -0.0169000011
0.0003266369 -0.0329856951 -0.0169000011
-0.0016463460 -0.0193829378 -0.0169000011
-0.0019787675 -0.0213969329 -0.0169000011
0.0295909456 -0.0107334688 -0.0169000011
0.0314125649 -0.0142316311 -0.0169000011
0.0232740576 -0.0113427839 -0.0169000011
0.0187693141 -0.0032125984 -0.0169000011
0.0192078064 -0.0043970105 -0.0169000011
0.0285487910 -0.0100171471 -0.0169000011
0.0180243904 0.0191515772 -0.0169000011
0.0248315771 0.0229265587 -0.0169000011
0.0083374603 0.0069580090 -0.0169000011
0.0209432170 0.0141180615 -0.0169000011
0.0180276869 0.0114940843 -0.0169000011
0.0165648272 0.0029247343 -0.0169000011
0.0216757231 0.0018745620 -0.0169000011
0.0168030554 -0.0006112160 -0.0169000011
0.0289363893 0.0004923904 -0.0169000011
0.0151989270 -0.0013883763 -0.0169000011
0.0252109606 0.0155512070 -0.0169000011
0.0310822281 0.0145627589 -0.0169000011
0.0144886146 0.0059425124 -0.0169000011
0.0198870659 0.0069445640 -0.0169000011
0.0330119200 0.0061068602 -0.0169000011
-0.0074263208 0.0128661193 -0.0169000011
-0.0144678839 0.0314270211 -0.0169000011
-0.0108818204 0.0296603051 -0.0169000011
-0.0240758276 0.0100228510 -0.0169000011
-0.0179438628 0.0086304050 -0.0169000011
-0.0199792022 0.0118503186 -0.0169000011
-0.0162644626 0.0112087478 -0.0169000011
-0.0182401095 0.0024218181 -0.0169000011
-0.0283599941 0.0056634086 -0.0169000011
-0.0298290387 0.0089634406 -0.0169000011
-0.0147907551 -0.0025873391 -0.0169000011
-0.0273085714 -0.0017432186 -0.0169000011
-0.0140020098 -0.0004759639 -0.0169000011
-0.0348070477 0.0012432100 -0.0169000011
-0.0224081318 0.0024718223 -0.0169000011
-0.0211492259 -0.0142855834 -0.0169000011
-0.0157369016 -0.0103919447 -0.0169000011
-0.0140531637 -0.0244587265 -0.0169000011
-0.0142500095 -0.0201490963 -0.0169000011
-0.0068472842 -0.0078440790 -0.0169000011
-0.0123356452 -0.0137236150 -0.0169000011
-0.0248953368 -0.0205440436 -0.0169000011
-0.0138539844 0.0118319183 -0.0169000011
-0.0204707072 0.0216172288 -0.0169000011
-0.0238869700 0.0225009491 -0.0169000011
-0.0130070454 0.0165631441 -0.0169000011
-0.0151103583 0.0220084350 -0.0169000011
-0.0164114744 -0.0083109412 -0.0169000011
-0.0292908541 -0.0151566255 -0.0169000011
-0.0249188984 -0.0120733419 -0.0169000011
-0.0222550569 -0.0061161410 -0.0169000011
-0.0306661791 -0.0089536116 -0.0169000011
-0.0308766388 -0.0069823453 -0.0169000011
-0.0175033867 -0.0302676893 -0.0167134583
-0.0160574013 -0.0310722156 -0.0050251500
-0.0022689193 -0.0348974044 -0.0154591512
-0.0174770503 0.0303154105 -0.0026332479
-0.0166532069 0.0307583658 -0.0119424623
-0.0309739804 0.0162600371 -0.0033332669
-0.0296922955 0.0185108207 -0.0120469316
-0.0147444170 0.0317165272 -0.0080943935
-0.0137279604 0.0321836901 -0.0029350743
-0.0104223214 0.0334080364 -0.0038811101
-0.0281279320 0.0207907279 -0.0064859197
-0.0268347921 0.0224012228 -0.0022833564
-0.0245538951 0.0248829957 -0.0092133977
-0.0229624489 0.0264119619 -0.0111374323
-0.0219079883 0.0272415836 -0.0122617815
-0.0196536292 0.0289478982 -0.0088176750
-0.0345866822 0.0052873678 -0.0146434744
-0.0341577214 0.0074526058 -0.0107189749
-0.0333892463 0.0103445573 -0.0080664391
-0.0320138524 0.0140431468 -0.0039241439
-0.0319099022 0.0142897966 -0.0096633045
-0.0349711416 -0.0005699345 -0.0128484168
-0.0347567696 0.0037450403 -0.0051408408
-0.0348823665 -0.0025728155 -0.0041481296
-0.0345965683 -0.0051762463 -0.0095200699
-0.0339098433 -0.0085803513 -0.0093745333
-0.0336627788 -0.0095061204 -0.0099293351
-0.0326764730 -0.0125270466 -0.0152550551
-0.0320139318 -0.0140338395 -0.0064317254
-0.0299121973 -0.0181607550 -0.0118358225
-0.0200209247 -0.0286855571 -0.0039528519
-0.0213518058 -0.0276773004 -0.0125140259
-0.0230785506 -0.0262728562 -0.0043544493
-0.0251824446 -0.0243012742 -0.0087743349
-0.0272516305 -0.0219381535 -0.0028811955
-0.0276918489 -0.0213762292 -0.0073515920
-0.0025735421 -0.0348947460 -0.0136185691
-0.0044599308 -0.0346717486 -0.0065835405
-0.0067943409 -0.0343264795 -0.0046748630
-0.0095748377 -0.0336407996 -0.0138811810
-0.0129635638 -0.0324868121 -0.0052786939
-0.0142384490 -0.0319398200 -0.0076875637
0.0073388744 -0.0342144308 -0.0070245794
0.0043693491 -0.0347082270 -0.0028347161
-0.0314949847 0.0096608320 -0.0009999970
-0.0285209831 0.0016833146 -0.0009999970
-0.0328073971 0.0104043043 -0.0009999970
-0.0172415522 0.0223215922 -0.0009999970
0.0086302640 0.0275229540 -0.0009999970
0.0030294427 0.0340087833 -0.0009999970
0.0217033968 0.0178030109 -0.0009999970
0.0270895615 -0.0099571864 -0.0009999970
0.0269277446 -0.0198629805 -0.0009999970
0.0164177880 -0.0305800865 -0.0009999970
-0.0110031432 -0.0331436902 -0.0009999970
0.0100611050 -0.0316612345 -0.0009999970
0.0044238344 -0.0335155676 -0.0009999970
-0.0220431899 -0.0243308157 -0.0009999970
-0.0274217830 0.0163586392 -0.0009999970
0.0144045433 -0.0278175260 -0.0009999970
0.0126713413 -0.0299868307 -0.0009999970
0.0224557274 -0.0200793608 -0.0009999970
0.0244242037 0.0161156012 -0.0009999970
-0.0192413900 -0.0253918180 -0.0009999970
-0.0162692557 -0.0305740816 -0.0009999970
-0.0288385453 -0.0060495114 -0.0009999970
-0.0312079537 -0.0066831684 -0.0009999970
-0.0281625658 -0.0160915178 -0.0009999970
-0.0299225944 -0.0117775192 -0.0009999970
-0.0090586145 0.0327685864 -0.0009999970
-0.0162764328 0.0283657832 -0.0009999970
0.0000821809 0.0296867021 -0.0009999970
0.0183581685 0.0258839706 -0.0009999970
0.0150371772 0.0290012289 -0.0009999970
0.0315078481 0.0084617569 -0.0009999970
0.0272364086 0.0144755906 -0.0009999970
0.0338274001 0.0059271187 -0.0009999970
0.0326923648 0.0012396696 -0.0009999970
0.0309226651 -0.0002788857 -0.0009999970
-0.0003352786 0.0349978065 -0.0150902631
-0.0006763599 0.0349818945 -0.0042379879
0.0179275057 0.0300287833 -0.0123831662
0.0300887959 -0.0178768055 -0.0043585089
0.0298747914 -0.0182337789 -0.0136222501
0.0182311733 -0.0298375494 -0.0022692617
0.0163043168 -0.0309313976 -0.0149612742
-0.0087261648 0.0338883145 -0.0034285340
0.0136607717 -0.0322088897 -0.0152969414
0.0108816245 -0.0332512256 -0.0078113597
0.0278590045 -0.0211789048 -0.0139129372
0.0270247131 -0.0221774618 -0.0079425853
0.0253086363 -0.0241578856 -0.0067922802
0.0238522855 -0.0255570601 -0.0153034818
0.0217024283 -0.0274023546 -0.0054001222
0.0199684271 -0.0287389443 -0.0079527003
0.0343460420 -0.0065020318 -0.0048953502
0.0339582210 -0.0084596110 -0.0014981786
0.0330291511 -0.0115202162 -0.0018314034
0.0328705718 -0.0120103512 -0.0091005046
0.0316291679 -0.0149559136 -0.0047261285
0.0349685197 0.0003433262 -0.0137473944
0.0348863634 -0.0023695515 -0.0078356190
0.0348263882 0.0030827406 -0.0098705294
0.0348624652 0.0027541025 -0.0023009933
0.0342608962 0.0069411915 -0.0011467026
0.0338004453 0.0090801968 -0.0137756149
0.0335912412 0.0097274492 -0.0032950742
0.0314628088 0.0152872383 -0.0136149381
0.0303096882 0.0174291343 -0.0151947885
0.0193084534 0.0291852309 -0.0046937369
0.0202034338 0.0285472908 -0.0154975409
0.0225528917 0.0267625365 -0.0054939305
0.0246107343 0.0248455424 -0.0087603117
0.0267520471 0.0225087045 -0.0109332720
0.0283399785 0.0204636265 -0.0036200192
0.0295454201 0.0187632800 -0.0078976054
0.0032597017 0.0348410574 -0.0141515007
0.0073458035 0.0341904870 -0.0043620646
0.0094872529 0.0336623983 -0.0160825075
0.0114078620 0.0330431134 -0.0088462531
0.0144051085 0.0318611190 -0.0058343667
-0.0066631853 0.0343267897 -0.0035371137
-0.0055684038 0.0345088387 -0.0116844180
-0.0301127947 -0.0010295196 -0.0071914866
-0.0343286474 -0.0000775184 -0.0052576666
-0.0292756489 0.0182301411 -0.0069781952
-0.0147000689 0.0233473701 -0.0071428212
-0.0143372756 0.0248328920 -0.0052655880
-0.0010397715 -0.0342968190 -0.0071880705
-0.0153092048 -0.0288500751 -0.0069378607
-0.0172818710 -0.0293233834 -0.0052916510
-0.0274835426 -0.0148577824 -0.0073846675
0.0178089881 -0.0283673993 -0.0066243411
0.0134711131 -0.0245630852 -0.0054128309
0.0252636804 -0.0153543193 -0.0075542333
0.0281196632 -0.0147995334 -0.0064936388
0.0325373012 -0.0007357731 -0.0054945029
0.0280003177 0.0155888063 -0.0076375780
0.0248307331 0.0157566534 -0.0063452775
0.0177625600 0.0288654235 -0.0057040486
0.0004002298 0.0275637920 -0.0076806221
-0.0011874001 0.0313543115 -0.0061207453
-0.0040664681 0.0019224228 -0.0007909923
-0.0038980498 -0.0022141317 -0.0042055394
-0.0008408800 -0.0044037620 -0.0018545090
0.0035591493 -0.0027324883 -0.0048347398
0.0042321544 0.0014793036 -0.0082432944
0.0012913761 0.0043005548 -0.0067480402
0.0053682042 0.0009961904 -0.0000000024
0.0211757533 -0.0019289207 -0.0000000024
0.0199647862 -0.0006980968 -0.0000000024
0.0262988948 0.0037118283 -0.0000000024
0.0091940065 0.0190857379 -0.0000000024
0.0070777518 -0.0043885659 -0.0000000024
0.0171152376 -0.0085691259 -0.0000000024
0.0247990309 -0.0082111650 -0.0000000024
0.0065741475 -0.0018187805 -0.0000000024
0.0071601203 0.0192879886 -0.0000000024
0.0063444135 0.0218907284 -0.0000000024
0.0020946719 0.0240038314 -0.0000000024
-0.0000186684 0.0155841572 -0.0000000024
-0.0030469566 0.0276719979 -0.0000000024
0.0081768720 0.0083217307 -0.0000000024
0.0141210097 0.0158466499 -0.0000000024
0.0112384089 0.0181426090 -0.0000000024
0.0246999887 0.0044835834 -0.0000000024
0.0108197539 0.0030402852 -0.0000000024
0.0090480564 0.0039577391 -0.0000000024
0.0067758466 0.0038360006 -0.0000000024
0.0203516956 0.0125906967 -0.0000000024
0.0221234996 0.0168315708 -0.0000000024
0.0183382336 -0.0197392720 -0.0000000024
0.0152028862 -0.0127055406 -0.0000000024
0.0194812991 -0.0115405535 -0.0000000024
0.0112842904 -0.0223865362 -0.0000000024
0.0142067632 -0.0210647822 -0.0000000024
0.0077249472 -0.0097327773 -0.0000000024
-0.0175809115 -0.0150350591 -0.0000000024
-0.0098889560 -0.0107485060 -0.0000000024
-0.0110108084 -0.0048610409 -0.0000000024
-0.0107474383 -0.0061054899 -0.0000000024
-0.0217266543 -0.0153775799 -0.0000000024
0.0033849374 -0.0206241885 -0.0000000024
0.0086770869 -0.0241313483 -0.0000000024
-0.0027353722 -0.0255986769 -0.0000000024
-0.0012788663 -0.0196709714 -0.0000000024
-0.0008360485 -0.0167226376 -0.0000000024
0.0019805055 -0.0275544966 -0.0000000024
-0.0174345957 -0.0208674881 -0.0000000024
-0.0036537944 -0.0064742524 -0.0000000024
-0.0075046200 -0.0161054383 -0.0000000024
-0.0075648719 -0.0239993990 -0.0000000024
-0.0038533199 -0.0159270901 -0.0000000024
-0.0267773586 0.0043277808 -0.0000000024
-0.0246606789 0.0010311410 -0.0000000024
-0.0266934893 -0.0032527321 -0.0000000024
-0.0087692012 -0.0022072364 -0.0000000024
-0.0191651588 -0.0065889586 -0.0000000024
-0.0116167531 0.0065669915 -0.0000000024
-0.0216643643 0.0105134479 -0.0000000024
-0.0220361126 0.0091931724 -0.0000000024
-0.0241726925 0.0060316374 -0.0000000024
-0.0100411086 0.0107258463 -0.0000000024
-0.0184722529 0.0137143250 -0.0000000024
-0.0125257007 0.0076525707 -0.0000000024
-0.0042117494 0.0180898507 -0.0000000024
-0.0051447135 0.0180658003 -0.0000000024
-0.0049241591 0.0116555252 -0.0000000024
-0.0086926585 0.0130894874 -0.0000000024
-0.0095519401 0.0129776188 -0.0000000024
0.0169279939 -0.0222483981 -0.0009653743
0.0252295811 0.0120494938 -0.0007694710
-0.0053349472 0.0274448605 -0.0001762369
-0.0279401617 0.0011056237 -0.0001437206
-0.0038948773 -0.0276844113 -0.0007709578
-0.0219176775 -0.0231655538 -0.0078139243
-0.0090289330 -0.0292048052 -0.0043266408
-0.0068561795 -0.0295097393 -0.0075226942
0.0215641619 -0.0231158433 -0.0018273677
0.0291215741 -0.0070876872 -0.0069911562
0.0311638416 -0.0077720796 -0.0068532268
0.0293206022 0.0069452540 -0.0038037757
0.0213444004 0.0230256901 -0.0030062549
0.0231319191 0.0216206138 -0.0010739552
0.0071716129 0.0290328778 -0.0031222658
0.0078819353 0.0311832121 -0.0016632703
-0.0068563359 0.0295093084 -0.0015177308
-0.0228577414 0.0211002435 -0.0059199063
-0.0219614969 0.0231655538 -0.0031106162
-0.0289088467 0.0073253224 -0.0037580718
-0.0311267409 -0.0084138595 -0.0023538017
-0.0296325343 -0.0068138039 -0.0020655468
0.0128942958 -0.0241835337 -0.0070319462
-0.0212923438 -0.0208847213 -0.0085207545
-0.0072089755 0.0294171349 -0.0086668647
