0.0019340229 0.0450401095 0.0214970571
0.0035906155 0.0443500020 0.0326084455
0.0122679961 0.0443500020 0.0201575621
-0.0102421164 0.0443500020 0.0235556725
-0.0067106476 0.0443500020 0.0266670682
0.0131106442 0.0443500020 0.0301687407
-0.0144772496 0.0443500020 0.0195176652
-0.0117700806 0.0443500020 0.0183922795
0.0293714314 -0.0223763711 -0.0080264799
0.0096437969 -0.0237032711 0.0332593011
0.0326637352 -0.0238959806 0.0093188335
-0.0210100321 -0.0226088554 0.0208327571
-0.0278618877 -0.0232709098 -0.0066361474
-0.0237324058 0.0374820576 0.0179557422
-0.0238123564 0.0424465469 0.0180228286
-0.0201217054 0.0334024985 0.0149260049
-0.0218852897 0.0386029328 0.0258789379
-0.0154467817 0.0373187290 0.0301877710
-0.0078878752 0.0407774384 0.0329174405
0.0034876233 0.0326168615 0.0336755811
0.0127208101 0.0346801530 0.0313784161
0.0190469771 0.0442325189 0.0279177737
0.0184339334 0.0426441688 0.0196351207
0.0175824112 0.0338426699 0.0186203162
0.0064838184 0.0378512245 0.0116698195
-0.0007667621 0.0434646171 0.0133486927
-0.0093650713 0.0322561461 0.0094111495
0.0025441334 0.0200174441 -0.0349060073
0.0343862137 0.0143371165 -0.0062122930
0.0335127176 0.0179134351 -0.0099320425
0.0334048574 -0.0011846347 -0.0103592850
0.0254975171 0.0251995176 -0.0238980627
0.0224428447 0.0140857619 -0.0267555695
0.0215048625 0.0295643180 0.0275860505
0.0241839954 0.0208137419 0.0252999978
0.0257796344 0.0070444410 0.0236110065
0.0331711691 0.0249614952 0.0110623225
0.0341205083 0.0275991220 0.0077358658
-0.0006868918 -0.0263947043 0.0349060073
0.0014564750 -0.0089144278 0.0349060073
0.0060054932 0.0283618708 -0.0344528370
0.0044235795 -0.0150544963 -0.0346611008
0.0062791305 -0.0000539717 -0.0344168118
0.0212776708 0.0251897931 -0.0277801390
0.0208931935 0.0149907514 -0.0280584851
0.0208374540 0.0311002363 -0.0280959404
0.0153928000 -0.0154638094 -0.0313769103
0.0159741275 0.0137198611 -0.0310768646
0.0137735220 -0.0046321077 -0.0321487657
0.0123908186 -0.0035874699 -0.0326689545
0.0111175175 -0.0107904336 -0.0331387211
0.0094470647 0.0150379226 -0.0336605469
0.0323863217 -0.0193030938 -0.0131324053
0.0314343442 0.0118341079 -0.0153642839
0.0300679502 -0.0237090750 -0.0178097492
0.0300118522 0.0311526292 -0.0179080995
0.0287297405 0.0118878440 -0.0199114706
0.0278226135 0.0197114117 -0.0211463744
0.0281612025 0.0117481982 -0.0206854413
0.0347563987 0.0071703647 0.0040901593
0.0348684978 -0.0159197848 0.0022806463
0.0348120218 0.0036718262 0.0032601097
0.0349505111 0.0076275585 0.0008582892
0.0348861136 -0.0084540498 -0.0019751346
0.0348755219 0.0124790412 -0.0021588275
0.0342448444 -0.0166961979 -0.0070246882
0.0254663676 -0.0220631341 0.0239588195
0.0277512221 -0.0031060739 0.0212435620
0.0274053970 0.0316642015 0.0217143458
0.0296037436 -0.0014274048 0.0186235896
0.0301038344 0.0119815560 0.0177468375
0.0317581924 -0.0265273534 0.0146050330
0.0325084366 0.0081303854 0.0128461113
0.0329972024 0.0137939902 0.0116541720
0.0220324636 -0.0194566810 0.0271429357
0.0210414904 0.0291166549 0.0279588337
0.0187764530 0.0080463801 0.0294808752
0.0150828841 0.0250756827 0.0315368700
0.0155198023 0.0055457834 0.0313113595
0.0135607135 -0.0162460649 0.0322291793
0.0083845888 0.0127361681 0.0339405765
0.0091866157 -0.0180282117 0.0337648293
0.0105427697 0.0247616379 0.0333670127
0.0058621085 -0.0196009463 0.0344717140
0.0060231146 -0.0017534744 0.0344505171
-0.0001922636 0.0142809876 0.0349060073
-0.0007627350 -0.0020038876 0.0349060073
-0.0251515280 0.0273485499 0.0242685480
-0.0226409826 0.0112644873 0.0265819101
-0.0341938666 -0.0018259416 0.0073159458
-0.0338930638 -0.0208328214 0.0087109370
-0.0331239149 0.0316547529 0.0112049735
-0.0334843199 0.0229863511 -0.0100101556
-0.0340649120 0.0152636472 -0.0080315573
-0.0344633615 0.0075911826 -0.0057843402
-0.0224665454 0.0121351324 -0.0267733947
-0.0250628888 0.0210675962 -0.0243697456
-0.0024607389 -0.0076710418 -0.0349060073
0.0013051826 -0.0166721287 -0.0349060073
-0.0030262540 -0.0129859992 0.0348450629
-0.0063131262 -0.0256933115 0.0344123362
-0.0071554535 -0.0042251831 0.0342533090
-0.0213682025 0.0138436323 0.0277037984
-0.0195943651 -0.0088165875 0.0289312613
-0.0185551511 0.0188849822 0.0296295839
-0.0166976328 -0.0084267203 0.0307034354
-0.0144074400 -0.0164636538 0.0318854930
-0.0126448306 0.0286551035 0.0325752625
-0.0115144843 -0.0220993083 0.0329865840
-0.0092103095 0.0167491612 0.0337194012
-0.0335049955 -0.0231624517 0.0101177881
-0.0320178873 -0.0064837212 0.0139961873
-0.0316272872 0.0055416202 0.0149119358
-0.0302550800 -0.0090212798 0.0174816759
-0.0303936145 0.0286170859 0.0172387992
-0.0280742383 -0.0010448667 0.0208038287
-0.0277150042 0.0203123212 0.0212928666
-0.0265557973 0.0097626983 0.0227775001
-0.0346371255 -0.0161721744 -0.0047800047
-0.0348489323 0.0065233238 -0.0026199707
-0.0349685325 0.0154185428 -0.0005457429
-0.0349786514 0.0009537904 0.0003702515
-0.0348053133 0.0054149570 0.0033764556
-0.0346388101 -0.0215025249 0.0047642915
-0.0347331568 0.0081951787 0.0042229725
-0.0270296942 -0.0181354447 -0.0222258032
-0.0271588747 -0.0189930092 -0.0220499452
-0.0280803627 0.0251013292 -0.0207954913
-0.0294313675 -0.0184680692 -0.0189257969
-0.0302665165 0.0127589177 -0.0174616256
-0.0314319271 -0.0165546455 -0.0153699508
-0.0325283571 -0.0115733357 -0.0127994083
-0.0214024859 -0.0258449736 -0.0276746877
-0.0206514573 0.0224860128 -0.0282209250
-0.0187669071 -0.0092809474 -0.0294872898
-0.0181929238 -0.0063955638 -0.0298729905
-0.0170547825 0.0005728187 -0.0305190965
-0.0144596439 0.0010833300 -0.0318585485
-0.0126856485 0.0229086014 -0.0325598387
-0.0091785321 0.0090324547 -0.0337448520
-0.0108723334 -0.0194615338 -0.0332259835
-0.0136187711 -0.0264943946 -0.0322010156
-0.0054585566 -0.0227877761 -0.0345248429
-0.0065283353 0.0175698287 -0.0343840033
-0.0062548517 0.0320000015 0.0014104415
-0.0238952368 0.0320000015 -0.0010568097
-0.0028005623 0.0320000015 -0.0209017375
0.0026059037 0.0320000015 -0.0037307656
-0.0006469709 0.0320000015 -0.0238153961
0.0187652163 0.0320000015 -0.0120525435
0.0178015079 0.0320000015 -0.0161261040
-0.0226257939 0.0320000015 -0.0071834222
-0.0310846603 0.0320000015 -0.0039385129
-0.0185383112 0.0320000015 -0.0114581935
-0.0074112501 0.0320000015 -0.0030540303
-0.0081328183 0.0320000015 -0.0196786207
-0.0116364947 0.0320000015 -0.0159025338
-0.0205581178 0.0320000015 -0.0243954197
0.0130292423 0.0320000015 -0.0280314332
0.0066573645 0.0320000015 -0.0222845753
0.0195272836 0.0320000015 -0.0037981713
0.0244769433 0.0320000015 -0.0071774937
0.0250231632 0.0320000015 0.0009204006
0.0245892684 0.0320000015 -0.0026692639
0.0237827126 0.0320000015 0.0060985665
-0.0262581141 0.0320000015 0.0190414528
-0.0273008020 0.0320000015 0.0104717366
-0.0279490619 0.0320000015 0.0166121180
-0.0019176432 0.0320000015 0.0075380892
0.0035246100 0.0320000015 0.0031967910
0.0140401866 0.0320000015 0.0067040599
-0.0007538770 0.0136175190 0.0043766638
-0.0022262803 0.0070615301 0.0037875578
-0.0031638324 -0.0310422028 0.0031759118
-0.0038120748 -0.0112036204 0.0022035895
-0.0043554634 0.0219916487 -0.0002664743
-0.0042148736 -0.0180527074 -0.0015276211
-0.0033348601 0.0065524310 -0.0029792757
-0.0022337733 -0.0012253785 -0.0038074569
-0.0009670993 0.0062722562 -0.0043732373
0.0009056037 0.0078614957 -0.0043769982
0.0017456682 0.0301767959 -0.0039974663
0.0034791826 0.0281417098 -0.0026536663
0.0042528272 -0.0308426881 -0.0014487355
0.0043885531 0.0089212703 -0.0000442094
0.0036035380 0.0174970929 0.0024921735
0.0030469242 0.0209602692 0.0032696400
0.0021085343 -0.0267638012 0.0039537451
-0.0332777706 -0.0270000007 0.0086350044
0.0082797315 -0.0351000018 0.0014020415
-0.0081728927 -0.0351000018 0.0026296712
-0.0034029632 -0.0270891987 0.0121905878
-0.0025764386 -0.0270602965 0.0196811760
-0.0074117791 -0.0270999987 -0.0144919474
-0.0032118194 -0.0270244366 -0.0295311568
-0.0158818539 -0.0270465139 -0.0296725491
0.0052699505 -0.0270366833 0.0302265527
-0.0201333874 -0.0270512294 0.0092301646
0.0199109097 -0.0270333758 0.0163149467
0.0165932860 -0.0270270722 0.0220679574
0.0126337862 -0.0270765851 0.0246519257
0.0274818837 -0.0270219504 0.0106358430
0.0174430471 -0.0270696632 0.0014109880
-0.0164278034 -0.0270705829 0.0047177769
-0.0312961321 -0.0270083756 0.0069558952
-0.0269010730 -0.0270283709 -0.0060111820
-0.0283597175 -0.0270262038 -0.0007390653
0.0283693010 -0.0270238325 -0.0031272150
0.0241360635 -0.0270386626 -0.0055297707
-0.0323237824 -0.0270009230 -0.0126910125
-0.0217760611 -0.0270388180 -0.0124232985
-0.0145853449 -0.0270443161 -0.0182575404
-0.0276263388 -0.0270101660 0.0166705798
-0.0106570843 -0.0270189755 0.0278656630
-0.0157313035 -0.0270063088 0.0292630887
-0.0143592621 -0.0270487993 0.0176241964
0.0081952274 -0.0270941769 -0.0079279066
0.0228067570 -0.0270075917 -0.0236891600
0.0229927654 -0.0270345909 -0.0126917975
0.0027543955 -0.0270384186 -0.0250876193
0.0124937937 -0.0270357470 -0.0227826247
0.0065279229 -0.0270835229 -0.0124691710
0.0044124867 -0.0297389047 -0.0089342161
0.0097607251 -0.0310425450 0.0020624864
0.0002866062 -0.0344124710 0.0099749251
-0.0095538985 -0.0329888489 0.0028343737
-0.0042452205 -0.0331488264 -0.0090122136
0.0088409746 -0.0351000018 -0.0038890819
-0.0047453708 -0.0351000018 0.0004446179
0.0053040248 -0.0280955682 -0.0084473735
0.0094998111 -0.0300155032 0.0030362308
-0.0014201032 -0.0316565245 0.0098757572
-0.0099327811 -0.0342354219 0.0007683155
-0.0018409880 -0.0314542527 -0.0098200754
-0.0158892556 -0.0270999987 0.0190102008
-0.0072848788 -0.0270999987 0.0237420507
-0.0149252899 -0.0270999987 -0.0203453408
-0.0165986299 -0.0270999987 -0.0182750104
-0.0035509845 -0.0270999987 -0.0180035637
-0.0135525939 -0.0270999987 -0.0278003464
0.0087958804 -0.0270999987 0.0137689056
-0.0013780229 -0.0270999987 0.0232247167
-0.0178626999 -0.0270999987 0.0281557349
-0.0161346045 -0.0270999987 0.0303866084
0.0044347281 -0.0270999987 -0.0312689217
-0.0022167671 -0.0270999987 -0.0194561263
0.0064187465 -0.0270999987 0.0205653782
0.0132355499 -0.0270999987 0.0319718064
-0.0291932660 -0.0270999987 0.0184965168
-0.0292850947 -0.0270999987 0.0160104984
-0.0103434431 -0.0270999987 -0.0046524506
-0.0133115090 -0.0270999987 0.0044272709
-0.0200761164 -0.0270999987 -0.0062497558
-0.0202462860 -0.0270999987 -0.0002147276
0.0030004565 -0.0270999987 -0.0111539415
0.0200768923 -0.0270999987 -0.0160736640
0.0168574685 -0.0270999987 -0.0190948477
0.0293719538 -0.0270999987 -0.0174960998
0.0291564839 -0.0270999987 -0.0085842708
0.0220744842 -0.0270999987 0.0077950072
0.0159485431 -0.0270999987 0.0113298837
0.0261221885 -0.0270999987 0.0142691415
0.0128273674 -0.0270999987 -0.0232015632
0.0274340510 -0.0270999987 0.0060815877
0.0274550736 -0.0270999987 0.0031856510
0.0260413585 -0.0270999987 -0.0031379235
0.0103386455 -0.0378814069 0.0334332921
0.0248742837 -0.0395094432 -0.0244794458
0.0060693152 -0.0360498488 -0.0343996116
0.0198664021 -0.0406304045 -0.0286878992
0.0158210414 -0.0346768792 -0.0311030546
0.0309663003 -0.0427764863 -0.0161670855
0.0265557614 -0.0321597672 -0.0225926818
0.0335898683 -0.0290204420 -0.0091894599
0.0346124731 -0.0301948386 -0.0048421165
0.0345678671 -0.0360239062 0.0050905112
0.0332634089 -0.0401373842 0.0105214147
0.0306744444 -0.0413805499 0.0165933706
0.0328781173 -0.0390807307 0.0118339515
0.0165875294 -0.0288956341 0.0307461265
0.0225383175 -0.0348476668 0.0267202802
0.0242616950 -0.0430000015 -0.0182328836
0.0228307882 -0.0430000015 -0.0244773139
-0.0134799366 -0.0430000015 -0.0317663770
-0.0188125555 -0.0430000015 0.0272479161
0.0153197748 -0.0430000015 0.0311970652
0.0195649683 -0.0430000015 -0.0217394826
-0.0111288705 -0.0430000015 0.0278023916
-0.0196378494 -0.0430000015 -0.0219030068
0.0333229454 -0.0430000015 0.0013210498
0.0083188407 -0.0430000015 -0.0281412411
-0.0041430805 -0.0430000015 -0.0299473095
-0.0339996457 -0.0430000015 -0.0052084155
-0.0303650337 -0.0430000015 0.0114495672
-0.0092782704 -0.0404836090 -0.0336314823
-0.0245593547 -0.0356427469 0.0249123971
-0.0003811734 -0.0405466248 -0.0348170044
-0.0041448775 -0.0360744367 0.0347160191
-0.0178858575 -0.0314122564 0.0299611464
-0.0164012743 -0.0271341072 0.0308143409
-0.0307571027 -0.0362573133 0.0164915593
-0.0253417611 -0.0315708790 0.0240827077
-0.0343972555 -0.0352716044 0.0061144346
-0.0346806510 -0.0303491334 -0.0037619211
-0.0341849815 -0.0334031111 -0.0072850124
-0.0289134502 -0.0340518486 -0.0195331792
-0.0317378272 -0.0350019844 -0.0144667288
-0.0145918668 -0.0399880252 -0.0316754405
-0.0214239105 -0.0357080079 -0.0275823628
-0.0071145971 -0.0290481078 -0.0342278290
0.0249772198 -0.0372095329 -0.0240647980
0.0207969050 -0.0367423308 0.0200025008
-0.0075323341 -0.0384187705 0.0283808984
-0.0315847488 -0.0377343198 0.0075481635
-0.0094109760 -0.0365699860 -0.0331842826
0.0039374320 -0.0364107122 0.0021301327
-0.0044584174 -0.0356857521 -0.0004238604
-0.0085935209 -0.0439999960 0.0004691074
-0.0164111202 -0.0439999960 0.0058750107
-0.0052219419 -0.0439999960 -0.0265298409
-0.0030215713 -0.0439999960 -0.0091995905
-0.0170617293 -0.0439999960 -0.0196649015
-0.0193873660 -0.0439999960 0.0016146764
-0.0131622583 -0.0439999960 -0.0061132907
-0.0042188576 -0.0439999960 0.0050978402
-0.0140237190 -0.0439999960 0.0173285014
-0.0049344559 -0.0439999960 0.0105551863
0.0254933627 -0.0439999960 0.0067431882
-0.0002316938 -0.0439999960 0.0203103407
0.0039378392 -0.0439999960 0.0207795647
0.0097515250 -0.0439999960 0.0065317645
0.0152496466 -0.0439999960 0.0132492197
0.0133591388 -0.0439999960 -0.0080694581
0.0125054132 -0.0439999960 0.0019277706
0.0110703506 -0.0439999960 -0.0077324366
0.0052040464 -0.0439999960 -0.0058465039
0.0011433237 -0.0439999960 -0.0157443259
0.0101508440 -0.0439999960 -0.0244540063
-0.0275609605 -0.0434307165 -0.0010371074
0.0181402954 -0.0437953366 0.0205062829
0.0143963209 -0.0394767908 0.0270250488
-0.0272993606 -0.0411203859 0.0148096471
-0.0149099975 -0.0404987555 -0.0277872140
0.0154081449 -0.0414378413 -0.0256474551
0.0302884514 -0.0425726538 -0.0000058931
0.0382308202 -0.0270880220 -0.0003474688
0.0397268538 -0.0115131615 -0.0207661881
0.0278520363 -0.0115149297 -0.0352777832
-0.0306047604 -0.0115357590 0.0326281587
-0.0434611205 -0.0115744972 -0.0026700774
0.0434931895 -0.0116509715 -0.0053493925
-0.0422936787 -0.0116460941 -0.0120840773
-0.0398637980 -0.0284545529 -0.0002635164
-0.0200176865 -0.0285000000 -0.0395017181
0.0086413510 -0.0285000000 -0.0430486868
0.0375527022 -0.0283930487 -0.0178362037
0.0320632145 -0.0282889798 0.0290004713
0.0085348591 -0.0284586359 0.0437751468
-0.0349434667 -0.0283859305 0.0265900466
0.0412392624 -0.0237195333 0.0120123778
0.0178265978 -0.0239148566 -0.0358149873
0.0183751656 -0.0189471288 -0.0406786538
0.0277328069 -0.0231959397 -0.0328233729
0.0329141214 -0.0125880060 -0.0197009861
0.0420015978 -0.0157245710 -0.0085698693
0.0408544924 -0.0151361544 -0.0132383586
-0.0329159762 -0.0238809446 -0.0213850586
-0.0295707446 -0.0208412518 -0.0311463002
-0.0405441349 -0.0127526663 0.0027899621
-0.0400777645 -0.0203817614 -0.0155980802
-0.0423337238 -0.0157194791 -0.0071196203
-0.0348830623 -0.0172653190 0.0179313746
-0.0416680010 -0.0214065267 0.0104792751
-0.0178980654 -0.0182942222 0.0359131321
-0.0213073603 -0.0210675779 0.0329835940
-0.0289485112 -0.0194511395 0.0316983933
-0.0000895289 -0.0126664075 0.0385155838
-0.0162220643 -0.0147959662 0.0398832377
-0.0090538703 -0.0175509446 0.0419708734
0.0185455407 -0.0278275928 0.0339388582
0.0080546639 -0.0150463590 0.0421134225
0.0145953701 -0.0148425820 0.0404510565
0.0328608048 -0.0134188239 0.0214130253
0.0327213712 -0.0270271954 0.0279324406
-0.0184243623 -0.0272252240 -0.0338667586
-0.0109642888 -0.0275142408 -0.0413682326
0.0362015393 0.0334336313 -0.0276881772
-0.0222142373 0.0334628787 -0.0397159566
0.0362866438 -0.0038859556 -0.0717931946
0.0353523860 -0.0154677394 -0.0736080574
0.0325343584 -0.0240193595 -0.0747365134
0.0264143941 -0.0305867331 -0.0747396240
0.0057395013 -0.0356145196 -0.0712611375
0.0131075747 -0.0278524268 -0.0618806921
0.0053143872 -0.0312156000 -0.0635355464
0.0297176533 -0.0042890888 -0.0579167388
0.0213653788 -0.0206550289 -0.0537679145
0.0179485271 -0.0254547860 -0.0629103747
-0.0008205491 -0.0394528481 -0.0737988714
0.0085572970 -0.0305968574 -0.0635335447
-0.0404882814 -0.0076931001 -0.0751563336
-0.0168541423 -0.0289040774 -0.0679662619
-0.0235125685 -0.0305115810 -0.0737614547
-0.0111354983 -0.0348512574 -0.0716580832
-0.0095567180 -0.0289412509 -0.0583784897
-0.0050807145 -0.0311637626 -0.0633398884
-0.0311275451 -0.0058304954 -0.0640536299
-0.0289566900 -0.0113167016 -0.0623005482
-0.0371294801 -0.0130423413 -0.0741217729
-0.0208902273 -0.0250917667 -0.0663917217
-0.0194866493 -0.0235274780 -0.0593796669
0.0370176605 0.0052223978 -0.0728563435
0.0147518488 0.0303602357 -0.0680676139
0.0284280197 0.0275512398 -0.0742314220
0.0005109252 0.0304868927 -0.0569002946
0.0113094734 0.0303176865 -0.0659438762
0.0312048185 0.0002961421 -0.0625184644
0.0288864306 0.0111779190 -0.0617956802
0.0282009448 0.0144682452 -0.0637776507
0.0226074501 0.0205101705 -0.0596774853
0.0194197264 0.0250184566 -0.0643649934
0.0322661072 0.0170523757 -0.0719016315
-0.0177449583 0.0244194396 -0.0579250348
-0.0344668798 0.0098412639 -0.0711797005
-0.0325856832 0.0134942040 -0.0705019183
-0.0348952524 0.0127279202 -0.0723928988
-0.0255741451 0.0269774338 -0.0723027745
-0.0090100264 0.0319807737 -0.0671337998
-0.0233220141 0.0197179367 -0.0603958322
-0.0310041874 0.0077444394 -0.0651975168
-0.0158194813 0.0261620680 -0.0615864751
-0.0166722115 0.0251721703 -0.0582518045
-0.0189332904 0.0344757435 -0.0741882308
-0.0075675016 0.0299865263 -0.0619117828
0.0199022131 -0.0295495650 -0.0447567653
0.0152149635 -0.0264956814 -0.0522568249
0.0287560071 -0.0040559631 -0.0489295811
0.0282694415 -0.0070103962 -0.0454655106
0.0053915288 0.0307632325 -0.0514610225
0.0284975562 0.0058732963 -0.0503372120
0.0215386514 0.0204594604 -0.0544403426
-0.0170531001 -0.0266479733 -0.0495385653
-0.0290180678 0.0001840319 -0.0469430832
-0.0287489191 -0.0042313046 -0.0487657590
-0.0168519894 0.0277548004 -0.0479434227
-0.0156130518 0.0300440639 -0.0473753303
-0.0289329915 0.0041476273 -0.0518954064
-0.0276452004 0.0093946522 -0.0512015141
-0.0280164083 0.0317676976 -0.0388432666
-0.0485892711 0.0277856593 -0.0001405508
-0.0326805109 0.0250460252 -0.0364724949
-0.0494982892 0.0136405308 0.0024577737
-0.0402246594 0.0299116371 -0.0267446428
-0.0430829712 0.0190522076 -0.0241574598
-0.0485306937 0.0248332432 -0.0067365321
-0.0478808888 0.0123622911 0.0128772832
-0.0414042395 0.0288617890 0.0251679170
-0.0372422692 0.0139705779 0.0328229750
-0.0156158697 0.0201066402 0.0467412227
-0.0373011907 0.0115916025 -0.0328809226
-0.0393628036 0.0072643963 -0.0303610013
-0.0413949034 0.0151254915 -0.0273627764
-0.0445067116 0.0116529340 -0.0220594287
-0.0457695167 0.0203792942 -0.0182189121
-0.0473810670 0.0006921178 -0.0153835628
-0.0487285314 0.0180178366 -0.0083290780
-0.0490759378 0.0046178835 -0.0080584407
-0.0488915935 0.0256425179 -0.0011337743
-0.0494491209 0.0108099639 0.0058344451
-0.0464208633 0.0272078296 0.0145183064
-0.0441588482 0.0099411006 0.0227199156
-0.0447869267 0.0240261198 0.0200390589
-0.0405873014 -0.0029570960 0.0288787098
-0.0398380202 0.0201612307 0.0290805972
-0.0344902740 -0.0003604700 0.0359501129
-0.0332074094 0.0065263149 0.0370990963
-0.0330120574 0.0046964675 0.0372990997
-0.0274741492 0.0145044562 0.0413215259
-0.0264139724 0.0070066028 0.0421109590
-0.0232466702 -0.0009776229 0.0439924812
-0.0203780144 0.0278511386 0.0441963891
-0.0138142896 0.0010728279 0.0478250872
-0.0121214562 0.0284196523 0.0470233347
-0.0058428595 0.0047327413 0.0494262872
-0.0002318311 0.0203159425 0.0493065837
-0.0309241862 0.0215973197 -0.0384138139
-0.0299804110 0.0018805349 -0.0415976889
-0.0193377572 0.0231446429 -0.0522742360
-0.0307059344 -0.0025730665 -0.0401651118
-0.0453771428 0.0302962120 0.0159646417
-0.0407906830 0.0327856036 -0.0241492872
-0.0313259162 0.0327203012 0.0354681131
-0.0406914032 0.0331008646 -0.0220094953
-0.0189672866 0.0330235868 -0.0429146753
-0.0066427381 -0.0289645362 0.0479574832
-0.0460249990 -0.0311756037 0.0138207422
-0.0403535495 -0.0310785055 -0.0260518253
-0.0122793145 -0.0252772063 0.0473704399
-0.0291189692 -0.0287585418 0.0388409964
-0.0439765010 -0.0293594095 0.0202013387
-0.0490150076 -0.0246230398 -0.0003709114
-0.0455363263 -0.0236892933 -0.0183851448
-0.0373240428 -0.0245554764 -0.0316284641
-0.0163244736 -0.0240030821 0.0462765300
-0.0378685228 -0.0239710587 0.0312124279
-0.0494007878 -0.0183039366 0.0019116739
-0.0447061001 -0.0215662411 -0.0208088932
-0.0053959793 -0.0152869525 0.0493125218
-0.0167039705 -0.0126129812 0.0467920706
-0.0246189022 -0.0136600115 0.0430118895
-0.0319751944 -0.0142181286 0.0379482924
-0.0417763522 -0.0147249289 0.0266587034
-0.0453776568 -0.0061087573 0.0204869687
-0.0487396950 -0.0137029249 0.0094556817
-0.0493335472 -0.0175610993 -0.0035615201
-0.0485945021 -0.0133418953 -0.0097030717
-0.0449225432 -0.0104576529 -0.0212323358
-0.0394913459 -0.0106658205 -0.0300714933
-0.0064468053 -0.0033633341 0.0493923404
-0.0334431198 -0.0012909379 0.0369864686
-0.0468993067 -0.0043415021 0.0165902655
-0.0488471668 -0.0034493323 0.0096819761
-0.0497369561 -0.0053793392 0.0010237523
-0.0429112280 -0.0058249408 -0.0252237462
-0.0329634924 -0.0137176013 -0.0372051548
-0.0271285610 -0.0234627015 -0.0411448532
-0.0191746440 -0.0243690762 -0.0491691501
-0.0314728769 -0.0049814639 -0.0392489420
-0.0381056606 -0.0322898038 0.0285555907
-0.0461708449 -0.0325258077 -0.0103500225
-0.0336187417 -0.0330050074 -0.0319522743
-0.0463169529 -0.0331698380 0.0016849546
-0.0368275065 -0.0334139348 0.0272139007
-0.0145263070 -0.0333137809 -0.0434875723
-0.0004501612 0.0317506977 0.0479280224
0.0460372437 0.0315873821 -0.0137002098
0.0050866890 0.0295464916 0.0481191929
0.0116963711 0.0215794725 0.0478536886
0.0181262727 0.0155297718 0.0461603762
0.0330337377 0.0238158444 0.0362985406
0.0450317500 0.0190083980 0.0202083812
0.0495729329 0.0135619745 0.0015527094
0.0497280542 0.0086874854 0.0007695887
0.0461909961 0.0178555766 -0.0177211542
0.0418343209 0.0201502313 -0.0261724445
0.0047572433 0.0012369242 0.0496281692
0.0054494177 0.0265938934 0.0485531471
0.0157507913 0.0116769850 0.0470714998
0.0210005336 -0.0030204973 0.0451615757
0.0222748725 0.0078173369 0.0444397510
0.0225585733 0.0286643978 0.0429701294
0.0297054480 0.0013723325 0.0399832797
0.0325505790 0.0108405580 0.0375512604
0.0379592687 0.0008019172 0.0322245881
0.0403615953 0.0237587324 0.0279401107
0.0433749534 0.0156439691 0.0240230925
0.0432232652 0.0066963999 0.0245869004
0.0471446277 0.0117125886 0.0156303993
0.0453857756 0.0318222829 0.0152620481
0.0479999158 0.0083765268 0.0128024050
0.0488619162 0.0134692477 0.0089272202
0.0494761923 0.0039586804 0.0056791929
0.0493781735 0.0160059342 -0.0042274682
0.0489821131 0.0048506349 -0.0088842486
0.0475977292 0.0218978309 -0.0124088629
0.0462760813 -0.0002440364 -0.0184197111
0.0451537236 0.0153025497 -0.0205527502
0.0384222559 0.0289926027 -0.0295450971
0.0357718353 0.0292429427 -0.0326461894
0.0182176864 0.0311082470 -0.0449438020
0.0374833866 0.0027673333 -0.0327874707
0.0295299986 0.0216639885 -0.0395491713
0.0224531906 0.0208723248 -0.0484174936
0.0314197672 -0.0010930685 -0.0395521405
0.0389113136 0.0317670429 -0.0278818234
0.0406714607 0.0304769417 0.0258656194
0.0227280237 0.0322036789 0.0418773107
0.0158284471 0.0333187387 0.0425206804
0.0283523896 0.0332995130 -0.0367709644
0.0013574504 0.0333999861 -0.0469369141
0.0444755099 -0.0297243196 -0.0191178130
0.0398835344 -0.0289432117 0.0276013130
0.0004219921 -0.0229330054 0.0491559669
0.0241517022 -0.0224278227 0.0428251870
0.0361108721 -0.0252643008 0.0330778927
0.0471583319 -0.0260069229 0.0126907002
0.0447613188 -0.0273836395 -0.0191646407
0.0340466397 -0.0239224094 -0.0353353341
0.0065093679 -0.0213078175 0.0488234475
0.0347068473 -0.0214603729 0.0349669585
0.0425011361 -0.0186090886 0.0252265742
0.0483088757 -0.0170072893 -0.0107399745
0.0453416673 -0.0213937772 -0.0193624811
0.0326258399 -0.0160197575 -0.0373674787
0.0101326283 -0.0170012690 0.0484421155
0.0205526095 -0.0184450834 0.0449421453
0.0259645031 -0.0195767538 0.0420313866
0.0377338548 -0.0145761353 0.0321668175
0.0454037460 -0.0174506761 0.0196136907
0.0476039743 -0.0097223182 0.0142825313
0.0486495911 -0.0191646281 0.0085069688
0.0456848146 -0.0157574991 -0.0191300636
0.0403200718 -0.0088590916 -0.0290103801
0.0037283527 -0.0104142593 0.0495768917
0.0146976119 -0.0078603172 0.0474997155
0.0391685992 0.0019967146 0.0307770259
0.0416269369 0.0034532233 0.0273554994
0.0497860176 -0.0083263737 0.0012572375
0.0491700463 -0.0137093384 -0.0070878009
0.0481438426 -0.0005209438 -0.0129297404
0.0448684086 -0.0025208136 -0.0216146964
0.0253703033 -0.0151833117 -0.0485997100
0.0336408530 -0.0148567411 -0.0365014269
0.0292702028 -0.0062006298 -0.0427825135
0.0290192040 -0.0164512042 -0.0407513583
0.0333520170 -0.0330247538 -0.0327694029
0.0019291725 -0.0328049528 0.0470490692
0.0334890944 -0.0313382704 0.0344392193
0.0468388780 -0.0327603492 0.0061409810
0.0397826916 -0.0332099008 -0.0220088437
0.0211106844 -0.0328391868 -0.0422293050
0.0324158525 -0.0254456373 -0.0756326617
0.0232877713 0.0337731973 -0.0760740084
-0.0409022290 -0.0050211627 -0.0753304773
-0.0032642790 -0.0396520186 -0.0769999996
-0.0407509476 0.0022772846 -0.0768841085
-0.0026406759 0.0409086418 -0.0768136073
0.0387279839 0.0071360204 -0.0769353337
0.0182861519 -0.0348616853 -0.0769999996
0.0348355646 0.0174442779 -0.0804858690
0.0002898151 0.0388273192 -0.0861886457
-0.0161334565 0.0354724129 -0.0834583606
-0.0388285322 -0.0001346832 -0.0798292299
-0.0319574026 -0.0222824722 -0.0840054521
-0.0049721357 -0.0385686059 -0.0846148330
0.0235941227 -0.0307109853 -0.0869829178
0.0070985987 -0.0382803641 -0.0793124838
0.0289436464 -0.0260193036 -0.0853973125
0.0363237323 -0.0140273683 -0.0791970442
0.0358661059 0.0151323942 -0.0823177898
0.0309507769 0.0236431850 -0.0804938020
0.0060363563 0.0384159202 -0.0794102991
-0.0148092769 0.0360464181 -0.0848579982
-0.0239250709 0.0305812679 -0.0866790641
-0.0289219289 0.0260181194 -0.0838627004
-0.0364869512 0.0136072623 -0.0815942823
-0.0374240337 -0.0103670783 -0.0861915638
-0.0300106671 -0.0249029035 -0.0787491334
-0.0133360198 -0.0366218312 -0.0852730271
-0.0209519324 -0.0321497631 -0.0873077545
-0.0373597439 0.0058022712 -0.0875000134
-0.0221710939 0.0287377524 -0.0875000134
0.0139391548 0.0334784861 -0.0873731261
0.0357284901 0.0079590360 -0.0873315348
0.0303806193 -0.0218027686 -0.0874786637
0.0250988650 -0.0296864220 -0.0371069896
0.0058469991 -0.0320900018 -0.0444183429
-0.0241110599 -0.0303840387 -0.0379162325
-0.0384800403 -0.0323808716 -0.0232722144
-0.0445559046 -0.0296582664 -0.0044231443
-0.0420109055 -0.0303404514 0.0154445423
-0.0231980524 -0.0324094790 0.0385550673
0.0027597200 -0.0296698125 0.0447303059
0.0226545431 -0.0294104809 0.0386456340
0.0380393395 -0.0307379982 0.0236173533
0.0448482663 -0.0296786143 0.0006654294
0.0360045099 -0.0291586268 -0.0266818989
0.0169748584 0.0205463449 -0.0492238527
0.0240324655 0.0101626194 -0.0425804534
0.0220015738 0.0144903400 -0.0454163686
0.0261590368 0.0016482171 -0.0525280155
0.0175794633 0.0203372476 -0.0540955309
0.0030546037 0.0273207212 -0.0554286334
0.0059071586 0.0284862133 -0.0710203978
0.0267810368 0.0125774684 -0.0748826980
0.0206134890 0.0195921701 -0.0684275545
0.0149721060 0.0233093806 -0.0603767070
0.0086621206 0.0255344938 -0.0510607649
0.0251157802 0.0086684056 -0.0531007732
0.0210418503 0.0183352929 -0.0647813403
-0.0054574186 0.0261511717 -0.0478147841
-0.0122166319 0.0265218171 -0.0719659370
-0.0260079660 0.0013228103 -0.0460881308
-0.0193924285 0.0178611508 -0.0427911699
-0.0123175988 0.0238713568 -0.0509270291
-0.0017571059 0.0267389247 -0.0494117654
0.0007986187 0.0270167135 -0.0499528145
-0.0264187854 0.0090574147 -0.0663053673
-0.0237127849 0.0144003323 -0.0641641260
-0.0204514436 0.0203262071 -0.0706234466
-0.0249843557 0.0087062464 -0.0524350392
-0.0219551589 0.0155376955 -0.0553266773
-0.0079251631 0.0263643528 -0.0578719535
-0.0012068235 -0.0335775331 -0.0769519763
-0.0161215995 0.0275118560 -0.0769523053
-0.0231880274 -0.0225527799 -0.0769402336
0.0228214279 0.0227936896 -0.0769792082
0.0327557052 0.0093454828 -0.0769999996
0.0023088831 -0.0288274307 -0.0688238908
0.0273374574 -0.0075054777 -0.0690755673
0.0199695360 -0.0171717772 -0.0414104987
0.0170477597 -0.0206028877 -0.0503862020
0.0096762316 -0.0250289232 -0.0477773068
0.0255952946 -0.0054452726 -0.0493109855
0.0260061332 -0.0018364353 -0.0434760227
0.0107064971 -0.0251409449 -0.0555121480
0.0263653307 -0.0038820772 -0.0572880550
0.0240720213 -0.0135677040 -0.0621903376
0.0205363807 -0.0195639105 -0.0673579765
0.0197216183 -0.0180928090 -0.0543896462
0.0135740279 -0.0236388141 -0.0564970104
0.0073670748 -0.0284629985 -0.0724915053
-0.0285646908 -0.0015153242 -0.0702906459
-0.0174011918 -0.0199984908 -0.0432397471
-0.0219757651 -0.0145132652 -0.0428817787
-0.0258800792 -0.0010277780 -0.0410751952
-0.0099469407 -0.0256767456 -0.0568182245
-0.0243200532 -0.0105261806 -0.0525431860
-0.0034974155 -0.0290928661 -0.0723278714
-0.0008860414 -0.0273594205 -0.0526280179
-0.0048495762 -0.0268663117 -0.0533001812
-0.0268338699 -0.0054766635 -0.0626639394
-0.0245114253 -0.0136258617 -0.0679634209
-0.0164928943 -0.0236316251 -0.0686674588
-0.0071155799 -0.0268524785 -0.0587419074
-0.0182219078 -0.0203348236 -0.0568400815
0.0349080108 -0.0018981295 -0.0774810631
-0.0207014449 0.0285620105 -0.0872359485
-0.0300392879 -0.0180574744 -0.0844136592
0.0305856598 -0.0169794968 -0.0813676983
-0.0053633258 -0.0345849950 -0.0813949925
-0.0142991164 -0.0319911796 -0.0866042815
-0.0268881333 -0.0224135930 -0.0825921546
-0.0339711464 -0.0088058984 -0.0870444012
-0.0327964146 0.0119262782 -0.0803957439
-0.0288087952 0.0197522639 -0.0820540376
-0.0222124513 0.0270423664 -0.0809121252
-0.0081853304 0.0340917329 -0.0825661261
0.0033865150 0.0347596505 -0.0798164286
0.0197750865 0.0287784086 -0.0799700804
0.0279241289 0.0209318889 -0.0811175180
0.0329247159 0.0115690492 -0.0854741820
0.0338592876 -0.0084849950 -0.0790185732
0.0254140369 -0.0239347016 -0.0771557334
0.0182134468 -0.0297872812 -0.0776839632
0.0057594600 -0.0344922961 -0.0777353770
-0.0301501340 0.0024101740 -0.0765220396
-0.0233156546 0.0187793384 -0.0753826075
-0.0144985592 -0.0266133385 -0.0761867339
0.0309787797 0.0122121477 -0.0769879003
0.0135411742 0.0267729878 -0.0757008129
0.0246769619 -0.0220844724 -0.0768717494
0.0239928483 -0.0158537008 -0.0695680139
0.0290729610 -0.0103381313 -0.0766116302
0.0221081536 0.0282228937 -0.0391311168
0.0255183243 0.0268270793 -0.0369137304
0.0121528058 0.0245562599 -0.0433274895
0.0052359941 0.0270924765 -0.0446036156
-0.0157173333 0.0266499503 -0.0421074280
-0.0199825940 0.0184410883 -0.0402669003
-0.0277942875 0.0274234843 -0.0353577453
-0.0249994539 0.0195687038 -0.0373194594
-0.0305620271 -0.0096415012 -0.0328868533
-0.0314451072 -0.0024969463 -0.0320621151
-0.0305685350 0.0275380834 -0.0328807753
-0.0339515837 -0.0105959214 -0.0294071134
-0.0360473876 0.0259854742 -0.0268310179
-0.0391013463 -0.0044401268 -0.0221064334
-0.0386081864 -0.0096984347 -0.0229173998
-0.0382402866 0.0193237648 -0.0235223850
-0.0410852722 -0.0000207375 -0.0181004004
-0.0411665225 0.0139195902 -0.0179133430
-0.0429480895 0.0040660926 -0.0131196400
-0.0425071447 0.0251478116 -0.0146933925
-0.0429027917 0.0253327477 -0.0132813098
-0.0442948227 0.0129245017 -0.0074382074
-0.0444771484 0.0298546911 -0.0061116853
-0.0448950939 -0.0063469976 -0.0008068370
-0.0448950939 0.0047959917 0.0007790625
-0.0448950939 0.0049858334 0.0012792768
-0.0446392044 0.0024454785 0.0049326474
-0.0441203008 -0.0051267667 0.0087079461
-0.0435610503 0.0059803046 0.0109319450
-0.0431778217 -0.0104366737 0.0122997057
-0.0426889320 0.0252109540 0.0140445759
-0.0417584216 0.0089680506 0.0165506432
-0.0410380985 0.0159041015 0.0182089949
-0.0379389800 -0.0066587487 0.0240178511
-0.0394801324 -0.0092972744 0.0214835353
-0.0384736550 0.0283255375 0.0231386161
-0.0354623285 0.0121883508 0.0275501427
-0.0345517834 0.0137585442 0.0286693557
-0.0327705894 0.0276580806 0.0308241917
-0.0322261781 0.0038596511 0.0313326361
-0.0304079883 0.0235646427 0.0330307061
-0.0278144331 0.0198875242 0.0353196107
-0.0247653918 0.0148590585 0.0374718543
-0.0222212531 0.0144205937 0.0390499454
-0.0232520122 0.0104173017 0.0385158469
-0.0227360827 0.0293033649 0.0387831811
-0.0173028066 0.0106488790 0.0414967261
-0.0122201819 0.0203628410 0.0433030984
-0.0098559275 0.0005854707 0.0438061017
-0.0118773185 0.0211141494 0.0433860545
-0.0072692118 0.0267007605 0.0443436240
-0.0053572734 0.0213773227 0.0446335589
-0.0024886063 0.0188036241 0.0448297846
0.0002599060 0.0145274037 0.0449822346
0.0000268504 0.0282942394 0.0449981763
0.0053768826 0.0066694931 0.0446322176
0.0085565373 -0.0082300933 0.0440761164
0.0109900050 0.0233908785 0.0435704392
0.0142071800 -0.0061967656 0.0425969163
0.0150089803 0.0073310724 0.0423119553
0.0172861871 -0.0040642364 0.0415026327
0.0218612476 -0.0093712798 0.0392364861
0.0209492165 0.0094736418 0.0397090645
0.0254769596 0.0044322085 0.0369695760
0.0264318351 -0.0101808635 0.0362955527
0.0283277251 0.0015514288 0.0349572904
0.0288514677 -0.0076322506 0.0344843943
0.0305382037 0.0322465586 0.0329090934
0.0328409518 0.0034284357 0.0307584778
0.0350120451 -0.0059372044 0.0281036167
0.0348621936 0.0256378239 0.0282878094
0.0388421792 0.0037791785 0.0225326041
0.0372376363 0.0276515997 0.0251711612
0.0398183180 0.0236091098 0.0209274131
0.0402561304 0.0050835027 0.0200092675
0.0422783731 0.0299795523 0.0153535938
0.0430840534 -0.0026222773 0.0126343690
0.0426239990 0.0315470901 0.0142763244
0.0438058307 0.0198238393 0.0100583125
0.0441439874 0.0201404574 0.0085356132
0.0445988817 0.0302187672 0.0052260168
0.0448950939 0.0059580733 -0.0005329046
0.0448950939 0.0291013057 -0.0030009582
0.0448950939 0.0284191507 -0.0002988408
0.0445273280 0.0032185243 -0.0057466005
0.0441731117 -0.0015056771 -0.0083237238
0.0439191985 0.0139383701 -0.0096537065
0.0427369201 -0.0023673774 -0.0138733133
0.0431514870 0.0153667627 -0.0123937046
0.0407169115 -0.0089622436 -0.0189484527
0.0402278929 -0.0026209907 -0.0200742878
0.0397352621 0.0221599031 -0.0210640038
0.0383386387 0.0236896625 -0.0233606519
0.0388640356 0.0278527187 -0.0224966741
0.0366178420 0.0026079324 -0.0261298335
0.0340815946 0.0201396202 -0.0292473080
0.0317311943 -0.0020581937 -0.0317949287
0.0312520105 0.0266136233 -0.0322424545
0.0284754084 -0.0069762012 -0.0348356165
-0.0175768575 -0.0246814827 -0.0383391722
-0.0343439145 -0.0144872153 -0.0255388873
-0.0392347120 -0.0244654375 -0.0168852487
-0.0405109517 -0.0190433634 0.0028251478
-0.0392702390 -0.0134186045 0.0170597814
-0.0232327983 -0.0236858539 0.0339356353
-0.0029562520 -0.0199175609 0.0406164349
0.0051057818 -0.0226094099 0.0425760599
0.0176774378 -0.0276409925 0.0377988176
0.0343856216 -0.0273703406 0.0237748393
0.0230109182 -0.0206150841 -0.0337231455
0.0396639580 -0.0242145987 -0.0164280322
0.0420232408 -0.0174919624 0.0042201871
0.0424321777 -0.0227524954 -0.0047479178
0.0358509600 -0.0246320566 -0.0215097204
0.0346265212 -0.0215012339 0.0211723223
0.0002704405 -0.0198317999 0.0419300127
-0.0193063573 -0.0267808169 0.0357183363
-0.0410784780 -0.0210139342 -0.0011760984
-0.0216714810 -0.0266924050 -0.0353390501
0.0321704743 0.0165461626 -0.0834342159
0.0198679922 0.0318715686 -0.0801706146
-0.0169149713 0.0325421231 -0.0822461913
-0.0333052999 0.0190536793 -0.0850385510
-0.0316332755 -0.0188095608 -0.0847126012
-0.0205450595 -0.0315600387 -0.0842143812
0.0174980722 -0.0344435117 -0.0810597302
0.0034509593 -0.0331784665 -0.0452886171
-0.0139062428 -0.0330388842 0.0426194259
0.0387476543 -0.0281017790 0.0002499942
0.0021962150 -0.0406554231 -0.0769302505
0.0269198607 0.0269688296 -0.0874427311
-0.0362775397 -0.0130860361 -0.0870949764
0.0302616231 0.0176318355 -0.0873026973
0.0332577428 -0.0263300030 0.0098021055
-0.0333029336 -0.0210205121 -0.0093686978
-0.0264140090 -0.0248996338 -0.0228834363
-0.0019579316 -0.0218287658 -0.0346887829
0.0207243054 -0.0230991840 -0.0281504126
0.0306789398 -0.0259820448 -0.0162269872
0.0347976072 -0.0254420540 0.0003290775
0.0221000855 -0.0262875249 0.0269977788
0.0135697023 -0.0257488921 0.0320773244
-0.0089479284 -0.0206032485 0.0335457220
-0.0273073096 -0.0217419778 0.0218334101
-0.0345883358 -0.0264815830 0.0048660120
-0.0279053696 -0.0335000008 -0.0225217953
-0.0164279195 -0.0335000008 -0.0333173578
0.0212342315 -0.0335000008 -0.0317226481
0.0379437621 -0.0335000008 -0.0165542561
0.0389031462 -0.0335000008 -0.0073776534
0.0142716561 -0.0335000008 0.0333137228
0.0095243241 -0.0335000008 0.0344367749
-0.0293215215 -0.0335000008 0.0200137588
-0.0401961589 -0.0335000008 0.0147021932
-0.0404734745 -0.0335000008 0.0013948977
-0.0208572059 -0.0335000008 0.0328717474
-0.0048986851 -0.0335000008 0.0402220267
-0.0041398112 -0.0335000008 0.0373509034
0.0313604402 -0.0335000008 0.0266972672
0.0321511936 -0.0335000008 0.0278451293
0.0246489192 -0.0335000008 -0.0314317673
0.0033942108 -0.0335000008 -0.0413437987
-0.0313524960 -0.0335000008 -0.0292339105
-0.0384629796 -0.0301552185 -0.0229507480
-0.0197485078 -0.0320080429 -0.0403087209
0.0061897759 -0.0317652581 -0.0444374815
0.0328253918 -0.0293151147 -0.0304807603
0.0431124053 -0.0326659276 -0.0125854829
0.0411315993 -0.0318012522 0.0177091420
0.0238302481 -0.0303336175 0.0380166151
-0.0095349823 -0.0296622375 0.0437715461
-0.0267266475 -0.0321294849 0.0359281811
-0.0438015921 -0.0315838178 0.0101524553
-0.0424325978 -0.0317784989 -0.0146706304
0.0121903559 -0.0286436735 0.0426875022
-0.0296168648 -0.0286411290 -0.0329562860
-0.0340753612 -0.0331711302 -0.0285577007
0.0224040365 -0.0331217805 0.0383085215
0.0161545043 -0.0331145614 -0.0416072515
-0.0214969127 -0.0292028778 -0.0364463263
0.0219355869 -0.0326421647 -0.0357985915
0.0402389609 -0.0334663721 0.0005518868
0.0008419956 -0.0316729569 0.0397509647
-0.0344401617 -0.0304680868 0.0211901113
-0.0440274572 -0.0286800120 0.0035211165
-0.0051931790 -0.0285000000 0.0398304743
-0.0325816383 -0.0285000000 -0.0204261527
-0.0182932056 -0.0285000000 -0.0366653116
-0.0235579488 -0.0285000000 0.0332572708
0.0389739663 -0.0285000000 0.0170582565
0.0406651801 -0.0285000000 -0.0034285733
0.0338860322 -0.0285000000 -0.0223199512
0.0132440910 -0.0285000000 -0.0385670997
0.0040709466 -0.0285000000 -0.0419285567
-0.0326408564 -0.0265768250 0.0212391453
-0.0221286204 -0.0261762943 0.0329604627
0.0185575442 -0.0202004330 0.0336351858
0.0382535659 -0.0239987751 -0.0008219410
0.0175889688 -0.0225149162 -0.0351278116
0.0014137924 -0.0245009353 -0.0386718520
-0.0329108551 -0.0273706956 -0.0193162398
-0.0370441445 -0.0274446198 -0.0148045105
0.0361422729 -0.0197059650 0.0150795914
-0.0177783664 -0.0195000004 -0.0337202077
-0.0009647229 -0.0195000004 -0.0382214768
0.0296669531 -0.0195000004 0.0242364041
-0.0355443821 -0.0195000004 0.0085957962
-0.0224843990 -0.0195000004 0.0315043153
-0.0091112844 -0.0195560736 0.0367433497
-0.0242266259 -0.0252972828 -0.0317436911
-0.0160702664 -0.0254995403 -0.0365614312
0.0125972044 -0.0217223024 -0.0379450116
0.0275770424 -0.0272181420 -0.0287699133
0.0368439159 -0.0265407629 -0.0153562625
0.0393407095 -0.0200337871 0.0054679934
0.0289545897 -0.0199772946 0.0265691639
0.0232941254 -0.0250648225 0.0324315057
0.0068783602 -0.0241244355 0.0393517520
-0.0124864638 -0.0262090587 0.0379613212
-0.0227268782 -0.0236910142 0.0328928780
-0.0386188449 -0.0260554210 0.0102065292
-0.0371105082 -0.0245359110 0.0121218949
0.0076055349 -0.0233056036 0.0375659989
0.0274569928 -0.0255551494 -0.0285634963
0.0316500552 -0.0196706154 0.0160808821
-0.0304362115 -0.0200789877 0.0176192239
0.0020721045 -0.0195914769 -0.0355244624
-0.0249324269 -0.0235257658 -0.0269010065
0.0258905908 -0.0244871140 -0.0272911401
0.0077625533 -0.0237921357 0.0346209279
-0.0352864924 -0.0231267943 0.0108048442
0.0281815695 -0.0247847059 -0.0255585463
-0.0281660859 -0.0312569777 -0.0215900411
-0.0159338610 -0.0334097141 -0.0318706136
0.0028016376 -0.0328337749 -0.0355849183
0.0178312893 -0.0329562889 -0.0307002915
0.0326678089 -0.0325909840 -0.0143096210
0.0353862559 -0.0330858138 0.0038361912
0.0282187773 -0.0332700697 0.0216942383
0.0137872730 -0.0293658446 0.0327476081
-0.0015221494 -0.0312935408 0.0355801082
-0.0190569801 -0.0324169570 0.0300919674
-0.0318137786 -0.0326475610 0.0160681922
-0.0353848309 -0.0333616074 0.0035398068
-0.0095664955 -0.0270138169 0.0332967867
-0.0004924315 -0.0274175547 -0.0354274888
