-0.0091075537 0.0083014119 0.1290636404
-0.0089237366 0.0080113615 0.1292647939
-0.0022961143 0.0096032767 0.1258866040
0.0003342423 0.0056486787 0.1283933222
-0.0052268643 0.0053621835 0.1323699895
0.0007211269 0.0145114684 0.1288657022
-0.0029146848 0.0142288072 0.1334285405
-0.0071566154 0.0103374305 0.1331346757
0.0083079589 0.0131550867 0.1525084119
-0.0079850223 0.0111537255 0.1437951849
0.0002460946 0.0118445491 0.1407331795
0.0079999994 0.0104345309 0.1560896113
-0.0016425970 0.0087300911 0.1629533282
0.0082746508 0.0136084352 0.1934516252
-0.0078308461 0.0138870078 0.1937792216
0.0120000001 0.0085618460 0.1531891898
0.0119094542 0.0153240743 0.1940394940
0.0120000001 0.0100470854 0.1841808327
0.0103428945 0.0168434234 0.1940821412
0.0095903042 0.0087146522 0.2010178534
0.0072308854 0.0163745314 0.1955375601
-0.0021622619 0.0134685724 0.1706025097
-0.0069999993 0.0118649601 0.1788831782
0.0003139255 0.0082417055 0.1707017616
0.0092635788 0.0149398222 0.1901092992
-0.0082840962 0.0117757177 0.2016355675
0.0076353736 0.0078413082 0.1615663201
-0.0114848269 0.0081285196 0.1764973095
0.0079091523 0.0075158961 0.1410273527
-0.0028235382 0.0079697059 0.1682412153
0.0094312489 0.0075151529 0.1441137018
-0.0070054044 0.0074783021 0.1400118552
0.0109125654 0.0071310631 0.1371457531
0.0088205601 0.0131482168 0.1364479915
-0.0056953685 0.0133772200 0.1633803344
-0.0099121131 0.0131571612 0.1519403370
-0.0106701842 0.0129522111 0.1419778973
0.0111420084 0.0130091025 0.1442433208
-0.0016263291 0.0135142812 0.1705056094
-0.0116079506 0.0079869905 0.1635267498
-0.0120000001 0.0130489871 0.1836186334
-0.0120000001 0.0089351377 0.1748896610
-0.0120000001 0.0103905061 0.1372494051
-0.0118015572 0.0075836226 0.1315041882
0.0192764714 -0.0150785069 0.0060000001
0.0136076268 -0.0145115033 0.0060000001
0.0178381396 0.0106400180 0.0060000001
-0.0182470718 -0.0006063585 0.0060000001
-0.0132828451 -0.0041018717 0.0060000001
-0.0147705424 -0.0000551959 0.0060000001
-0.0123344407 -0.0093013585 0.0060000001
-0.0005606207 0.0247610637 0.0060000001
-0.0044887767 -0.0003668096 0.0060000001
0.0010747635 -0.0078259802 0.0060000001
0.0019012063 -0.0093894046 0.0060000001
-0.0105900054 -0.0213376975 0.0060000001
-0.0087831663 0.0161366215 0.0060000001
0.0047039734 0.0029733334 0.0060000001
0.0013598529 0.0131509670 0.0060000001
0.0122764513 -0.0027354497 0.0060000001
0.0084274255 0.0027386321 0.0060000001
-0.0047584724 0.0220288171 0.0060000001
-0.0157080856 0.0204347319 0.0066196383
-0.0124308697 0.0231330678 0.0074921414
-0.0072019870 0.0230038066 0.0074999998
0.0110770229 0.0152860503 0.0074999998
-0.0146186133 0.0176711762 0.0074999998
0.0173098664 -0.0069461251 0.0074999998
0.0200487834 -0.0176126569 0.0074999998
-0.0172336701 -0.0034643066 0.0074999998
0.0155282296 -0.0057834130 0.0074999998
-0.0112722266 -0.0220629287 0.0074999998
0.0050853025 0.0044785679 0.0074999998
-0.0041146611 0.0125633192 0.0074999998
0.0040118041 0.0164586200 0.0074999998
0.0099277765 -0.0162055048 0.0074999998
-0.0116225935 -0.0078887829 0.0074999998
-0.0085024655 -0.0157678248 0.0074999998
-0.0031580743 0.0025724187 0.0074999998
0.0069797569 -0.0197268218 0.0074999998
-0.0024902083 -0.0056192744 0.0074999998
0.0060402595 -0.0139601595 0.0074999998
-0.0205000006 0.0164645572 0.0073512068
0.0203000009 0.0114351661 0.0074266961
-0.0019007258 -0.0088924659 0.1286051959
0.0021492738 -0.0110637705 0.1286750962
0.0075248802 -0.0099248302 0.1259927159
0.0041577641 -0.0141387335 0.1280694325
-0.0027451798 -0.0144083020 0.1330013085
0.0076562241 -0.0053180317 0.1293190714
-0.0039446702 -0.0051256504 0.1317429495
0.0078179712 -0.0099441582 0.1331813587
0.0004385200 -0.0123792525 0.1314033946
-0.0057323981 -0.0085945090 0.1624666760
-0.0079939759 -0.0105514890 0.1431459387
0.0079999994 -0.0086795397 0.1540962008
0.0030744957 -0.0090450606 0.1627937649
0.0101640328 -0.0078407515 0.1964998186
-0.0073412681 -0.0079586371 0.1962476039
0.0120000001 -0.0120855677 0.1434826143
0.0115384423 -0.0127545175 0.1269108462
0.0120000001 -0.0109822628 0.1647936770
0.0118057972 -0.0079070302 0.1969378304
0.0083935886 -0.0165957463 0.1975588216
0.0069860312 -0.0114177743 0.1881276132
-0.0018489070 -0.0116126718 0.1707017686
-0.0069999993 -0.0092653631 0.1768956378
-0.0072606155 -0.0165121558 0.1936307325
0.0075424125 -0.0074100394 0.1897671610
-0.0097792380 -0.0073596485 0.1998411050
0.0114655594 -0.0138100295 0.1858895323
-0.0111970642 -0.0134780471 0.1686282373
-0.0081791823 -0.0137037596 0.1803640886
-0.0039167331 -0.0134700677 0.1682133802
0.0097507395 -0.0129441296 0.1412264928
-0.0009796864 -0.0129138310 0.1383924611
0.0042973603 -0.0130902498 0.1369912387
0.0024831114 -0.0069998427 0.1363869316
-0.0096995849 -0.0081444489 0.1773331526
-0.0010558706 -0.0078836090 0.1637708516
-0.0084355580 -0.0076412423 0.1473773532
0.0095307942 -0.0077651028 0.1576091918
0.0079013534 -0.0081928019 0.1798472557
-0.0115416247 -0.0144233168 0.1878713877
-0.0120000001 -0.0093206765 0.1601095093
-0.0120000001 -0.0120120560 0.1898032834
-0.0120000001 -0.0090919243 0.1409594622
-0.0120000001 -0.0118899971 0.1665562999
-0.0063633327 -0.0072488496 0.1161655780
0.0074657326 -0.0156192215 0.1079739250
-0.0120000001 -0.0227980438 0.1771234351
-0.0120000001 -0.0230438926 0.1612288669
-0.0117281769 -0.0190348199 0.1839455796
-0.0120000001 -0.0140816852 0.1078542166
-0.0120000001 -0.0212037651 0.1357887097
-0.0120000001 -0.0127345704 0.1198183178
-0.0116063584 -0.0257801012 0.1831149408
0.0052102652 -0.0087855392 0.1198005145
-0.0015027747 -0.0127473307 0.1252254628
-0.0017838349 -0.0104259538 0.1227864983
0.0030658087 -0.0210601348 0.1089201818
0.0085911615 -0.0251481176 0.1111367591
0.0098579455 -0.0268845761 0.1156027968
0.0113253434 -0.0163456368 0.1276319252
0.0108653189 -0.0189018899 0.1689337809
0.0101939592 -0.0185176958 0.1422660136
-0.0105195058 -0.0187764612 0.1573020235
-0.0085609943 -0.0252295215 0.1745233299
0.0011366578 -0.0243982015 0.1691093264
0.0000593039 -0.0189008614 0.1688942359
-0.0081968451 -0.0265059219 0.1257698052
0.0045768534 -0.0266743611 0.1224426746
-0.0053266602 -0.0263656479 0.1285406000
-0.0084343702 -0.0245218643 0.1654327819
-0.0111299467 -0.0245000437 0.1663611263
0.0113060542 -0.0257609599 0.1404848279
-0.0028130789 -0.0244157270 0.1676059756
-0.0074489401 -0.0198528200 0.1862196783
0.0119336284 -0.0243614736 0.1612657954
0.0038756901 -0.0095366128 0.1174858897
0.0119483694 -0.0251469892 0.1156549460
0.0120000001 -0.0239379655 0.1536091494
0.0120000001 -0.0221645274 0.1375408848
0.0120000001 -0.0198270272 0.1455892905
0.0120000001 -0.0233378988 0.1492117063
0.0099341627 -0.0271165207 0.1811577989
0.0073424794 -0.0132844351 0.1112138188
0.0105053962 -0.0230255549 0.1132173269
-0.0017269054 -0.0239687135 0.1156558818
-0.0114783521 -0.0194715905 0.1118212482
-0.0096446463 -0.0164654006 0.1174188633
-0.0055429495 -0.0186581867 0.1195936363
0.0046134425 -0.0226648580 0.1185358675
0.0069941762 -0.0195611337 0.1759777596
-0.0070000002 -0.0253119171 0.1827625963
0.0077084892 -0.0237415094 0.1786527882
-0.0081432613 -0.0179628772 0.1812513093
0.0079999994 -0.0204962093 0.1563748641
0.0079999994 -0.0219069413 0.1407090229
0.0019554518 -0.0213623147 0.1307535393
-0.0079999994 -0.0203291347 0.1377695301
-0.0079526618 -0.0250587242 0.1418198078
-0.0048219676 -0.0227691595 0.1711658904
0.0084245118 -0.0259109642 0.1360288197
0.0023019361 -0.0392515549 0.0747315444
0.0010963199 -0.0382291020 0.0796680607
-0.0053124578 -0.0364999920 0.0801073228
0.0044065372 -0.0335000008 0.0741966289
0.0060000001 -0.0347778174 0.0793683168
-0.0017026221 -0.0421762025 0.0742027556
-0.0000143073 -0.0424749343 0.0800339958
-0.0014283428 -0.0373640081 0.0776886195
0.0054056056 0.0100807599 0.1119332130
0.0050862049 0.0158372793 0.1078684639
0.0120000001 0.0257708597 0.1291682177
0.0120000001 0.0224312229 0.1501117297
0.0117867369 0.0247140747 0.1800229263
0.0120000001 0.0204267882 0.1699621439
0.0120000001 0.0206815878 0.1386954854
0.0120000001 0.0111245155 0.1206878048
0.0116338462 0.0185593742 0.1397537487
-0.0003880842 0.0086222832 0.1194579129
0.0049131990 0.0142499550 0.1262936775
0.0047342271 0.0096852234 0.1217415461
0.0074117513 0.0204907347 0.1088066467
-0.0049747256 0.0258601916 0.1122572660
0.0076639952 0.0182241310 0.1307834182
0.0075493886 0.0154473103 0.1269374630
-0.0029585607 0.0189189457 0.1668771548
-0.0088129375 0.0185545382 0.1415636165
0.0097483474 0.0188740265 0.1622105683
0.0011524973 0.0244552392 0.1708246543
-0.0084509535 0.0166548697 0.1767977667
0.0099229542 0.0181209413 0.1725532477
-0.0051026734 0.0263975913 0.1279103707
-0.0012174078 0.0266260036 0.1233983236
0.0063887827 0.0264184729 0.1274978570
0.0099947964 0.0253972745 0.1481763001
-0.0095377285 0.0253513333 0.1485780693
-0.0100749558 0.0262002099 0.1318094144
0.0011971985 0.0245231603 0.1631744433
0.0107585744 0.0159368930 0.1831068384
-0.0115210132 0.0168096680 0.1764903524
-0.0029844408 0.0107999070 0.1156777853
-0.0120000001 0.0190519524 0.1700141028
-0.0120000001 0.0223883062 0.1699024943
-0.0120000001 0.0217557345 0.1334212973
-0.0120000001 0.0202323219 0.1271183399
-0.0117974158 0.0237359213 0.1841530566
-0.0085181517 0.0236492467 0.1860714388
-0.0036921391 0.0141322347 0.1092046550
-0.0011796766 0.0227953706 0.1130472174
-0.0093209111 0.0238605282 0.1154763378
-0.0011545454 0.0167959736 0.1136200509
-0.0023622977 0.0169490879 0.1183350543
-0.0020587502 0.0195025373 0.1197437949
0.0033174631 0.0233775056 0.1176814608
-0.0069999993 0.0168357484 0.1803566145
0.0070000002 0.0166014128 0.1822974332
-0.0081015111 0.0191692056 0.1782196108
0.0082189250 0.0229673037 0.1835039345
-0.0079999994 0.0237926112 0.1423722163
-0.0066130622 0.0232216082 0.1314271246
0.0050327118 0.0251097497 0.1307334019
0.0079999994 0.0197672863 0.1339149738
-0.0048830039 0.0205172323 0.1628916347
-0.0026393778 0.0202583055 0.1707791763
0.0083569730 0.0249982378 0.1527654809
0.0225000009 0.0218031123 0.0514937407
0.0225000009 0.0060624939 0.0526772262
0.0225000009 0.0167462696 0.0535602920
0.0225000009 0.0181630238 0.0270524684
0.0225000009 -0.0025849051 0.0259806116
0.0225000009 0.0058744014 0.0265299860
0.0225000009 -0.0006522826 0.0271201138
0.0225000009 0.0053230652 0.0344204475
0.0225000009 0.0071148866 0.0329421088
0.0225000009 -0.0215478586 0.0289043745
0.0225000009 -0.0148516734 0.0378350404
0.0225000009 -0.0107692341 0.0461997345
0.0225000009 0.0025157539 0.0435179277
0.0225000009 -0.0130391235 0.0451728597
0.0225000009 -0.0087923519 0.0914257775
0.0225000009 -0.0109450156 0.0819297492
0.0225000009 -0.0098235782 0.0879769491
0.0225000009 -0.0056757844 0.0694588673
0.0225000009 0.0172469785 0.0873035160
0.0225000009 -0.0152896014 0.0892605217
0.0225000009 -0.0016910364 0.0806719560
0.0225000009 -0.0153085180 0.0798380023
0.0225000009 0.0104601023 0.0746883417
0.0225000009 0.0143523224 0.0599657771
0.0225000009 0.0080887450 0.0599499287
0.0225000009 0.0125184831 0.0693655343
0.0225000009 -0.0107246913 0.0617772455
0.0225000009 0.0031987621 0.0591724859
0.0225000009 -0.0044846533 0.0546188282
0.0224378928 0.0205851158 0.0548862571
0.0152256097 0.0189010180 0.0536341074
0.0008711944 -0.0245853289 0.0927999988
-0.0144167203 -0.0246807954 0.0927999988
0.0007191732 -0.0078370370 0.0927999988
0.0029000077 -0.0077369620 0.0927999988
0.0045972425 -0.0138054095 0.0927999988
0.0002236102 0.0012718760 0.0927999988
-0.0034140300 -0.0056528108 0.0927999988
-0.0013290920 0.0022208552 0.0927999988
0.0190601275 0.0095895403 0.0927999988
0.0192179135 -0.0007985684 0.0927999988
0.0154484003 -0.0072725228 0.0927999988
0.0122241135 -0.0028575094 0.0927999988
0.0156859087 0.0129787905 0.0927999988
0.0103270606 0.0167392061 0.0927999988
-0.0181232733 -0.0056414741 0.0927999988
-0.0147621114 -0.0142048203 0.0927999988
-0.0151234875 -0.0144969736 0.0927999988
-0.0108548117 0.0042394680 0.0927999988
-0.0147036983 -0.0000076135 0.0927999988
-0.0176069592 0.0235816902 0.0927999988
0.0222938048 -0.0232783758 0.0927999988
-0.0028431246 -0.0215459742 0.0927999988
-0.0027845592 0.0269046523 0.0927999988
0.0219821612 -0.0238969243 0.0478350278
0.0208634437 -0.0258345991 0.0313552545
0.0202996313 -0.0268111504 0.0697651055
0.0219794899 -0.0016765700 0.0254999995
0.0066387787 0.0240181193 0.0254999995
-0.0075530648 0.0221365945 0.0254999995
-0.0166948487 -0.0218139339 0.0254999995
-0.0220691132 -0.0218603611 0.0254999995
0.0051692566 -0.0162644506 0.0254999995
-0.0113909347 0.0035899930 0.0254999995
0.0088537889 -0.0165982214 0.0254999995
-0.0165294137 -0.0090445802 0.0254999995
-0.0113672824 -0.0153597197 0.0254999995
-0.0194238202 -0.0132366371 0.0254999995
-0.0022386438 -0.0154103058 0.0254999995
0.0105240824 -0.0027127507 0.0254999995
0.0106255321 0.0024912555 0.0254999995
0.0179221286 0.0166002790 0.0254999995
0.0164962524 -0.0096132539 0.0254999995
0.0118668236 0.0157711511 0.0254999995
0.0158663648 -0.0014222486 0.0254999995
0.0184599889 -0.0023136344 0.0254999995
0.0202613881 -0.0143472009 0.0254999995
0.0017128256 -0.0246393552 0.0254999995
0.0177560121 0.0209999997 0.0903595398
0.0185209681 0.0209999997 0.0697949599
0.0173847374 0.0209999997 0.0797638643
0.0073618416 0.0209999997 0.0691095490
0.0117062063 0.0209999997 0.0810151331
0.0051161227 0.0209999997 0.0719453139
0.0153614007 0.0221963024 0.0904999971
0.0008864187 0.0266975405 0.0349249671
-0.0187626962 0.0209999997 0.0722322813
-0.0216389527 0.0209999997 0.0632805067
-0.0117233281 0.0209999997 0.0849017713
-0.0118634994 0.0209999997 0.0891808636
-0.0039463205 0.0209999997 0.0671540501
-0.0065643069 0.0209999997 0.0839244875
-0.0149223865 -0.0260898795 0.0885678139
0.0175000001 -0.0258722315 0.0547892225
0.0175000001 -0.0253750514 0.0754955152
0.0175000001 -0.0256461286 0.0795290506
-0.0044408129 -0.0224484945 0.0865000039
0.0137315861 -0.0266366147 0.0865000039
-0.0175000001 -0.0265940962 0.0836387169
-0.0175000001 -0.0265156536 0.0364439105
-0.0149493094 -0.0227034785 0.0285337037
0.0170093130 -0.0225000009 0.0418284212
0.0157032396 -0.0225000009 0.0397155681
-0.0084632919 -0.0225000009 0.0459288331
-0.0152915726 -0.0225000009 0.0538639017
0.0097586691 -0.0225000009 0.0486626992
0.0064617339 -0.0225000009 0.0470064052
0.0145641762 -0.0225000009 0.0512745117
-0.0104641675 -0.0209957869 0.0478887150
0.0027463452 -0.0209698935 0.0470972381
-0.0016052818 -0.0209999997 0.0414857962
0.0148465860 -0.0216281462 0.0265551539
0.0124015588 -0.0205000006 0.0717193029
0.0137458266 -0.0205000006 0.0720911059
-0.0038156045 -0.0205000006 0.0651175880
0.0030057848 -0.0205000006 0.0566146787
-0.0026578967 -0.0205000006 0.0791024042
0.0030341336 -0.0205000006 0.0803455267
0.0044773010 -0.0205000006 0.0785127618
-0.0087543498 -0.0205000006 0.0693814965
-0.0140660298 -0.0205000006 0.0651794203
-0.0164646695 -0.0205000006 0.0809911054
0.0052806688 0.0183417803 0.0666489193
0.0050594467 0.0184240356 0.0853650502
0.0017655278 0.0189270491 0.0662900757
-0.0033297784 0.0189340466 0.0807663303
-0.0020718805 0.0190922301 0.0752233003
-0.0059676783 -0.0181420313 0.0776124295
-0.0011187777 -0.0189976226 0.0813890301
-0.0000139500 -0.0190851043 0.0865803221
0.0057642137 -0.0182734099 0.0744729878
0.0009277991 -0.0191249684 0.0794879488
-0.0032525171 0.0209999997 0.0272610170
0.0018019198 0.0209999997 0.0271288081
-0.0138603008 0.0209999997 0.0449380142
0.0056671643 0.0209999997 0.0312301323
0.0139824431 0.0209999997 0.0437996305
-0.0002738637 0.0209999997 0.0425288484
-0.0064797675 0.0209999997 0.0474949817
0.0190911572 0.0189541159 0.0386784099
-0.0114646593 -0.0240000002 0.0263748308
-0.0193442983 -0.0187753509 0.0318037106
-0.0058396700 0.0185741714 0.0489999987
0.0156053292 -0.0204692125 0.0489999987
0.0063495008 0.0240000002 0.0536379052
0.0115402456 0.0240000002 0.0545308801
0.0035536341 0.0240000002 0.0416914961
0.0182027103 0.0240000002 0.0387157254
0.0070431037 0.0240000002 0.0322210261
0.0175405292 0.0240000002 0.0285917978
0.0019291551 0.0258947302 0.0464058308
-0.0187097649 0.0186639823 0.0533015468
-0.0145501902 -0.0191793555 0.0516651373
-0.0011095499 0.0231461120 0.0898646205
0.0044243711 -0.0220441057 0.0555000007
-0.0019958144 0.0259781283 0.0377925740
-0.0121019024 0.0240000002 0.0359986626
-0.0108451145 0.0240000002 0.0377497966
-0.0078106827 0.0240000002 0.0472486867
-0.0076830812 0.0240000002 0.0481243031
-0.0175770079 0.0240000002 0.0415762669
-0.0101041933 0.0240000002 0.0567390036
-0.0044052241 -0.0189230922 0.0505823115
0.0043902679 0.0189249276 0.0499337132
0.0181334843 -0.0177462306 0.0381460984
-0.0022015364 -0.0177462306 0.0307088734
0.0147499665 -0.0177462306 0.0316299895
-0.0026586241 -0.0177462306 0.0322472944
-0.0005124811 -0.0177462306 0.0351752147
-0.0138567502 -0.0177462306 0.0292714719
-0.0184628335 -0.0177462306 0.0457892798
-0.0178544539 -0.0177462306 0.0292382857
-0.0005121074 -0.0177462306 0.0462176136
-0.0020804192 -0.0177462306 0.0512319382
-0.0157208851 -0.0208430956 0.0435325047
0.0167943358 -0.0205201045 0.0433209619
-0.0081174757 0.0177462306 0.0381648903
0.0145908065 0.0177462306 0.0284599669
-0.0092800722 0.0177462306 0.0284380018
-0.0136272505 0.0177462306 0.0259979351
-0.0012595128 0.0177462306 0.0360813521
0.0084760877 0.0177462306 0.0338973830
0.0164891368 0.0177462306 0.0447562383
0.0157036383 0.0177462306 0.0315062988
0.0050251320 0.0177462306 0.0422744289
0.0015779390 0.0177462306 0.0495061556
0.0163332301 0.0207769702 0.0299904790
-0.0173113069 0.0203188821 0.0395825720
-0.0039042140 -0.0177462306 0.0600330928
-0.0032520690 -0.0177462306 0.0785639179
0.0029102478 -0.0177462306 0.0646563940
0.0071679437 -0.0177462306 0.0580220837
-0.0009438439 -0.0177462306 0.0843281662
0.0027241049 0.0177462306 0.0761166495
0.0065574532 0.0177462306 0.0669192828
0.0053954983 0.0177462306 0.0869973121
-0.0073099959 0.0177462306 0.0690206482
0.0042113617 0.0177462306 0.0866627483
0.0023390443 -0.0220573833 0.0375000015
0.0149984277 -0.0264057709 0.0296958652
0.0191616015 -0.0270000007 0.0271720588
0.0200233381 -0.0270000007 0.0589069580
0.0154901760 -0.0270000007 0.0311301503
-0.0196031052 -0.0270000007 0.0583076075
-0.0026200648 -0.0270000007 0.0876052441
-0.0076199327 -0.0270000007 0.0263245294
-0.0205140447 -0.0264397756 0.0733778642
-0.0211841342 -0.0252791470 0.0547610997
-0.0220811455 -0.0237254786 0.0453942589
-0.0225000009 0.0152998851 0.0916641744
-0.0225000009 -0.0229922769 0.0557195206
-0.0225000009 0.0214365824 0.0602507970
-0.0225000009 0.0039650314 0.0556626787
-0.0225000009 -0.0214144554 0.0306894400
-0.0225000009 0.0039025870 0.0308865181
-0.0225000009 -0.0010506481 0.0259556798
-0.0225000009 -0.0119471042 0.0422984244
-0.0225000009 -0.0091396005 0.0390715657
-0.0225000009 0.0008147950 0.0345724825
-0.0225000009 0.0066486315 0.0514137121
-0.0225000009 0.0215463306 0.0265691756
-0.0225000009 -0.0023137665 0.0460073259
-0.0225000009 0.0183307596 0.0427510017
-0.0225000009 0.0014924565 0.0420869641
-0.0225000009 -0.0202616331 0.0735684334
-0.0225000009 -0.0048236808 0.0770302126
-0.0225000009 -0.0170227747 0.0822943373
-0.0225000009 -0.0037824727 0.0912371399
-0.0225000009 -0.0192565563 0.0816177716
-0.0225000009 -0.0058083234 0.0714262483
-0.0225000009 -0.0139633292 0.0845197363
-0.0225000009 -0.0114073693 0.0769425304
-0.0225000009 0.0062206472 0.0883951224
-0.0225000009 0.0169666229 0.0777655005
-0.0225000009 0.0204945382 0.0710430200
-0.0225000009 -0.0046371227 0.0575717613
-0.0225000009 0.0189668467 0.0744780607
-0.0225000009 0.0203180855 0.0772011399
-0.0225000009 0.0043666967 0.0649514587
0.0120903190 0.0262192252 0.0905135318
-0.0037667288 0.0212761910 0.0890623402
-0.0019733308 0.0262959794 0.0741824458
-0.0071017174 0.0215807388 0.0604975711
0.0020016616 0.0230265477 0.0752641914
-0.0006643942 0.0269798527 0.0532065072
-0.0156030283 0.0268566695 0.0588836786
0.0045935664 0.0269691069 0.0261745930
0.0086226333 0.0269270111 0.0909101373
0.0006675910 0.0269723043 0.0450325923
0.0194845379 0.0268317057 0.0592287661
0.0083056886 0.0221840417 0.0604977732
-0.0036621064 -0.0096248291 0.0920000002
-0.0035157136 0.0091114393 0.0913747378
0.0083049786 -0.0030349451 0.0987049569
-0.0070949452 -0.0051229939 0.0981578706
0.0040219508 -0.0096097525 0.0933615375
0.0021218357 0.0101639401 0.0934101856
-0.0169440091 0.0039201017 0.0911102080
-0.0034178650 0.0092218986 0.0909999982
-0.0106277086 0.0033575340 0.0909999982
-0.0018727347 -0.0147946233 0.0909999982
0.0133669453 -0.0035054838 0.0909999982
0.0104661863 -0.0057951556 0.0909999982
0.0089301262 0.0106285632 0.0909999982
0.0066387862 -0.0143104742 0.0909999982
0.0225000009 -0.0127041865 0.1080802457
0.0225000009 -0.0115990022 0.1261334785
0.0225000009 -0.0156530015 0.1174674373
0.0225000009 -0.0122686499 0.1124473710
0.0225000009 -0.0115864023 0.1170427193
0.0225000009 -0.0048222614 0.1131343606
0.0225000009 0.0174549948 0.1293776589
0.0225000009 0.0086082503 0.1159419446
0.0225000009 0.0159348609 0.1190638878
0.0225000009 0.0189393756 0.1206203116
0.0225000009 -0.0071005617 0.0936813507
0.0225000009 -0.0252750818 0.1075420788
0.0225000009 -0.0260424341 0.1182668792
0.0225000009 0.0013039879 0.1170828932
0.0225000009 0.0140499932 0.0970768016
0.0225000009 0.0187442992 0.0981782093
0.0225000009 0.0106185750 0.1008965724
0.0225000009 0.0070897006 0.0945625062
0.0225000009 0.0087113665 0.1064662088
0.0152018296 -0.0215181166 0.0959239823
0.0194557056 0.0183502177 0.0962565723
0.0146249690 -0.0269032659 0.0927999988
-0.0156818271 -0.0168858714 0.0927999988
-0.0199649901 -0.0043311486 0.0927999988
-0.0217538400 0.0124598134 0.0927999988
0.0195882982 0.0162048654 0.0927999988
0.0165027900 -0.0168385626 0.0927999988
-0.0116289115 0.0222789079 0.0927999988
-0.0072173334 -0.0215185606 0.0927999988
0.0082693239 -0.0213843450 0.0927999988
0.0160467499 -0.0184240863 0.0927999988
0.0078739858 0.0237151425 0.0927999988
0.0221067471 -0.0158962168 0.0927999988
0.0219823200 -0.0242621734 0.1028153219
0.0208078564 -0.0295066857 0.1095780454
0.0224138547 -0.0172233315 0.1329319470
0.0217073013 -0.0073818639 0.1361729948
0.0222704988 0.0239442395 0.1229510133
0.0215660231 0.0291314994 0.1155314813
-0.0193188875 0.0270000007 0.0974644808
0.0071095186 0.0270000007 0.0953195701
0.0108125544 0.0270000007 0.0981466112
-0.0225000009 -0.0179344408 0.0978880330
-0.0225000009 -0.0114938754 0.0931149805
-0.0223802275 0.0213020781 0.0943068781
-0.0154577671 0.0103289084 0.0911681234
0.0187130233 -0.0024336186 0.0921190841
-0.0001543171 0.0222310986 0.0987999961
-0.0101910944 0.0212629082 0.0987999961
-0.0093612426 0.0013811326 0.0987999974
-0.0105308002 0.0057505128 0.0987999961
-0.0034196459 -0.0157691072 0.0987999972
-0.0091620383 -0.0172611449 0.0987999973
-0.0190556772 -0.0145936610 0.0987999961
-0.0178501853 -0.0010800221 0.0987999961
-0.0189202444 0.0150498379 0.0987999961
-0.0105395247 0.0146352622 0.0987999961
-0.0184106340 -0.0247331318 0.0987999961
-0.0168827071 0.0188610656 0.0987999961
0.0078670358 -0.0240860343 0.1078758246
0.0108806102 -0.0194285844 0.1068657859
0.0079100911 -0.0125000002 0.1036083919
0.0121999998 -0.0071305312 0.1333085386
0.0121999998 0.0106705478 0.1290522876
0.0121999998 0.0131928116 0.1054612941
0.0121999998 -0.0012280087 0.1277938826
0.0121999998 -0.0020290569 0.1288585470
0.0121999998 0.0076135918 0.1057674183
0.0121999998 -0.0009407412 0.1110896320
0.0121999998 -0.0007023393 0.1259215062
0.0121999998 -0.0229251000 0.1117700791
0.0121999998 -0.0153940015 0.1367616241
0.0121999998 -0.0132028989 0.1340421156
0.0121999998 0.0110133449 0.1325056037
0.0121999998 0.0223754840 0.1315418022
0.0121999998 0.0209899927 0.1144560240
0.0121999998 -0.0242279512 0.1198002049
0.0121999998 -0.0121800562 0.1053081051
0.0121999998 -0.0058930191 0.0990988290
-0.0000000009 0.0053165231 0.1380805831
-0.0000000009 0.0184674840 0.1007500889
0.0103447156 0.0105098436 0.0992162084
0.0014436673 -0.0229268688 0.0948117133
-0.0136306516 -0.0007023018 0.0979867927
-0.0203135317 0.0200200144 0.0944744920
-0.0164209838 -0.0212376092 0.0950990866
0.0032293425 0.0130707571 0.1042761452
0.0052305190 0.0285345943 0.1132030368
0.0086112650 0.0221346306 0.1073014830
0.0091573334 0.0272675764 0.1024968003
0.0034823540 0.0298175626 0.1077911798
0.0060288984 0.0310789262 0.1158714369
0.0198354429 0.0289284518 0.1065979020
0.0182356330 0.0316588545 0.1117304398
0.0020601342 0.0031057576 0.1318761446
0.0134363620 0.0227172232 0.1323615801
0.0120584305 0.0060000001 0.1370520292
0.0144632221 0.0147429624 0.1385993407
0.0033591195 0.0006227789 0.1387999952
0.0032454526 -0.0059118352 0.1387999952
0.0153565987 -0.0000787439 0.1387999952
0.0129898560 -0.0188594701 0.1369995740
0.0182374620 -0.0251009838 0.1282163609
0.0193007309 -0.0312394322 0.1167830310
0.0048026774 -0.0315840862 0.1118201450
0.0076009920 -0.0119990235 0.1002999171
0.0157512194 -0.0285764581 0.1058247228
-0.0000000009 -0.0169178503 0.0999342027
-0.0000000009 -0.0253495527 0.1049283293
0.0161273122 0.0147443670 0.0968686840
-0.0158531666 -0.0143757022 0.0972919180
-0.0163586579 -0.0270000007 0.0960860690
0.0159682768 -0.0270225579 0.0969400159
0.0138022242 0.0201260426 0.0961618460
0.0115190664 -0.0335000008 0.0290478622
0.0075628405 -0.0334959542 0.0865136160
0.0051324322 -0.0335000008 0.0504119282
-0.0079993645 -0.0335000008 0.0442751543
0.0078502319 -0.0335000008 0.0350157555
0.0079679863 -0.0335000008 0.0293680674
-0.0051092502 -0.0335000008 0.0298770159
0.0046728419 -0.0335000008 0.0429042571
0.0030678889 -0.0335000008 0.0213249188
-0.0028237120 -0.0335000008 0.0563381707
0.0074904738 -0.0335000008 0.0849484094
0.0135515301 -0.0335000008 0.0727377947
0.0084332520 -0.0335000008 0.0681010275
0.0116776319 -0.0335000008 0.0739693384
0.0107676098 -0.0335000008 0.0463222147
-0.0115501512 -0.0335000008 0.0402603651
-0.0090186766 -0.0335000008 0.0783563704
-0.0127600310 -0.0335000008 0.0570208438
-0.0114660140 -0.0335000008 0.0582432909
-0.0157182796 -0.0335000008 0.0604702322
-0.0141819434 -0.0335000008 0.0303673336
0.0044208515 -0.0335000008 0.0813043664
0.0170605489 -0.0333337705 0.0394475129
0.0088283127 -0.0281043790 0.0927378080
-0.0156342497 -0.0325683392 0.0870127897
-0.0194078918 -0.0292853698 0.0381261803
-0.0196076485 -0.0289393812 0.0429976070
-0.0175998257 -0.0324170308 0.0351982905
-0.0178707850 -0.0319477158 0.0696122255
-0.0146051710 -0.0326434238 0.0216140790
0.0112839225 -0.0301187221 0.0170232452
0.0136856332 -0.0330509754 0.0214489953
0.0190830023 -0.0298480947 0.0611312120
0.0184420885 -0.0309581894 0.0838373053
0.0170992294 -0.0332840887 0.0301920514
0.0187558476 -0.0304147431 0.0387471806
0.0146350177 -0.0312439152 0.0869759648
0.0181499999 -0.0273037589 0.0612465061
-0.0166784920 -0.0279161830 0.0335010805
0.0116515728 -0.0284281213 0.0204219685
-0.0101961922 -0.0270000007 0.0167232454
0.0185668597 -0.0270000007 0.0451362913
0.0110033737 -0.0270000007 0.0894217603
0.0120795970 -0.0270000007 0.0919371699
-0.0195697309 -0.0270000007 0.0326477487
-0.0201500002 -0.0272542134 0.0520184240
0.0201500002 -0.0272346282 0.0574318564
-0.0137287042 -0.0299999993 0.0205042220
0.0133432518 -0.0289616844 0.0885688821
-0.0157088261 -0.0281401883 0.0229131262
0.0057430841 -0.0300745255 0.0896229980
-0.0164466896 -0.0309861182 0.0816801755
-0.0180219570 -0.0282576747 0.0687754788
-0.0166917206 -0.0307279781 0.0296007845
0.0162800989 -0.0281594162 0.0854137079
0.0165246280 -0.0308511249 0.0410277637
0.0175541653 -0.0290679138 0.0794256197
0.0093753863 -0.0320000015 0.0508767613
-0.0005607873 -0.0320000015 0.0875236398
0.0135243983 -0.0320000015 0.0528824050
0.0143682120 -0.0320000015 0.0434508898
-0.0101093477 -0.0320000015 0.0206450764
-0.0088865130 -0.0320000015 0.0308714723
0.0132537814 -0.0320000015 0.0824690978
0.0061510138 -0.0320000015 0.0816017874
0.0003791580 -0.0320000015 0.0598763958
0.0027139643 -0.0320000015 0.0637300494
0.0026881678 -0.0320000015 0.0314770382
0.0104041281 -0.0320000015 0.0232988486
0.0091691069 -0.0320000015 0.0586500975
-0.0097407315 -0.0320000015 0.0667360931
-0.0017162756 -0.0320000015 0.0409210786
-0.0085445333 -0.0320000015 0.0499228771
-0.0059467481 -0.0320000015 0.0640924491
0.0082328087 -0.0320000015 0.0426943273
-0.0131823170 -0.0320000015 0.0604495329
-0.0118994013 -0.0320000015 0.0223886866
0.0025017572 -0.0320000015 0.0351037034
0.0124803717 -0.0274000000 0.0339057096
0.0024431944 0.0141262069 0.0077000004
-0.0032289276 0.0150842493 0.0077000004
0.0100733049 -0.0155269743 0.0077000004
0.0034383501 0.0177036983 0.0077000004
-0.0014634630 0.0014920066 0.0077000004
0.0086235124 -0.0158196108 0.0077000004
-0.0063575356 -0.0177871975 0.0077000004
0.0022687317 -0.0050298567 0.0077000004
-0.0032909758 -0.0127121811 0.0077000004
0.0132324601 0.0093237560 0.0077000004
0.0188912992 -0.0161404707 0.0077000004
0.0177513995 -0.0062780017 0.0077000004
-0.0181056251 -0.0090917239 0.0077000004
-0.0163619708 0.0167315429 0.0077000004
-0.0171943899 0.0130044121 0.0077000004
-0.0001404329 0.0243432918 0.0077000004
0.0108312988 -0.0243989810 0.0077000004
-0.0089483608 0.0185000002 0.0139340457
-0.0054307726 0.0185000002 0.0088615234
-0.0057503429 -0.0185000002 0.0099858983
-0.0055335830 -0.0185000002 0.0162230099
-0.0180626011 0.0235420435 0.0182005161
0.0063466783 -0.0046427027 0.0240000002
-0.0103998228 0.0027088529 0.0240000002
-0.0040674636 0.0119643980 0.0240000002
0.0080880657 -0.0088884857 0.0240000002
-0.0014269476 0.0061082358 0.0240000002
-0.0058084172 0.0199514706 0.0172000006
-0.0160502603 -0.0229301719 0.0118080278
-0.0164002535 0.0215181117 0.0091703762
0.0174089657 0.0211372266 0.0108948144
0.0168040801 -0.0239082562 0.0135763921
0.0126225343 -0.0018768411 0.0243049413
0.0066547757 -0.0170000009 0.0199934520
-0.0014119643 -0.0170000009 0.0234945468
0.0017377878 0.0229680098 0.0120227058
-0.0048331366 0.0229755566 0.0129663482
-0.0110892763 -0.0189895242 0.0170520533
0.0040995406 0.0254999995 0.0068461960
0.0205000006 0.0149261767 0.0076892312
-0.0205000006 0.0048448136 0.0062396723
0.0216495311 -0.0055740557 0.0061495299
-0.0218545530 -0.0069564410 0.0063545519
0.0155527881 0.0185468802 0.0260799756
-0.0187944082 -0.0154733059 0.0263817071
0.0148770179 0.0025274512 0.0254999995
0.0117265065 -0.0160176464 0.0254999995
-0.0052780023 -0.0157783825 0.0254999995
-0.0133428799 0.0092213358 0.0254999995
-0.0160630000 -0.0020610206 0.0254999995
-0.0107298928 -0.0155519036 0.0254999995
0.0036286107 0.0182316828 0.0254999995
0.0106419418 0.0138743155 0.0254999995
0.0104624760 0.0115350918 0.0254999995
-0.0047688736 -0.0244999994 0.0084840943
-0.0033382215 -0.0244996229 0.0113914768
0.0165003859 -0.0188535361 0.0232394745
-0.0212996404 -0.0091696440 0.0059999997
0.0209833469 -0.0040640968 0.0059999996
0.0225000009 -0.0103730551 0.0251229119
0.0225000009 0.0068315137 0.0220813506
0.0225000009 0.0106972394 0.0225921965
0.0225000009 0.0035884909 0.0247539452
0.0225000009 -0.0017146722 0.0128225969
0.0225000009 0.0112521891 0.0122285881
0.0225000009 -0.0002211803 0.0150443131
0.0225000009 0.0070745406 0.0129955186
0.0220720415 0.0237412471 0.0243232370
0.0152974591 0.0270000007 0.0125939509
0.0087935046 0.0270000007 0.0154534050
0.0032492519 0.0270000007 0.0162546233
0.0053048612 0.0270000007 0.0233761322
-0.0055554181 0.0270000007 0.0071985108
-0.0084109249 0.0270000007 0.0187170796
-0.0076646745 0.0270000007 0.0141009148
-0.0172202997 0.0270000007 0.0228744817
-0.0225000009 0.0091827395 0.0183082415
-0.0225000009 -0.0014558008 0.0250574435
-0.0225000009 -0.0065677325 0.0222936786
-0.0225000009 0.0109060676 0.0170799459
-0.0225000009 0.0153380109 0.0173099105
-0.0225000009 -0.0180377115 0.0118179613
-0.0225000009 -0.0207348711 0.0218370789
-0.0225000009 0.0016492612 0.0091218682
-0.0225000009 0.0012282121 0.0095449504
0.0021709466 0.0209754077 0.0256785309
-0.0192272133 -0.0142815164 0.0269844823
0.0049271805 0.0199270186 0.0269233468
-0.0105123574 -0.0185523212 0.0225058060
-0.0032303803 -0.0247881332 0.0175031363
0.0218629582 -0.0241033899 0.0197612645
0.0032031183 -0.0267890289 0.0067890279
-0.0213708141 -0.0249558081 0.0160158566
-0.0211394490 -0.0107921912 0.0254999995
-0.0133206259 0.0240450615 0.0254999995
0.0161704545 0.0227498664 0.0254999995
0.0220967128 0.0033970631 0.0254999995
-0.0133238639 -0.0266274876 0.0224266910
-0.0076351620 -0.0270000007 0.0092849264
0.0104912656 -0.0270000007 0.0157960968
-0.0182132106 -0.0270000007 0.0168243245
0.0180622270 -0.0270000007 0.0235016874
-0.0062772723 -0.0270000007 0.0174539896
-0.0121999998 -0.0065916314 0.1148408464
-0.0121999998 0.0071657755 0.1069569468
-0.0121999998 -0.0065568719 0.1099516677
-0.0121999998 -0.0012862367 0.1138672181
-0.0121999998 -0.0093081030 0.1070881529
-0.0121999998 0.0110329369 0.1030946909
-0.0121999998 -0.0196810851 0.1341387607
-0.0121999998 0.0121754309 0.1065964082
-0.0121999998 0.0235677865 0.1268643397
-0.0121999998 0.0119783380 0.1201325135
-0.0123774191 0.0044224444 0.1299672271
-0.0121999998 0.0110475178 0.1254635034
-0.0121999998 -0.0183263215 0.1327062054
-0.0121999998 -0.0147808318 0.1242681154
-0.0121999998 -0.0075420648 0.1234816369
-0.0172188659 -0.0084628265 0.1323373634
-0.0100986746 0.0233815639 0.1055889692
-0.0196223119 -0.0239160877 0.1056101984
-0.0172000006 -0.0162505028 0.1178452413
-0.0172000006 0.0205534986 0.1193667712
-0.0007793971 -0.0010102624 0.1357508219
-0.0122721148 0.0007772825 0.1320972980
-0.0086587136 0.0244423234 0.1025919956
-0.0092124904 0.0276503830 0.1039423918
-0.0186078276 0.0242414150 0.1002605234
-0.0221458109 -0.0204338013 0.1007728869
-0.0144648712 -0.0215354649 0.1002553957
-0.0090254368 -0.0215924695 0.1033352089
-0.0091128563 -0.0280708259 0.1051374241
-0.0138368540 -0.0160328790 0.1126056399
-0.0133119426 -0.0180399088 0.1205693638
-0.0144623585 -0.0143186420 0.1331619045
-0.0132118562 0.0247805783 0.1181101298
-0.0144622981 0.0157035272 0.1182035183
-0.0219116619 -0.0279527848 0.1170145699
-0.0203892307 0.0051217139 0.1384497223
-0.0203494983 -0.0058272940 0.1385144382
-0.0151043329 0.0029837211 0.1378181652
-0.0222108575 0.0247276483 0.1217704598
-0.0127655240 0.0006010281 0.0997414042
-0.0000000003 0.0303169258 0.1144190242
-0.0107465912 0.0270000007 0.0991985316
-0.0225000009 -0.0203274243 0.1110983839
-0.0225000009 0.0265432001 0.1173271161
-0.0225000009 0.0187072120 0.1179840692
-0.0225000009 0.0128189654 0.1075521166
-0.0225000009 -0.0032719079 0.1168887087
-0.0225000009 -0.0092064412 0.1132973658
-0.0225000009 -0.0052274343 0.1209666890
-0.0225000009 -0.0101048896 0.1200752835
-0.0225000009 -0.0167978966 0.1003957624
-0.0225000009 0.0127630204 0.1275756601
-0.0225000009 0.0045786428 0.1341589132
-0.0225000009 0.0271462992 0.1153340085
-0.0225000009 0.0030972806 0.1196752556
-0.0225000009 0.0006582854 0.1293042612
-0.0225000009 -0.0116325920 0.1068316396
-0.0214039571 -0.0228673346 0.0998676037
-0.0000000006 -0.0167802012 0.1048263992
-0.0124409013 -0.0204120074 0.1109739203
-0.0078946792 -0.0315814693 0.1116071704
-0.0138210169 -0.0305788366 0.1186872721
-0.0186111821 -0.0231008181 0.1316823559
-0.0025206144 -0.0060000000 0.1367264391
-0.0022731626 -0.0056839253 0.1362845085
-0.0041393875 0.0046940398 0.1352864467
-0.0110314984 0.0032646119 0.1387999952
-0.0070667405 0.0037517108 0.1387999952
-0.0160999711 -0.0112704906 0.1387176354
-0.0151985988 0.0168273083 0.1380245965
-0.0168953293 0.0255485267 0.1274576172
-0.0161056946 0.0315600801 0.1160090955
-0.0034901795 0.0308146624 0.1093996889
-0.0159212815 0.0317338360 0.1131890881
-0.0115727407 0.0231511433 0.1075154962
-0.0060203962 0.0286826051 0.1135911698
-0.0098824400 0.0149317896 0.1053506112
-0.0109070666 -0.0115839129 0.0988000006
-0.0140736519 0.0261062818 0.0988001561
-0.0076709570 0.0192236776 0.0988002510
-0.0082984673 0.0160866216 0.0988002741
-0.0036644194 0.0102950168 0.0988000476
-0.0000126519 -0.0164807223 0.0987999961
-0.0037565518 -0.0155627829 0.0987999961
-0.0192009580 -0.0162577000 0.0987999985
-0.0219315612 0.0101890168 0.0988004978
-0.0214406709 -0.0110608880 0.0988001366
-0.0060784988 -0.0102654799 0.0990015078
-0.0119684920 -0.0165875245 0.1063065510
-0.0009730269 -0.0262161151 0.1093825465
-0.0118755224 -0.0293343573 0.1143927668
-0.0140286313 0.0137205010 0.1342092593
-0.0162000004 0.0073442984 0.1314745071
0.0209685132 0.0040304941 0.0000000000
0.0149469352 0.0107795137 0.0000000000
0.0134108478 -0.0124017099 0.0000000000
-0.0037498949 0.0354761318 0.0000000000
-0.0094517693 0.0024417898 0.0000000000
-0.0206361971 -0.0117804257 0.0000000000
-0.0154747741 -0.0351889815 0.0000000000
-0.0094197905 0.0245399229 0.0000000000
-0.0198139107 0.0081729551 0.0000000000
-0.0165131324 -0.0091589848 0.0000000000
0.0008647374 0.0193916941 0.0000000000
-0.0025393498 -0.0358104624 0.0000000000
0.0223560434 -0.0174882401 0.0000000000
0.0215834297 0.0177505285 0.0000000000
0.0167371026 0.0185597065 0.0000000000
0.0069849631 0.0269120337 0.0000000000
0.0023555684 0.0316075379 0.0000000000
0.0032740234 0.0295596119 0.0000000000
-0.0215734550 0.0143168452 0.0000000000
-0.0137101153 0.0164337676 0.0000000000
0.0095947979 0.0221165931 0.0000000000
-0.0179403373 -0.0127767680 0.0000000000
-0.0006438041 -0.0274040058 0.0000000000
0.0053600709 -0.0220740124 0.0000000000
-0.0018878810 -0.0317425490 0.0000000000
-0.0098242671 -0.0174658538 -0.0000000000
-0.0188394480 -0.0010474937 0.0060000001
-0.0110744440 -0.0008846593 0.0059780407
0.0034786664 0.0143450929 0.0060000001
-0.0084503297 0.0179516898 0.0060000001
0.0044500250 0.0365597442 0.0060000001
0.0112682908 -0.0373551545 0.0060000001
-0.0058805246 -0.0359405200 0.0060000001
-0.0148481251 -0.0164980153 0.0060000001
0.0043623054 -0.0129658108 0.0059194899
0.0203067116 -0.0027128601 0.0060000001
0.0180535934 -0.0275168558 0.0060000001
0.0214855891 0.0334403116 0.0060000001
-0.0057748109 -0.0261790325 0.0060000001
0.0196551262 -0.0334246718 0.0060000001
-0.0151114591 -0.0311235622 0.0060000001
0.0013754711 -0.0270877868 0.0060000001
0.0070900722 -0.0240950952 0.0060000001
-0.0178510292 -0.0082043078 0.0059582558
0.0130160175 -0.0268105374 0.0060000001
0.0189459960 -0.0124552682 0.0060000001
-0.0191490382 0.0204364935 0.0060000001
-0.0209139070 0.0309084979 0.0060000001
0.0110687060 0.0280870151 0.0060000001
0.0161020178 0.0046250570 0.0060000001
0.0036108296 0.0236827426 0.0060000001
0.0005178788 0.0218217461 0.0060000001
0.0179334487 0.0310498645 0.0060000001
-0.0067047424 -0.0375000015 0.0026080488
0.0172761870 -0.0375000015 0.0056649213
0.0225000009 -0.0271988798 0.0047382891
0.0225000009 -0.0087093940 0.0015739986
0.0225000009 0.0097922846 0.0037968314
0.0225000009 0.0331127231 0.0045661176
-0.0164866680 0.0375000015 0.0002633673
0.0069113907 0.0375000015 0.0040331041
-0.0225000009 0.0253205182 0.0037392586
-0.0225000009 0.0196442277 0.0009919647
-0.0225000009 0.0065825615 0.0010474164
-0.0225000009 -0.0214825310 0.0033418470
0.0081461866 0.0131297467 0.0050875701
0.0085850456 -0.0143641428 0.0008278158
-0.0093317170 -0.0126580570 0.0022086359
-0.0089283523 0.0137646939 0.0007635283
-0.0086602513 0.0018858094 -0.0007721584
0.0036392918 0.0000141250 -0.0020000001
-0.0090494393 -0.0339615077 0.0006686856
-0.0065967730 -0.0336788980 0.0028655561
0.0108975264 -0.0361425102 0.0037078698
0.0082268412 0.0292113475 0.0049395744
-0.0114221405 0.0315926262 0.0005291482
-0.0065841352 0.0308690508 0.0020611070
-0.0018766027 0.0081084132 -0.0016749734
0.0097193597 0.0025265153 0.0047878107
-0.0050194689 -0.0042178618 0.0030000000
-0.0029083369 0.0024166813 0.0030000000
0.0044708817 0.0064096458 0.0030000000
-0.0129807056 -0.0004616108 0.0046000001
-0.0159135922 0.0033736415 0.0005380459
0.0033146493 0.0136195984 0.0017196508
0.0137311507 -0.0009425028 0.0046210670
0.0111512659 -0.0000245581 0.0005107732
0.0034325694 -0.0164341611 0.0013016581
0.0029662661 -0.0125600796 0.0004068076
-0.0222929074 0.0347070928 0.0027510869
0.0001260104 0.0290989367 0.0020640729
-0.0202010540 -0.0244327688 0.0046000001
-0.0145669396 -0.0199993852 0.0012308160
0.0151945551 -0.0254316992 0.0015040374
0.0149393821 0.0199392746 0.0046000001
0.0176695972 0.0263841281 0.0007755067
-0.0147507528 0.0196521679 0.0029133417
0.0110200295 0.0299453155 0.0005418841
