0.0037535143 -0.0326999985 -0.0076958125
-0.0035649889 -0.0326999985 0.0037682700
0.0027852586 -0.0309962490 -0.0092813016
-0.0098884740 -0.0287677110 -0.0007327703
0.0016764148 -0.0288295363 0.0097397830
0.0096871235 -0.0318997515 -0.0016447082
0.0217315772 -0.0246000011 0.0057751713
-0.0061436592 -0.0246000011 0.0123275671
-0.0217428590 -0.0246000011 0.0040412717
-0.0171978269 -0.0246000011 -0.0025408849
-0.0182434075 -0.0246000011 0.0147769068
-0.0055386409 -0.0246000011 0.0237425997
0.0168012482 -0.0246000011 -0.0013181831
0.0242638224 -0.0246000011 0.0024450891
-0.0008498056 -0.0246000011 0.0162205813
0.0130340799 -0.0246000011 0.0131379666
0.0084075918 -0.0246000011 0.0173237110
-0.0035145304 -0.0246000011 -0.0192887330
-0.0103900045 -0.0246000011 -0.0117104738
-0.0109849938 -0.0246000011 -0.0267789915
-0.0204573918 -0.0246000011 -0.0154459450
0.0072605628 -0.0246000011 -0.0069055525
0.0100739409 -0.0246000011 -0.0240570834
0.0164786585 -0.0246000011 -0.0140775737
-0.0044506090 -0.0018093353 -0.0000257300
-0.0043103911 0.0278257372 -0.0010652254
-0.0024931090 0.0103314498 -0.0036958602
-0.0001638405 -0.0194582589 -0.0044680316
0.0008931200 -0.0172339827 -0.0042768881
0.0027537836 -0.0124216888 -0.0034523758
0.0041536203 0.0201710760 -0.0015336022
0.0044232730 0.0243606038 0.0000012269
0.0038958848 0.0110587260 0.0022040722
0.0037192547 0.0296352739 0.0024128995
0.0001748274 -0.0210140542 0.0044644441
-0.0011194126 -0.0286002081 0.0041917638
-0.0025706790 0.0240534559 0.0035779036
-0.0039416031 0.0273537816 0.0020941785
0.0133468086 0.0324999951 0.0156397640
0.0221194351 0.0324999951 -0.0007435439
-0.0061492794 0.0324999951 -0.0017375106
0.0145257801 0.0324999951 0.0074767560
-0.0105978297 0.0324999951 -0.0119959415
-0.0247326244 0.0324999951 -0.0149493393
-0.0242345430 0.0324999951 -0.0046211761
-0.0035175454 0.0324999951 -0.0059919782
0.0014773136 0.0324999951 -0.0249380630
-0.0041844189 0.0324999951 -0.0170750696
0.0165285656 0.0324999951 -0.0211298049
0.0070011891 0.0324999951 -0.0186829150
0.0159004098 0.0324999951 -0.0039910394
0.0147656951 0.0324999951 -0.0105528321
0.0073948049 0.0324999951 0.0182778457
0.0210647963 0.0142870155 0.0213408182
0.0231129877 0.0163912077 0.0190694686
-0.0213058543 0.0433600240 0.0210534486
-0.0197501717 0.0390605545 0.0225271723
0.0005866266 0.0308110779 0.0299466401
0.0004249626 -0.0103998354 0.0299756710
-0.0031415638 0.0431514958 0.0297829816
0.0087283499 0.0001282930 0.0286700130
0.0109489007 0.0159097866 0.0278650105
0.0139641425 -0.0124173662 0.0264955764
0.0149426739 0.0213839469 0.0259608407
0.0174894585 0.0136076778 0.0243093555
0.0202375319 -0.0140229675 0.0221181150
0.0292630999 -0.0079783786 0.0063945306
0.0282859055 0.0093755362 0.0098535525
0.0284662719 -0.0242750149 0.0093680255
0.0265247594 0.0005928731 0.0139033251
0.0257436459 -0.0031389158 0.0153887974
0.0238330966 0.0172961895 0.0182176309
0.0298492616 -0.0046572525 0.0024495763
0.0296171033 -0.0065823432 0.0045553840
0.0299492092 0.0266089841 -0.0003883752
0.0295504714 -0.0224021137 -0.0050539693
0.0296360997 -0.0014177699 -0.0043691246
0.0288272120 -0.0178986694 -0.0080900636
0.0289041409 0.0010022989 -0.0077624670
-0.0224938750 -0.0215582011 0.0197523957
-0.0243142775 0.0174961948 0.0174898714
-0.0252176411 -0.0091031494 0.0162205884
-0.0253008813 -0.0177654392 0.0160758092
-0.0280080380 0.0356594106 0.0106636213
-0.0281711206 0.0148171934 0.0101892750
-0.0036084439 0.0081852315 0.0297401772
-0.0048923934 0.0045903749 0.0295838934
-0.0101398064 0.0223052145 0.0281799441
-0.0114098560 0.0016263943 0.0277392075
-0.0134498814 0.0286207536 0.0267591290
-0.0137769152 0.0216668621 0.0265998674
-0.0172097926 0.0330087274 0.0245360942
-0.0162703595 -0.0131693573 0.0251413570
-0.0196121724 -0.0065974924 0.0226440466
0.0060829592 0.0065854404 0.0293734807
0.0056627171 0.0071531465 0.0294407744
0.0039296796 -0.0096857788 0.0296503310
-0.0205979977 0.0314335992 -0.0217470665
-0.0219748855 -0.0077368090 -0.0204063691
0.0005503245 0.0260693656 -0.0299725883
0.0043389549 0.0291653968 -0.0296676861
0.0215231556 0.0132106211 -0.0208502265
0.0185705574 0.0196710989 -0.0235044202
-0.0292847202 0.0021461785 0.0063186395
-0.0285982534 0.0263780702 0.0088596051
0.0232853302 -0.0022299022 -0.0188007316
0.0233163679 0.0297626166 -0.0188274936
0.0259238432 -0.0213628205 -0.0149922946
0.0277118429 0.0297028151 -0.0113590855
0.0277572307 -0.0089732641 -0.0111604004
0.0010528271 -0.0215540407 -0.0299794789
0.0066552959 0.0126444114 -0.0291991859
0.0093996479 0.0224816883 -0.0284367962
0.0104769719 -0.0162129027 -0.0280629399
0.0128599669 0.0027509465 -0.0270464103
0.0163282564 0.0073807071 -0.0251040549
0.0167805406 -0.0132887048 -0.0248126549
0.0184968822 -0.0177276944 -0.0235656248
-0.0183349241 0.0213030135 -0.0237066748
-0.0175812293 -0.0198556539 -0.0242439377
-0.0132183096 -0.0085525232 -0.0269031498
-0.0124877201 0.0054464137 -0.0272578444
-0.0100092119 0.0011289122 -0.0282505611
-0.0063125673 0.0170223807 -0.0293117258
-0.0058459572 -0.0014087639 -0.0294144592
-0.0029857604 0.0225269959 -0.0298223733
-0.0294646056 0.0247508566 -0.0055585231
-0.0282597175 0.0020266336 -0.0099240477
-0.0276301650 0.0220148740 -0.0116187351
-0.0272359037 0.0015139334 -0.0125199984
-0.0257130055 0.0223910168 -0.0154341648
-0.0243261548 0.0175701225 -0.0174875897
-0.0221109311 -0.0203900178 -0.0202558673
-0.0299013014 -0.0138656991 -0.0019129581
-0.0299554957 0.0162421734 -0.0000765452
-0.0299789346 -0.0149850320 0.0007408001
-0.0297210382 -0.0093732807 0.0035853291
-0.0202650505 0.0388543940 0.0029562342
-0.0137617782 0.0376290091 0.0015144936
-0.0027771955 0.0393151832 0.0095003788
0.0044121483 0.0334558657 0.0099959807
0.0090566145 0.0327671078 0.0252932139
0.0049710249 0.0443000011 0.0144554458
-0.0236457909 0.0443000011 0.0127908397
-0.0243762626 0.0443000011 0.0166337857
-0.0015447755 0.0443000011 0.0133060989
-0.0141786858 0.0443000011 0.0109046718
-0.0011496608 -0.0213784574 0.0273789765
0.0179869688 -0.0224174248 0.0176762900
-0.0208560154 -0.0217495708 -0.0202426335
-0.0095957397 0.0453758510 0.0219576674
-0.0185211015 -0.0372923571 0.0182074348
0.0260539194 -0.0387827957 0.0006700188
-0.0191370150 -0.0369221602 -0.0200334591
-0.0281560278 -0.0352543728 -0.0074041584
0.0059087060 -0.0340337756 -0.0259862616
-0.0091873790 -0.0395000018 -0.0143239495
-0.0047582076 -0.0395000018 -0.0147180579
-0.0093126072 -0.0395000018 -0.0223915097
0.0049236197 -0.0395000018 -0.0137632942
0.0124888661 -0.0395000018 -0.0107078935
-0.0100405715 -0.0395000018 0.0066898311
-0.0147101692 -0.0395000018 -0.0043663693
-0.0125862633 -0.0395000018 -0.0136431263
-0.0126489455 -0.0395000018 -0.0128111753
-0.0262078295 -0.0395000018 0.0055705930
0.0014676892 -0.0395000018 0.0294603947
0.0208976673 -0.0395000018 0.0206760616
0.0125157635 -0.0395000018 0.0069258385
0.0023317792 -0.0395000018 0.0047494607
0.0004329469 -0.0395000018 0.0100591776
-0.0014345726 -0.0395000018 -0.0266982712
0.0183427471 -0.0395000018 -0.0046692977
0.0247680048 -0.0395000018 -0.0000471604
-0.0200662942 -0.0395000018 0.0159384598
0.0080949779 -0.0395000018 0.0237755223
-0.0118577125 -0.0395000018 0.0196493598
-0.0020535252 -0.0336039949 0.0036009503
-0.0254411976 -0.0290933073 0.0157111679
-0.0016281056 -0.0338253277 0.0298581087
-0.0080931228 -0.0372581251 -0.0286993732
-0.0285938143 -0.0364454827 -0.0088541227
-0.0246747183 -0.0386489926 -0.0168978793
-0.0191358326 -0.0264634448 -0.0230243431
-0.0288754944 -0.0344096110 0.0076044994
-0.0297715164 -0.0282267418 -0.0021675087
-0.0110126767 -0.0388459562 0.0278473058
-0.0195049064 -0.0265386860 0.0227359357
0.0259309809 -0.0283473105 -0.0149002453
0.0178777515 -0.0250092752 0.0238832087
0.0099844623 -0.0284463598 0.0282618812
-0.0012253750 -0.0379015722 0.0298357380
0.0247079962 -0.0336239677 0.0168810318
0.0209828732 -0.0355926495 0.0213378501
0.0287312536 -0.0277192765 -0.0083403081
0.0299466287 -0.0315840943 -0.0009461997
0.0128383044 -0.0268748434 -0.0269545442
0.0178350818 -0.0322820070 -0.0239889698
0.0045374936 -0.0319765140 -0.0296037824
-0.0013233129 -0.0326999985 0.0082902367
0.0241111769 -0.0247000009 -0.0043293603
0.0225025978 -0.0247000009 0.0082104381
0.0282106960 -0.0247000009 0.0085710839
0.0142099999 -0.0247000009 0.0069821258
0.0124536140 -0.0247000009 0.0160797142
0.0043825279 -0.0247000009 0.0139831475
-0.0001617386 -0.0247000009 0.0294103347
-0.0020448061 -0.0247000009 0.0129695047
-0.0088203167 -0.0247000009 0.0202989973
-0.0259341422 -0.0247000009 0.0143987274
-0.0210147635 -0.0247000009 0.0048842730
-0.0167744617 -0.0247000009 -0.0125238466
-0.0277895049 -0.0247000009 -0.0005212031
-0.0171417140 -0.0247000009 -0.0058501007
0.0247269838 -0.0247000009 -0.0127584834
0.0016884508 -0.0247000009 -0.0263441134
0.0079203874 -0.0247000009 -0.0128301229
-0.0160829860 -0.0247000009 -0.0232860194
-0.0082043402 -0.0247000009 -0.0213916550
-0.0071716219 -0.0258263915 -0.0064889363
-0.0067340188 -0.0248253711 0.0069165032
0.0082928722 -0.0313819088 0.0052611835
0.0021155646 -0.0323637741 -0.0095900346
0.0271117604 0.0185022176 -0.1547033071
0.0324805882 -0.0050133407 -0.1574413733
0.0238928685 -0.0226193889 -0.1557384025
0.0004403715 -0.0328776362 -0.1548944884
-0.0211231020 -0.0252381454 -0.1540604819
-0.0318796889 -0.0080635231 -0.1551984218
-0.0288373043 0.0157884103 -0.1528839748
-0.0107587597 0.0309855257 -0.1565176725
0.0093909304 0.0314730790 -0.1552021657
-0.0307141475 0.0108222812 -0.1512396333
0.0246586773 0.0077290570 -0.1539999992
0.0250974396 0.0062037211 -0.1539999992
0.0183691333 -0.0154927170 -0.1539999992
-0.0042141655 -0.0245879187 -0.1539110597
-0.0135677947 0.0204962596 -0.1539999992
0.0083907329 0.0215290107 -0.1538464471
-0.0264626770 0.0057224849 -0.1539999992
-0.0082016585 -0.0261830487 -0.1539999992
0.0064442490 -0.0211533532 -0.1519611668
0.0152647806 0.0160190386 -0.1523661097
-0.0210202027 0.0069269736 -0.1513179177
0.0073362301 -0.0224676450 -0.1509999931
0.0298055039 0.0077989209 -0.1510206748
0.0175140529 0.0179334621 -0.1510487490
0.0203427287 0.0185596727 -0.1510004035
0.0007563168 0.0284619777 -0.1510003927
-0.0123494678 0.0182687142 -0.1509999931
-0.0244790607 0.0087398286 -0.1509999931
-0.0264768708 -0.0018549124 -0.1510152349
0.0262849603 -0.0083551169 -0.1509999931
0.0274427406 -0.0161863568 -0.1510051575
-0.0133396984 -0.0208155864 -0.1510005506
-0.0223545081 -0.0123482875 -0.1511654805
-0.0130825454 0.0305968452 -0.1579999924
-0.0314961173 0.0131791511 -0.1579999924
-0.0203965356 -0.0262321587 -0.1579999924
0.0016215601 -0.0365199764 -0.1579999924
0.0261477681 -0.0207706453 -0.1579999924
0.0317160186 0.0110957340 -0.1579999924
-0.0081023176 0.0324720510 -0.1579999924
-0.0262009581 0.0236070525 -0.1579999924
0.0313106376 0.0197296320 -0.1579999924
-0.0329025250 -0.0172779693 -0.1579999924
-0.0365520150 -0.0160445454 -0.1612232180
-0.0293345976 0.0270217837 -0.1592543029
0.0101925922 0.0384559094 -0.1607556325
0.0394876289 0.0056527529 -0.1599398324
0.0243278531 -0.0315481319 -0.1607748503
-0.0256670634 -0.0304633747 -0.1610084565
0.0072515835 -0.0350394867 -0.1620000005
-0.0113737526 -0.0304016377 -0.1618862995
-0.0297647911 0.0109559784 -0.1620000005
0.0002580915 0.0298329694 -0.1620000005
0.0078301630 0.0328743221 -0.1620000005
0.0180794275 0.0313306155 -0.1620000005
-0.0213655075 0.0286558284 -0.1617548866
-0.0317621028 0.0217045056 -0.1620000005
-0.0312569266 -0.0175073600 -0.1620000005
-0.0167275853 -0.0279905688 -0.1620000005
0.0216231504 -0.0271630093 -0.1620000005
0.0360613562 -0.0149738968 -0.1620000005
0.0323824361 0.0197852828 -0.1618839538
0.0246790077 0.0271012180 -0.1620000005
0.0012824595 -0.0299214283 -0.1585073485
-0.0188772721 -0.0231613108 -0.1597688760
0.0157656265 -0.0253743871 -0.1602123548
-0.0265353635 -0.0134493377 -0.1559313796
-0.0291128365 0.0065817230 -0.1571734991
-0.0190598740 0.0228918517 -0.1600363150
0.0021891327 0.0297804514 -0.1553118102
0.0167737870 0.0246622422 -0.1592828575
0.0279934040 0.0103646839 -0.1593227229
0.0288770073 -0.0074481518 -0.1582498843
-0.0144900241 0.0340702050 -0.1603864240
0.0340476668 -0.0147135406 -0.1597352564
-0.0334443426 0.0123257216 -0.1589085792
0.0013924719 -0.0273200286 -0.1539935636
-0.0200206884 0.0340036363 -0.1583805747
0.0280913185 -0.0271097602 -0.1580166213
0.0143559531 0.0366200877 -0.1618340613
-0.0099057741 -0.0384613248 -0.1615434939
0.0022588143 -0.0295875978 -0.1543288590
0.0288662970 -0.0065326578 -0.1617813852
0.0124450958 -0.0302988194 -0.1563914642
-0.0358439747 -0.0253524531 0.0150683276
-0.0156366275 -0.0249208158 0.0356067026
0.0143962219 -0.0285309177 0.0365531259
0.0339955192 -0.0289690566 0.0189710771
0.0382102011 -0.0263945530 -0.0076111668
0.0228785757 -0.0256825561 -0.0316114108
-0.0152678549 -0.0257258505 -0.0357906444
-0.0305420083 -0.0258438684 -0.0241242644
-0.0139024689 -0.0287319966 -0.0395516529
0.0124623756 -0.0292248189 -0.0383460797
0.0225142429 -0.0292749603 0.0324847509
-0.0390050605 -0.0292717359 -0.0017750731
-0.0059416023 -0.0407818320 -0.1618772897
0.0051538355 0.0408560615 -0.1611460674
0.0060816662 0.0266441073 -0.0548643098
0.0260036937 -0.0071456605 -0.0538962888
0.0251177817 0.0098670794 -0.0540059246
-0.0261135947 0.0027685249 -0.0487319297
0.0168292492 -0.0245467127 -0.0682790608
0.0193179652 -0.0198688971 -0.0585535490
0.0260374364 0.0139710496 -0.0673943544
0.0219620838 0.0201738106 -0.0686184221
0.0218607348 0.0236403714 -0.0797603787
0.0185764404 0.0230031523 -0.0668844998
-0.0206496849 0.0245337816 -0.0792042877
-0.0204852680 0.0226541186 -0.0717150449
-0.0228285608 -0.0161344219 -0.0597223696
-0.0230895827 -0.0216529151 -0.0771737789
-0.0170444761 -0.0231715618 -0.0631276579
0.0088375820 -0.0301168101 -0.0760393265
0.0124025089 -0.0299173111 -0.0808260127
0.0168191404 -0.0271710995 -0.0788064558
0.0255711675 -0.0148722524 -0.0672109984
0.0262019913 -0.0123094351 -0.0640571602
0.0294531733 -0.0100705367 -0.0749178021
0.0322930629 -0.0082907099 -0.0855634751
0.0333185727 -0.0056351381 -0.0877598104
0.0348376020 0.0006562856 -0.0930255556
0.0348262716 0.0020633133 -0.0930629374
0.0337924560 0.0092455565 -0.0937721214
0.0320170099 0.0129043667 -0.0912627588
0.0273994682 0.0159365599 -0.0778006568
0.0138836228 0.0267643276 -0.0699264912
0.0131142918 0.0301425314 -0.0832763224
0.0053071201 0.0313285005 -0.0778825107
0.0022009137 0.0290445729 -0.0647789149
-0.0091916679 0.0282494436 -0.0673429874
-0.0128034516 0.0287729949 -0.0767250523
-0.0147386340 0.0256119948 -0.0671843615
-0.0251668266 0.0140666827 -0.0634575793
-0.0263165807 0.0122349903 -0.0644142886
-0.0293229279 0.0104458279 -0.0747780902
-0.0293228521 0.0065355997 -0.0694416776
-0.0314025711 0.0052689817 -0.0784153238
-0.0323521695 0.0009144780 -0.0808020011
-0.0344895709 -0.0044546477 -0.0926882748
-0.0274413087 -0.0064839493 -0.0606608132
-0.0317282206 -0.0106474074 -0.0862315086
-0.0306776242 -0.0140485183 -0.0877853227
-0.0153649400 -0.0277444216 -0.0773144721
-0.0112614257 -0.0269414391 -0.0651517426
-0.0069043298 -0.0304222547 -0.0749853823
0.0005062778 -0.0336083489 -0.0872066187
0.0062580080 -0.0335078906 -0.0898284419
0.0134528665 -0.0320634579 -0.0930195923
0.0094657069 0.0314716321 -0.0833068011
-0.0056080810 0.0326883271 -0.0850337369
-0.0181290369 -0.0293230544 -0.0913053959
-0.0020898781 -0.0356252781 -0.0979570478
0.0197587727 -0.0283676954 -0.0916605432
0.0256341106 -0.0260143364 -0.1026385276
0.0333022082 -0.0142904466 -0.1009688306
0.0358668858 -0.0006120032 -0.0992437391
0.0349315938 0.0106371844 -0.1030947677
0.0290009900 0.0218897968 -0.1021057260
0.0212404165 0.0269214171 -0.0902154463
0.0131187929 0.0333377131 -0.0985482110
-0.0114091212 0.0337476682 -0.0971754211
-0.0211287045 0.0284034930 -0.0966198388
-0.0285935451 0.0210012122 -0.0965021514
-0.0342646914 0.0110218545 -0.0994353395
-0.0358970924 -0.0000329151 -0.0994480757
-0.0342045371 -0.0125465792 -0.1023838183
-0.0275908627 -0.0230592421 -0.1000388084
-0.0204627678 -0.0279837541 -0.0923345221
-0.0048244497 -0.0359603746 -0.1010702282
0.0041185851 -0.0372128995 -0.1094684609
0.0137438909 -0.0339370965 -0.1034068594
0.0185236490 -0.0332909784 -0.1147052149
0.0286899448 -0.0237959274 -0.1083102706
0.0315632106 -0.0219129562 -0.1164948672
0.0369537964 -0.0116326439 -0.1192105043
0.0376885620 -0.0030505686 -0.1118486746
0.0362063273 0.0081287252 -0.1063519940
0.0332023970 0.0170065271 -0.1086795746
0.0302015799 0.0236841645 -0.1163849539
0.0211310041 0.0307243565 -0.1090362435
0.0150644910 0.0344583949 -0.1109868434
0.0100797600 0.0371166210 -0.1170493471
0.0011510920 0.0372668090 -0.1080174466
-0.0071336775 0.0361880582 -0.1056597131
-0.0165329267 0.0340358396 -0.1123225675
-0.0226186706 0.0311702923 -0.1175576122
-0.0288692910 0.0240204954 -0.1097182436
-0.0323823666 0.0184034046 -0.1078200393
-0.0364080440 0.0106362194 -0.1129619629
-0.0383351708 -0.0015945997 -0.1164432203
-0.0358311203 -0.0107900505 -0.1089044694
-0.0314312093 -0.0201575368 -0.1092888569
-0.0266793285 -0.0264837642 -0.1111120335
-0.0193866580 -0.0309880965 -0.1032051839
-0.0138505101 -0.0348172745 -0.1092278623
-0.0076539121 -0.0377022922 -0.1171428134
0.0023415760 -0.0388949403 -0.1216071621
0.0070462371 -0.0395897828 -0.1375621583
0.0151389013 -0.0358800208 -0.1214537927
0.0190048913 -0.0353179321 -0.1362672810
0.0250377141 -0.0308575556 -0.1314798753
0.0305315629 -0.0266588616 -0.1412427012
0.0323932845 -0.0226259497 -0.1283566709
0.0346500048 -0.0175933462 -0.1201828735
0.0383366072 -0.0126944914 -0.1397763350
0.0386748608 -0.0053950366 -0.1226719004
0.0396418088 0.0013557974 -0.1303952012
0.0395318890 0.0068576726 -0.1359634182
0.0376050338 0.0136314748 -0.1347895153
0.0347233906 0.0188905214 -0.1285003883
0.0308862219 0.0240251634 -0.1238899452
0.0279595174 0.0284035027 -0.1327961908
0.0215060393 0.0325979126 -0.1229046580
0.0169995138 0.0357827289 -0.1295774536
0.0119821644 0.0375872635 -0.1276236175
0.0084769784 0.0396546205 -0.1413008067
-0.0009531902 0.0390973642 -0.1230462126
-0.0065651557 0.0393113043 -0.1331000367
-0.0147215218 0.0364068571 -0.1256918502
-0.0204432815 0.0349912808 -0.1411410261
-0.0253412589 0.0308200011 -0.1336043129
-0.0270912871 0.0281772953 -0.1228516395
-0.0316158339 0.0245294889 -0.1351017360
-0.0348058567 0.0178250133 -0.1232035565
-0.0387249704 0.0117934619 -0.1407928487
-0.0386748699 0.0042291514 -0.1210769580
-0.0402381096 -0.0002125272 -0.1379406496
-0.0384476805 -0.0075635292 -0.1244848850
-0.0371894247 -0.0117523101 -0.1222132253
-0.0364143906 -0.0176677800 -0.1408409448
-0.0328202714 -0.0229635542 -0.1352432976
-0.0290618166 -0.0279061438 -0.1385945842
-0.0233059143 -0.0314514152 -0.1236779747
-0.0183327247 -0.0358611456 -0.1383562680
-0.0101913480 -0.0374474340 -0.1198564262
-0.0053958121 -0.0385044279 -0.1206306237
0.0035271873 0.0407299591 -0.1517928525
0.0072467561 0.0404776146 -0.1578535210
0.0166687500 0.0374754413 -0.1576960511
0.0220711926 0.0347474451 -0.1616359017
0.0257321251 0.0315885761 -0.1485776818
0.0316378711 0.0258522720 -0.1511560144
0.0356152106 0.0201243509 -0.1547508828
0.0381366906 0.0144556537 -0.1486782425
0.0409855370 0.0047338209 -0.1618617415
0.0409882054 0.0026213491 -0.1579575971
0.0405098920 -0.0043573880 -0.1495985053
0.0391296917 -0.0121833855 -0.1592896470
0.0367782513 -0.0170333728 -0.1417715563
0.0341814836 -0.0221650116 -0.1491831431
0.0295677035 -0.0284874291 -0.1566394911
0.0248076634 -0.0325298806 -0.1504458188
0.0182643977 -0.0362301089 -0.1426811884
0.0144630417 -0.0380452959 -0.1484165627
0.0065369240 -0.0405617975 -0.1578939094
-0.0031680027 -0.0407768534 -0.1522370229
-0.0091489990 -0.0400126810 -0.1604867878
-0.0201831697 -0.0356907498 -0.1599072701
-0.0236315668 -0.0335168134 -0.1544876625
-0.0244171516 -0.0326653747 -0.1486980981
-0.0320495032 -0.0258018897 -0.1609450926
-0.0360288643 -0.0199042382 -0.1616461871
-0.0381445106 -0.0148237105 -0.1533697584
-0.0399886524 -0.0082254190 -0.1523109715
-0.0410157612 -0.0023228403 -0.1610373582
-0.0403624548 0.0044485976 -0.1438096646
-0.0397417219 0.0111272454 -0.1602612130
-0.0367435211 0.0173705495 -0.1447361661
-0.0346822731 0.0211216478 -0.1448816086
-0.0298794327 0.0277966408 -0.1528264563
-0.0239377295 0.0331185062 -0.1543011202
-0.0195783371 0.0361913216 -0.1583368712
-0.0103678635 0.0397439496 -0.1562590147
-0.0062660400 0.0404364798 -0.1521790751
0.0396470064 -0.0008902432 -0.1579999924
0.0362817939 -0.0102985966 -0.1579999924
0.0044954752 -0.0368622954 -0.1579999924
-0.0336380001 -0.0211917866 -0.1579999924
-0.0312657721 0.0205125515 -0.1579999924
-0.0086984345 0.0367752278 -0.1579999924
0.0064407272 0.0393130787 -0.1582951945
-0.0294350239 0.0270240785 -0.1589284725
-0.0398563518 -0.0025340937 -0.1584064137
-0.0219425267 -0.0333534167 -0.1585747012
0.0165237808 -0.0363403420 -0.1580034495
0.0390899610 -0.0082894953 -0.1599461595
0.0258623725 0.0304751205 -0.1611974493
0.0172103457 -0.0200806932 -0.0508408920
0.0221729024 -0.0141157178 -0.0484719456
-0.0188098135 0.0200189857 -0.0570185171
-0.0239582804 0.0101969576 -0.0471061684
0.0302960144 -0.0174604315 -0.0211143764
0.0222739646 -0.0162352674 -0.0294603724
0.0363849539 -0.0152529858 0.0062207909
0.0363259519 -0.0171401363 -0.0064388613
0.0188248337 -0.0113678989 0.0318738109
0.0297487002 -0.0188258012 0.0218948160
-0.0016380491 -0.0189119363 0.0369468390
0.0072748071 -0.0172853076 0.0361736647
-0.0247884351 -0.0170024131 0.0274152690
-0.0357178373 -0.0169921925 -0.0095467066
-0.0369317144 -0.0225782422 0.0031192300
-0.0208747438 -0.0214974792 -0.0305144424
-0.0264889340 -0.0152970506 -0.0256925119
0.0055709607 -0.0210247976 -0.0365020902
-0.0087054759 -0.0193309248 -0.0391108102
-0.0155900767 -0.0142027685 -0.0403963310
-0.0181867771 -0.0112539507 -0.0411696050
-0.0258130973 -0.0152151912 -0.0830336841
-0.0049771019 -0.0276953987 -0.0744747554
-0.0100494900 -0.0272164509 -0.0783612992
-0.0133501299 -0.0271016192 -0.0842053187
-0.0173048665 -0.0190244347 -0.0628546747
-0.0190894028 -0.0153801834 -0.0567007731
-0.0243101359 -0.0165234843 -0.0804367018
-0.0018878756 -0.0238468289 -0.0534719677
-0.0277871579 -0.0017720335 -0.0728262256
-0.0341585083 0.0068251911 0.0273903496
-0.0309576120 0.0202891267 -0.0302485468
-0.0150790549 0.0191450892 0.0406688474
-0.0069072557 0.0135382331 0.0430107746
-0.0373437488 0.0065970691 -0.0229336103
-0.0148823277 0.0215093769 0.0404497305
-0.0192170809 0.0133328195 0.0391113532
-0.0287958077 0.0223433797 0.0320467462
-0.0296518440 0.0046261012 0.0322994397
-0.0386371733 0.0172308344 0.0199040398
-0.0389505394 0.0005835071 0.0200766557
-0.0412654143 0.0170254342 0.0137346920
-0.0430876598 0.0218749707 0.0017061357
-0.0436099265 0.0128029503 0.0013085899
-0.0412209465 0.0276407148 -0.0097569045
-0.0420734615 0.0140623661 -0.0112326282
-0.0391125657 0.0226094936 -0.0180297885
-0.0390027173 0.0154719622 -0.0194398451
-0.0303232592 0.0078728913 -0.0316099458
-0.0216414688 0.0158181968 -0.0409835564
-0.0220252133 0.0215546852 -0.0373668997
0.0205814058 0.0165036306 -0.0496183915
0.0253827782 0.0055154812 -0.0462523977
0.0096509545 0.0269474580 -0.0436151786
0.0105558003 0.0271765484 -0.0650065115
0.0190954363 0.0264096111 -0.0384587563
0.0264204051 0.0027357595 -0.0364272586
0.0200142533 0.0179907651 -0.0423676514
0.0080032040 -0.0029542524 0.0431079499
0.0398702016 0.0088870961 -0.0180533349
0.0437797086 -0.0002433650 -0.0010271002
0.0242324625 -0.0024858314 0.0365180039
0.0142527059 0.0060344154 0.0413835651
0.0237226024 0.0204516820 -0.0364731869
0.0294737136 0.0248505853 -0.0310211477
0.0412962937 0.0108217191 0.0143890321
0.0297514963 0.0202694261 0.0314514631
0.0181215012 0.0214897191 0.0392587341
0.0349376748 0.0139625118 -0.0262479744
0.0328095156 0.0053054755 -0.0291017419
0.0408915204 0.0241875034 -0.0127360745
0.0412829328 -0.0024157481 -0.0147067063
0.0424080030 0.0110457730 -0.0105888530
0.0435364798 0.0148285789 -0.0023594449
0.0437702557 0.0072944538 0.0003690829
0.0393997748 0.0171530796 0.0183414472
0.0378246951 0.0078027706 0.0220941937
0.0409837040 0.0011407960 0.0154781118
0.0186330047 0.0240577803 0.0385427706
0.0154008829 0.0261938990 0.0394129049
0.0009858166 0.0128172733 0.0436999738
-0.0396974669 0.0279120853 0.0141353826
-0.0416059319 0.0278161458 0.0072353410
-0.0278815221 0.0269442737 0.0319040853
0.0357809259 0.0284279543 -0.0220807733
0.0412008889 0.0287437700 0.0066468150
-0.0007092248 0.0285827454 -0.0628100749
-0.0058719051 0.0279404143 -0.0430953845
-0.0059131251 0.0262882548 -0.0490256710
-0.0240589782 -0.0088286346 -0.0437234015
-0.0254128911 -0.0069370297 -0.0498849016
-0.0147359189 -0.0225396071 -0.0462768649
-0.0063834362 -0.0268725474 -0.0568681106
0.0004463948 -0.0275836878 -0.0566492141
-0.0288713012 -0.0112860806 -0.0328374522
-0.0319050482 0.0046067823 -0.0301483304
-0.0163327203 -0.0216673270 -0.0437814230
-0.0089209175 -0.0093735009 0.0429004643
-0.0371324121 0.0011077090 -0.0233171837
-0.0416296271 0.0001266304 -0.0138791299
-0.0405594920 0.0024364943 0.0165976710
-0.0219614828 0.0032716145 0.0379137755
-0.0140939432 -0.0030952729 0.0414671774
-0.0427560582 0.0032393881 -0.0099039915
-0.0286317457 -0.0180234646 -0.0326313970
-0.0058116830 -0.0101062341 0.0433933339
-0.0319546938 -0.0227450925 -0.0288606674
-0.0391038514 -0.0177424243 0.0189115181
-0.0263419153 -0.0192086635 0.0343558216
-0.0332994217 -0.0182698256 -0.0278368634
-0.0383688410 -0.0264473296 -0.0180871583
-0.0389479588 -0.0111059686 -0.0198082703
-0.0437814418 -0.0001835219 -0.0014209828
-0.0430733221 -0.0209514967 0.0020625918
-0.0417148958 -0.0208365307 0.0109676038
-0.0425990846 -0.0002458276 0.0102090677
-0.0379841439 -0.0192881479 0.0209173388
-0.0351185498 -0.0007174116 0.0263072618
-0.0199003881 -0.0055400003 0.0389408595
-0.0020017242 -0.0179109978 0.0433995700
0.0026742406 -0.0280112633 -0.0582069134
0.0009365640 -0.0271545031 -0.0459864227
0.0254921358 -0.0196440816 -0.0352613413
0.0025268085 -0.0086177375 0.0436667634
0.0295434274 -0.0041659263 0.0323763820
0.0438003390 -0.0028265079 0.0015175133
0.0338677515 -0.0041028082 -0.0278166015
0.0408046297 -0.0070121765 0.0158766355
0.0249833367 -0.0184982080 0.0355088788
0.0415784962 -0.0217879026 0.0116109095
0.0389070580 -0.0006578248 0.0201617403
0.0032836520 -0.0190288172 0.0431700453
0.0106416080 -0.0207353611 0.0419284868
0.0432405650 -0.0145575739 0.0057364655
0.0109227779 -0.0226186953 0.0416352370
0.0198436880 -0.0192593411 0.0385306105
0.0316949706 -0.0210873466 0.0294514147
0.0373745230 -0.0161698179 0.0223934705
0.0360697001 -0.0077169696 0.0248048561
0.0417597406 -0.0162886060 0.0124300316
0.0414951291 -0.0235855325 -0.0106841514
0.0380183287 -0.0228086065 -0.0200569205
0.0368017340 -0.0016261062 -0.0237892207
0.0258784644 -0.0033763561 -0.0386454630
0.0207960679 -0.0276008902 -0.0369095635
-0.0346778878 -0.0291177542 0.0214052459
0.0005260298 -0.0275162569 0.0422050320
-0.0260975721 -0.0276834175 0.0332348195
-0.0389108808 -0.0288680052 0.0139055508
0.0263410606 -0.0283629894 0.0326058513
0.0410691015 -0.0293114764 0.0009514033
0.0303423167 -0.0212040477 -0.1551144076
0.0298081774 -0.0137338100 -0.0990428588
0.0359454942 0.0068747352 -0.1350303959
0.0314999400 0.0194876906 -0.1530096816
0.0199902833 0.0293943862 -0.1192997045
0.0052481509 0.0366018784 -0.1561406917
-0.0072018451 0.0350158427 -0.1223647519
-0.0294919204 0.0222226281 -0.1483595011
-0.0345339373 0.0072300643 -0.1165960108
-0.0362915876 0.0063798880 -0.1417611393
-0.0344697489 -0.0073758082 -0.1176184307
-0.0294657383 -0.0208866394 -0.1280022596
-0.0178832451 -0.0280076557 -0.1010450263
0.0181623475 -0.0296911603 -0.1127682346
-0.0083342505 -0.0268692537 -0.0741778269
-0.0287807689 -0.0129355049 -0.0919712445
-0.0286622804 -0.0084568421 -0.0830068469
-0.0268752525 -0.0073029406 -0.0727641570
-0.0259734112 0.0106851685 -0.0738582505
-0.0233899426 0.0134330139 -0.0687071962
0.0275614823 0.0179763271 -0.0994022298
0.0301890114 -0.0067534906 -0.0881062242
0.0152088536 -0.0269463145 -0.0883662825
0.0074629996 -0.0263570248 -0.0704360205
-0.0254637582 0.0059785839 -0.0643107632
-0.0152122897 0.0220650521 -0.0675803109
0.0060742758 0.0325708303 -0.1006193442
0.0191468816 0.0266201622 -0.0985489675
0.0317423032 0.0079358364 -0.0982265148
-0.0279980232 -0.0200563186 -0.1103490925
0.0287760700 -0.0183068879 -0.1074521538
0.0224849463 -0.0156956178 -0.0709720344
-0.0023423576 -0.0339134593 -0.1069800648
-0.0039664863 -0.0363109241 -0.1321448170
-0.0050276151 -0.0303029924 -0.0871714067
-0.0048681703 -0.0354382010 -0.1224393412
-0.0062452751 -0.0364179070 -0.1444308112
-0.0190894138 -0.0265495498 -0.0983033404
-0.0226922969 -0.0284640299 -0.1316631350
-0.0236091436 -0.0237792672 -0.1033474850
-0.0249167373 -0.0269950416 -0.1372889770
-0.0244868944 -0.0199796356 -0.0919656995
-0.0276589315 -0.0231239254 -0.1266813938
-0.0249390419 -0.0046714359 -0.0605346563
-0.0318156725 -0.0031824039 -0.0939926385
-0.0363184704 -0.0035409113 -0.1329765088
-0.0333233910 -0.0028618654 -0.1026404308
-0.0369021132 -0.0005487382 -0.1451350388
-0.0316678509 0.0028718246 -0.0931513971
-0.0366909959 0.0016293462 -0.1366650877
-0.0268768732 0.0184619432 -0.0974884866
-0.0286070560 0.0207455062 -0.1179510684
-0.0220920872 0.0198661632 -0.0820691849
-0.0252254485 0.0251421815 -0.1204378829
-0.0239683586 0.0282400118 -0.1542149124
-0.0204718827 0.0260497601 -0.1012284281
-0.0241633690 0.0266149193 -0.1243157992
-0.0020238444 0.0330115157 -0.1008445498
-0.0026767972 0.0365930987 -0.1359849183
-0.0001200714 0.0280537110 -0.0738323713
0.0008936935 0.0355313688 -0.1205131780
0.0015777836 0.0370317889 -0.1500731824
0.0046380548 0.0328848366 -0.1013772394
0.0044005376 0.0364921752 -0.1390461316
0.0220175619 0.0252153749 -0.1031511927
0.0244800803 0.0275815546 -0.1420928758
0.0212618824 0.0230298337 -0.0902927056
0.0264873032 0.0246795577 -0.1273622740
0.0260065911 0.0262157879 -0.1496613349
0.0283847033 0.0203607227 -0.1133604897
0.0289765825 0.0226095765 -0.1379306379
0.0311816525 0.0016363297 -0.0896878600
0.0343832252 0.0044073379 -0.1120942176
0.0367946411 0.0036202533 -0.1470776394
0.0277502442 -0.0011354489 -0.0724047313
0.0351035269 -0.0005144404 -0.1156156290
0.0307240206 -0.0047753705 -0.0891161485
0.0349033598 -0.0057497812 -0.1174674272
0.0364992296 -0.0052625538 -0.1531677025
0.0206906062 -0.0159933937 -0.0648698425
0.0243695939 -0.0225731276 -0.1019654176
0.0264483111 -0.0256119001 -0.1385960257
0.0225729349 -0.0245920917 -0.1027103083
0.0235224079 -0.0282849391 -0.1372162951
0.0234451565 -0.0284729118 -0.1480514638
0.0210669331 -0.0303613721 -0.1487112770
0.0037560104 -0.0324179542 -0.0980593753
0.0057697999 -0.0358871908 -0.1299317814
0.0012943587 -0.0248177078 -0.0583067794
-0.0003877786 -0.0288979639 -0.0781223747
0.0013583820 -0.0351259577 -0.1165961998
-0.0207925704 0.0020486069 -0.0367749566
-0.0060864416 0.0209035937 -0.0397472126
-0.0255380856 0.0042747992 -0.0632259547
-0.0230072434 0.0059613860 -0.0527045945
-0.0120444918 0.0215293820 -0.0576707433
-0.0107123479 0.0251052752 -0.0701281997
-0.0049984255 0.0244895663 -0.0585269156
-0.0047337666 0.0294116732 -0.0821611119
-0.0189340148 0.0169155453 -0.0606181117
-0.0145882580 0.0160790406 -0.0435414244
-0.0163917273 0.0129990245 -0.0391529457
-0.0009867482 0.0274529303 -0.0709749648
0.0145184218 0.0155666350 -0.0411571664
0.0214179116 0.0070245275 -0.0470073888
0.0152417262 0.0184004518 -0.0542371595
0.0160106086 0.0256845678 -0.0846923414
0.0106443030 0.0237818232 -0.0644429358
0.0077391038 0.0237452368 -0.0592623991
0.0052165543 0.0259218299 -0.0658889835
0.0183991175 0.0183093840 -0.0640146410
0.0242305907 0.0165716682 -0.0801680404
0.0246738523 0.0155650266 -0.0793951449
0.0254530751 0.0093231317 -0.0692428157
0.0215627519 -0.0012514366 -0.0405128825
0.0011881046 -0.0228067647 -0.0474057155
0.0179099008 -0.0158494661 -0.0539842768
0.0222946944 -0.0012966552 -0.0446089754
0.0093311567 -0.0235554925 -0.0606792555
0.0142406483 -0.0178488008 -0.0490019137
0.0167202093 -0.0223779145 -0.0735077015
0.0122405935 -0.0237861034 -0.0674499090
0.0278692783 -0.0019041930 -0.0730423270
0.0280837188 -0.0043663018 -0.0756884233
0.0250670119 -0.0080000392 -0.0653047743
0.0249870801 -0.0139188732 -0.0765228988
0.0382263578 -0.0245000068 -0.0069648325
0.0006205569 -0.0243660452 0.0377648924
-0.0330531290 -0.0243741079 -0.0155043407
-0.0210793315 -0.0243596103 -0.0314248788
0.0307130967 -0.0242726146 -0.0211117835
0.0207309197 0.0186747876 -0.0341895680
0.0140471391 0.0185244302 -0.0373236687
0.0086231488 0.0258804789 -0.0390600943
-0.0179011907 0.0161996702 -0.0357787545
-0.0213832184 0.0088476134 -0.0337666002
-0.0218925953 0.0185956811 -0.0334156097
-0.0053596259 0.0240715699 0.0396235201
-0.0028135568 0.0135073854 0.0398312341
0.0028933137 -0.0084881407 0.0398202677
0.0036594972 0.0153560700 0.0397769611
-0.0123860935 0.0012670312 0.0379918078
-0.0159088585 -0.0033688162 0.0366581050
-0.0170843564 0.0011081259 0.0361336450
-0.0218923542 0.0133301953 0.0334131935
-0.0226373810 0.0051489096 0.0328744443
-0.0279731233 -0.0046890337 0.0285496183
-0.0300712649 0.0135353987 0.0264134290
-0.0314815383 0.0258648161 0.0245720000
-0.0347046103 -0.0006222302 0.0197286748
-0.0348115680 0.0239899395 0.0194151828
-0.0378840550 0.0127187948 0.0126200703
-0.0384052378 0.0221604053 0.0110444005
-0.0393509669 0.0268063927 0.0068443477
-0.0396231301 0.0111056259 0.0055228163
-0.0399253395 0.0153266866 0.0011306831
-0.0396443373 0.0275618311 -0.0046146784
-0.0394190670 0.0177386884 -0.0068599231
-0.0391494687 0.0254279439 -0.0079976017
-0.0375265059 -0.0079615439 -0.0136928158
-0.0372002108 0.0281776356 -0.0145398047
-0.0343766154 0.0237146201 -0.0203089704
-0.0317187569 0.0100230454 -0.0242303889
-0.0303598304 -0.0086700893 -0.0259196346
-0.0291916663 -0.0034492136 -0.0273259885
-0.0245905697 -0.0007521854 -0.0315309026
0.0248601240 0.0148419916 -0.0312832811
0.0298740974 -0.0060529364 -0.0265559081
0.0298846252 0.0211476339 -0.0264992610
0.0325424367 -0.0039914178 -0.0232322431
0.0338092394 0.0113035311 -0.0213071725
0.0351644627 -0.0017293246 -0.0189354140
0.0376675959 0.0153080202 -0.0133222300
0.0388661784 -0.0080587436 -0.0092087369
0.0395096057 0.0282482942 -0.0061157418
0.0399132236 0.0116719860 -0.0016773126
0.0399554053 -0.0002256883 -0.0002614906
0.0399065017 0.0235266838 0.0019804425
0.0391525478 -0.0058261281 0.0079792727
0.0392871803 0.0210559950 0.0075427830
0.0381496638 0.0061038813 0.0118168531
0.0356360392 0.0005986060 0.0181525551
0.0353522030 -0.0057593626 0.0186679591
0.0329075894 -0.0021700627 0.0226826076
0.0300123526 0.0099118763 0.0263161612
0.0296080733 -0.0043247272 0.0267805543
0.0271849081 0.0166321819 0.0292996490
0.0226625009 0.0058518139 0.0329404631
0.0179669753 0.0108753510 0.0356739098
0.0156240261 0.0046423168 0.0367371422
0.0114720135 0.0247277233 0.0383044321
0.0078023507 0.0071268203 0.0391957986
0.0052282634 -0.0078180549 0.0396252360
-0.0302437508 -0.0106121716 0.0227377889
-0.0162406348 -0.0166398701 -0.0315010674
-0.0322581424 -0.0123053337 -0.0115432957
-0.0319057836 -0.0203686443 -0.0180271473
-0.0318933535 -0.0174248353 0.0173599890
-0.0156176713 -0.0153993616 0.0311021177
0.0139118716 -0.0235926947 0.0303734236
0.0093029778 -0.0119005126 0.0357390249
0.0313345941 -0.0171971016 0.0159446337
0.0318269343 -0.0229773787 -0.0114121813
0.0135091101 -0.0208324642 -0.0305880363
0.0138569587 -0.0189478951 -0.0341703359
-0.0322448773 -0.0184360200 -0.0140899994
0.0137694628 -0.0169260387 0.0343293205
0.0324108884 -0.0163271925 -0.0131843772
0.0010846251 -0.0104738280 0.0378049021
-0.0182450902 -0.0103832003 -0.0342776172
0.0360975072 -0.0101031816 0.0147059126
0.0394447114 -0.0092235790 -0.0054388061
0.0359682376 -0.0187281226 -0.1618858797
0.0350123907 0.0211020911 -0.1619768294
0.0301029787 0.0146706688 -0.1196030443
0.0308858127 0.0118706514 -0.1467774123
0.0325464986 0.0109461142 -0.1406049080
0.0306498927 -0.0121389594 -0.1334911149
0.0303069572 -0.0142834029 -0.1141814153
0.0148384627 -0.0303796289 -0.1507559732
0.0117649922 -0.0310077028 -0.1467714830
0.0111300196 -0.0321362027 -0.1558434799
-0.0122090766 -0.0306384069 -0.1513345604
-0.0134375785 -0.0302391991 -0.1472211529
-0.0308155499 0.0120436363 -0.1100490133
-0.0303298478 0.0130317318 -0.1316082969
-0.0156494375 0.0309247490 -0.1422176715
-0.0131828118 0.0302671170 -0.1528215989
-0.0111003590 0.0322385592 -0.1547494647
0.0107420137 0.0336764324 -0.1574974962
0.0127891319 0.0303354490 -0.1378395809
0.0151688963 0.0307850338 -0.1550929917
-0.0303569127 -0.0128177238 -0.1540912122
-0.0311715202 -0.0114133288 -0.1120240789
0.0203167359 -0.0308998846 -0.1496458319
0.0172095861 -0.0295881611 -0.1080360096
0.0085148012 -0.0361624731 -0.1567600064
0.0173800583 -0.0319926388 -0.1501807684
-0.0107931653 -0.0332472278 -0.1485768873
-0.0097790919 -0.0338320227 -0.1205157516
-0.0163160132 -0.0302203042 -0.1106343699
-0.0130525445 -0.0301324762 -0.0991400608
-0.0306736417 -0.0152835804 -0.1336495599
-0.0316113208 -0.0174233262 -0.1291670715
-0.0323292329 -0.0100309359 -0.1060888183
-0.0319438403 0.0110097232 -0.1532095467
-0.0342721675 0.0094598441 -0.1213487871
-0.0315556568 0.0185540329 -0.1362617981
-0.0165653635 0.0304732466 -0.1120450166
-0.0147091741 0.0285236708 -0.0950792174
-0.0110766149 0.0312877828 -0.1017828441
-0.0102159856 0.0335792156 -0.1228278039
0.0110130835 0.0316903301 -0.1189476042
0.0089091777 0.0349457199 -0.1261799094
0.0179851562 0.0320106331 -0.1433085992
0.0102817870 0.0332718855 -0.1167647236
0.0294319478 0.0190139499 -0.1143683106
0.0331947613 0.0101068922 -0.1134150967
0.0345013536 0.0098117904 -0.1252448293
0.0320397871 -0.0108145391 -0.1091995635
0.0319521143 -0.0181575048 -0.1500588103
0.0314565968 -0.0172549586 -0.1287052650
-0.0147154061 -0.0327163208 -0.1505028597
0.0330555694 -0.0126417324 -0.1515462700
0.0143809670 0.0326756377 -0.1579576694
0.0111452479 0.0179405422 -0.0391387110
-0.0409894325 0.0290150899 0.0015756744
-0.0236070006 0.0288860920 0.0322053932
0.0396836619 0.0291538486 0.0071379072
-0.0100717478 0.0293161970 -0.0392125938
0.0348257048 -0.0106145690 0.0102936278
-0.0374334986 -0.0242297005 0.0029655203
-0.0309478997 -0.0283757243 -0.0051612101
0.0069354225 -0.0284200830 -0.0292708881
0.0352228370 -0.0284934801 0.0005774340
0.0108866108 -0.0284020300 0.0306016945
-0.0294214161 -0.0283841078 0.0097496467
-0.0241480934 -0.0284999851 -0.0274888622
-0.0314954844 -0.0284999851 0.0131856587
-0.0259655096 -0.0284999851 0.0256439205
0.0168031278 -0.0284729744 0.0332765768
0.0221360291 -0.0284999851 0.0238574301
0.0372400437 -0.0284999851 -0.0056634954
0.0205288269 -0.0284002755 -0.0237287199
-0.0202986925 -0.0284556568 -0.0322063768
-0.0318542097 -0.0259568305 0.0221678330
-0.0336667445 -0.0250342179 -0.0190438030
-0.0025537647 -0.0273221511 -0.0387874773
0.0282061234 -0.0249674096 -0.0264821175
0.0377286702 -0.0265028344 0.0089866517
0.0090457571 -0.0258622512 0.0376575729
0.0047352450 -0.0225611951 0.0345874542
0.0275389702 -0.0240762870 0.0213947297
-0.0302196280 -0.0208054816 0.0173907650
-0.0333854516 -0.0191448936 -0.0104591630
-0.0190739098 -0.0212939911 -0.0292501509
0.0052629008 -0.0227382386 -0.0345206903
0.0188153602 -0.0220563655 -0.0293514670
0.0343314608 -0.0226486325 -0.0065487086
0.0257217882 -0.0181694951 -0.0232484380
-0.0302910018 -0.0175000075 -0.0052724684
0.0135101106 -0.0175942039 -0.0288624525
0.0239069913 -0.0175000075 0.0203126029
0.0296511855 -0.0176849219 -0.0153485243
-0.0287982939 -0.0175000075 -0.0145304415
0.0222568534 -0.0189423775 0.0197894946
-0.0170976001 -0.0272330423 -0.0245624466
-0.0036436592 -0.0252450929 0.0296302613
0.0134637705 -0.0203990267 0.0265848918
-0.0103130966 -0.0223568912 0.0280055137
-0.0297332085 -0.0259096096 0.0040959231
-0.0246357919 -0.0277177651 0.0170136813
-0.0272422717 -0.0252117898 -0.0125085234
-0.0132238958 -0.0279394067 -0.0268104826
0.0203536009 -0.0275437247 -0.0218776704
0.0135587480 -0.0222229287 -0.0267101012
0.0290071485 -0.0269343592 -0.0075413794
0.0234250506 -0.0217351484 0.0187854472
0.0292271310 -0.0223454636 0.0061678931
0.0356319970 -0.0246275283 0.0134134784
0.0350453861 -0.0245195522 -0.0045011204
0.0057566469 -0.0245000068 -0.0350650211
-0.0287229875 -0.0245679812 -0.0236923002
-0.0375018920 -0.0245995232 0.0033971633
-0.0204570394 -0.0245000068 0.0293949109
0.0300149957 -0.0216878360 -0.0012241165
-0.0011479820 -0.0189659448 -0.0326657951
-0.0261478989 -0.0201149025 -0.0229700406
-0.0259392709 -0.0233659641 0.0230510359
0.0001628534 -0.0181105164 -0.0299445712
-0.0170500445 -0.0178823366 0.0252180265
0.0304625289 -0.0194699184 0.0140860720
-0.0346858802 -0.0274297162 0.0136584252
0.0343672151 -0.0277779599 -0.0128866209
-0.0127432710 -0.0184945204 -0.0303879484
-0.0113131104 -0.0176614665 0.0318752308
0.0008958332 -0.0283182813 0.0386005162
0.0007726689 -0.0245827966 -0.0382304550
