-0.0039665688 -0.0112719798 -0.0003903042
-0.0035234373 0.0240486217 -0.0018023066
-0.0030672485 0.0046795252 -0.0024969017
-0.0026559793 0.0013447359 -0.0029753417
-0.0016566556 0.0026543264 -0.0036066972
-0.0007250151 0.0056620568 -0.0039130216
0.0004513524 -0.0032219710 -0.0039571844
0.0012952038 0.0205148439 -0.0037188060
0.0026500000 0.0305388296 -0.0028989847
0.0031434677 0.0109455587 -0.0024507993
0.0036338970 -0.0066763834 -0.0016287662
0.0039623842 -0.0085449992 -0.0004614961
0.0039069125 -0.0157082290 0.0007854001
0.0036013380 -0.0091978297 0.0016972689
0.0032579736 0.0223724589 0.0022456719
0.0021111685 0.0256177883 0.0033229351
0.0014307749 0.0058473461 0.0037209344
0.0006351861 0.0000034387 0.0039338434
-0.0007010197 0.0055011555 0.0039228084
-0.0014067237 -0.0213929142 0.0037249837
-0.0027970697 0.0277029790 0.0027766525
-0.0032914536 0.0314653824 0.0021543372
-0.0036987281 -0.0134191997 0.0014940749
0.0183857146 0.0250041307 0.0168880523
0.0184142424 0.0073267575 0.0168798879
0.0195161916 0.0286464802 0.0155954204
-0.0168247528 0.0159862726 0.0184861805
-0.0164325151 -0.0050581589 0.0188390216
-0.0158311740 0.0112278920 0.0193097427
0.0032193509 0.0053279396 0.0247519403
0.0006272009 0.0231941471 0.0249538905
0.0031015303 0.0261864915 0.0247634209
-0.0249444448 0.0019586315 0.0014917458
-0.0247498939 0.0286236361 0.0034405324
0.0207076558 0.0224623486 0.0139666490
0.0208961015 0.0060356396 0.0137077574
0.0211491922 0.0201744174 0.0133012578
0.0211987409 0.0280456254 0.0132139247
0.0228178024 -0.0175860101 0.0101217222
0.0231970988 0.0211832845 0.0092267911
0.0242402563 -0.0150106712 0.0060350829
0.0237548505 0.0086713553 0.0076876979
0.0242958138 0.0091187131 0.0058459315
0.0247832051 -0.0159685699 0.0031512469
0.0244932889 0.0215677675 0.0048351913
0.0248509011 0.0312359636 0.0025077104
0.0249243847 0.0256072255 0.0002516543
0.0249296637 0.0067901349 0.0002070636
0.0042052433 -0.0111576916 0.0246262242
0.0049893019 0.0015332649 0.0244833593
0.0068464540 0.0207977133 0.0240123424
0.0081567508 0.0050912902 0.0236005976
0.0084572457 -0.0115641512 0.0234862617
0.0100771114 0.0148760822 0.0228699161
0.0118611374 -0.0153055012 0.0219638285
0.0119329187 0.0312804532 0.0219265706
0.0133990272 0.0149217123 0.0210681378
0.0143060579 0.0215651145 0.0204556135
0.0139675048 0.0148031317 0.0206842408
0.0164235841 -0.0172260528 0.0187948283
0.0169347119 0.0130056003 0.0183562525
0.0175532617 0.0083480194 0.0177901876
-0.0135231486 -0.0074108563 0.0209806087
-0.0132364128 -0.0023516581 0.0211595625
-0.0131249181 0.0154237289 0.0212291471
-0.0100161702 -0.0113638524 0.0228728399
-0.0111594651 0.0174160549 0.0223307324
-0.0084981188 0.0021895891 0.0234724323
-0.0088931827 0.0317148560 0.0233381834
-0.0078489173 0.0098955690 0.0236930413
-0.0065648932 0.0131698709 0.0241166010
-0.0038767487 -0.0047600565 0.0246962546
-0.0029139030 -0.0047141908 0.0247927921
-0.0029502915 0.0217608006 0.0247892443
0.0001126284 -0.0006741768 0.0249818314
-0.0247297930 -0.0161600767 0.0036584626
-0.0246531668 -0.0037194175 0.0040439042
-0.0242024970 0.0260273250 0.0061952395
-0.0240515404 -0.0001342468 0.0067709987
-0.0239673733 0.0318408807 0.0070235517
-0.0229106820 0.0013901413 0.0099257347
-0.0231231278 0.0207316089 0.0094707946
-0.0230662039 0.0270303130 0.0095926938
-0.0207590152 -0.0118170734 0.0138878076
-0.0206981804 0.0033381524 0.0139865717
-0.0200734953 -0.0030538537 0.0148511285
-0.0197413431 0.0144037671 0.0152727428
-0.0192833944 0.0277220999 0.0158540357
-0.0176842365 -0.0149058766 0.0176284223
0.0010535577 -0.0160114411 0.0239903864
-0.0161706584 -0.0152183513 -0.0128325528
-0.0189735587 0.0317019097 -0.0162439468
-0.0199087749 0.0242395424 -0.0150593101
0.0000738731 -0.0176750739 -0.0249474164
-0.0017062989 0.0116135524 -0.0249378715
-0.0020739394 0.0153124081 -0.0248962451
-0.0025881719 0.0226251062 -0.0248306126
0.0173561017 0.0310574486 -0.0179430318
0.0162854604 -0.0030880868 -0.0189554119
0.0160555930 -0.0091813992 -0.0191451654
0.0249300763 -0.0106453115 -0.0017782378
-0.0249616297 -0.0048560203 0.0012591708
-0.0208755864 0.0166017868 -0.0137359416
-0.0216632212 -0.0026595079 -0.0123952461
-0.0221045362 0.0208633498 -0.0116173979
-0.0227691743 -0.0023284512 -0.0102364578
-0.0234875396 -0.0091530335 -0.0085415106
-0.0238837374 0.0080136970 -0.0072488888
-0.0240395325 -0.0156457306 -0.0067184680
-0.0240035677 0.0182889755 -0.0068409141
-0.0243536370 0.0316272679 -0.0056463430
-0.0246710323 0.0282530026 -0.0038027895
-0.0248872634 0.0095328003 -0.0013913322
-0.0249085277 0.0246410932 -0.0007384887
-0.0249646833 0.0091712430 0.0007435529
-0.0038221703 0.0101353139 -0.0246833354
-0.0061043896 -0.0024107701 -0.0242005472
-0.0058345901 0.0267055796 -0.0242689746
-0.0069836460 0.0003787909 -0.0239775473
-0.0084687990 0.0103664164 -0.0234818658
-0.0098558397 0.0179198141 -0.0229541082
-0.0104558987 0.0056370331 -0.0226932136
-0.0123649182 0.0094252440 -0.0217023426
-0.0132233398 -0.0139291186 -0.0211867807
-0.0128962993 0.0116518216 -0.0214076335
-0.0148022410 -0.0092761758 -0.0201205376
-0.0153354271 -0.0113008420 -0.0197285271
-0.0161791950 0.0261419765 -0.0190045277
-0.0173878015 -0.0107721582 -0.0179602087
0.0150991535 -0.0098834896 -0.0199098752
0.0143085757 -0.0092302994 -0.0204904184
0.0126151644 -0.0050004076 -0.0215472878
0.0096571084 -0.0137267302 -0.0230430936
0.0098122651 -0.0023888152 -0.0229695241
0.0082606133 -0.0038624127 -0.0235531405
0.0069744977 0.0145036920 -0.0239901830
0.0081193353 0.0192435808 -0.0236011490
0.0053693199 -0.0149677734 -0.0243744065
0.0042877511 0.0102234358 -0.0246076287
0.0026530434 -0.0101718253 -0.0248182252
0.0012216422 -0.0050937740 -0.0249577829
-0.0006493131 -0.0096111386 -0.0249825249
0.0247327552 0.0184272923 -0.0036352636
0.0242820048 -0.0177236441 -0.0058156980
0.0246858192 0.0296713951 -0.0038880330
0.0238835702 -0.0000988988 -0.0072750128
0.0236366080 0.0156257510 -0.0080160515
0.0238171443 0.0316641258 -0.0074743315
0.0227814862 0.0000724819 -0.0102023999
0.0225093854 0.0257997112 -0.0107850877
0.0216575986 -0.0001332974 -0.0124289758
0.0210513474 0.0098916595 -0.0134132122
0.0190434275 -0.0121113287 -0.0161586355
0.0195279333 0.0034249749 -0.0155436326
0.0202855885 0.0292395285 -0.0145819099
0.0178651880 0.0058130157 -0.0174435932
0.0140546582 0.0320000015 -0.0034707718
-0.0138997262 0.0320000015 -0.0047912423
-0.0219910362 0.0320000015 -0.0029596821
-0.0028314567 0.0320000015 -0.0154095650
-0.0005104848 0.0320000015 -0.0145970692
0.0107015329 0.0320000015 0.0038522077
0.0179277502 0.0320000015 0.0030584036
-0.0149426329 0.0320000015 -0.0099293385
-0.0165416527 0.0320000015 -0.0065361986
0.0123514378 0.0320000015 -0.0143785339
0.0179406012 0.0320000015 0.0109839725
0.0022418215 0.0320000015 0.0098749159
-0.0001585208 0.0320000015 0.0128526447
-0.0070139057 0.0320000015 -0.0220649492
-0.0025866788 0.0320000015 -0.0049973079
-0.0161812235 0.0320000015 -0.0179485166
0.0094482200 0.0320000015 -0.0153913202
0.0076189812 0.0320000015 -0.0224290407
0.0024231827 0.0320000015 -0.0173301686
0.0088361562 0.0320000015 0.0161806090
0.0104557679 0.0320000015 0.0166207411
0.0086271762 0.0320000015 0.0082209452
-0.0044193634 0.0320000015 0.0188784562
0.0225912728 0.0320000015 -0.0070862719
0.0063826974 0.0320000015 -0.0031677192
0.0078788975 0.0320000015 -0.0067317997
-0.0057344998 0.0320000015 0.0082164452
-0.0111339207 0.0320000015 0.0208689035
-0.0149711802 0.0320000015 0.0093801912
-0.0138825916 0.0320000015 0.0143413021
-0.0071381137 0.0320000015 0.0020512484
-0.0207948133 0.0320000015 0.0082926190
0.0019363693 -0.0163298884 0.0230609735
0.0047011367 -0.0242000017 0.0067823927
-0.0047103628 -0.0242000017 0.0069430368
-0.0058131165 -0.0242000017 -0.0063973496
0.0039773892 -0.0242000017 -0.0049637775
0.0049058357 -0.0242000017 0.0026332509
0.0100302221 -0.0180999991 -0.0032395472
-0.0114154493 -0.0180999991 -0.0216518568
0.0167097038 -0.0180999991 0.0153370573
0.0155913281 -0.0180999991 0.0073949868
0.0120173675 -0.0180999991 -0.0105125720
0.0094052657 -0.0180999991 -0.0186593190
0.0117372079 -0.0180999991 -0.0173268971
0.0010180692 -0.0180999991 -0.0216622137
0.0045185101 -0.0180999991 -0.0137867938
-0.0121366745 -0.0180999991 -0.0054176122
0.0104230124 -0.0180999991 0.0143640101
0.0051002670 -0.0180999991 0.0126963796
0.0208579797 -0.0180999991 -0.0025501673
0.0202937080 -0.0180999991 0.0067656022
-0.0024020654 -0.0180999991 -0.0144092742
-0.0177527952 -0.0180999991 -0.0118296130
-0.0156780173 -0.0180999991 -0.0109450834
-0.0095001934 -0.0180999991 -0.0156637199
-0.0229823668 -0.0180999991 -0.0045184484
-0.0189399380 -0.0180999991 0.0009662867
0.0068262041 -0.0180999991 0.0224040922
0.0020956945 -0.0180999991 0.0221566352
-0.0211364519 -0.0180999991 0.0058593119
-0.0131741880 -0.0180999991 0.0105121891
-0.0039988875 -0.0180999991 0.0163556425
-0.0086863380 -0.0180999991 0.0146348484
-0.0158405793 -0.0180999991 0.0188387944
-0.0075021943 -0.0191050432 0.0063625950
0.0015843050 -0.0183563703 0.0097846175
0.0091757239 -0.0211938100 0.0036832167
0.0070424007 -0.0231931967 -0.0068843816
0.0004267252 -0.0202224132 -0.0099049839
-0.0082157299 -0.0195877704 -0.0054519867
-0.0062118375 -0.0242000017 -0.0043690444
-0.0027711541 -0.0242000017 0.0032790723
0.0007099188 -0.0242000017 -0.0059513025
0.0004073180 -0.0242000017 0.0053352427
0.0073603200 -0.0242000017 0.0001796175
-0.0052224946 -0.0188484356 0.0084223084
0.0046159491 -0.0238275899 0.0087745295
0.0098960144 -0.0232689012 0.0005992536
0.0065139442 -0.0197286471 -0.0075227633
-0.0043747505 -0.0220654264 -0.0088658616
-0.0094559138 -0.0206565317 -0.0029826539
-0.0137466121 -0.0182000007 -0.0059898811
-0.0154260085 -0.0182000007 -0.0039884587
-0.0018714883 -0.0182000007 -0.0169557144
-0.0039939043 -0.0182000007 -0.0122834638
0.0157169644 -0.0182000007 -0.0001091529
-0.0207737351 -0.0182000007 -0.0133180072
0.0093969724 -0.0182000007 -0.0034315424
0.0129283106 -0.0182000007 -0.0089071134
0.0167511210 -0.0182000007 0.0021145529
-0.0103490678 -0.0182000007 -0.0181653476
-0.0126684307 -0.0182000007 -0.0212436857
0.0081633681 -0.0182000007 -0.0124780364
0.0038559194 -0.0182000007 -0.0099561051
0.0058579430 -0.0182000007 0.0091041130
0.0035481979 -0.0182000007 0.0162678313
0.0079347768 -0.0182000007 0.0140175451
0.0001837081 -0.0182000007 0.0185518618
0.0019279248 -0.0182000007 0.0205697287
0.0140147611 -0.0182000007 -0.0029321241
0.0202830575 -0.0182000007 0.0138235728
0.0211670535 -0.0182000007 0.0067034116
-0.0064369245 -0.0182000007 0.0199804872
-0.0060992957 -0.0182000007 0.0088580021
-0.0182889416 -0.0182000007 0.0109090030
-0.0166947828 -0.0182000007 0.0112492869
-0.0210125339 -0.0182000007 0.0014303549
-0.0185624637 -0.0182000007 0.0038827389
0.0017490680 -0.0292880154 0.0035300345
-0.0039814232 -0.0249196162 0.0002120815
0.0007081725 -0.0300388105 -0.0039214610
-0.0193722237 -0.0201591234 -0.0156927411
-0.0027952569 -0.0223798370 -0.0248034596
0.0246559203 -0.0199218547 -0.0030664813
-0.0209920386 -0.0205883846 -0.0135559993
-0.0226802679 -0.0313989686 -0.0103415094
-0.0237940133 -0.0210848135 -0.0071765831
-0.0248196677 -0.0289904994 -0.0025063332
-0.0063197726 -0.0314331253 -0.0240957885
-0.0119938835 -0.0266753911 -0.0219103571
-0.0150104587 -0.0248805189 -0.0199371490
-0.0179531095 -0.0239832943 -0.0173399768
0.0099498187 -0.0311988751 -0.0228466328
0.0084636141 -0.0261070918 -0.0234424836
0.0036277206 -0.0283844327 -0.0246562498
-0.0000445033 -0.0248821095 -0.0249473087
0.0240289838 -0.0197322510 -0.0066693860
0.0226324403 -0.0252767355 -0.0104536062
0.0203251714 -0.0224016615 -0.0144325418
0.0199549122 -0.0228029781 0.0149897636
-0.0180535073 -0.0317114831 0.0170347160
-0.0248215515 -0.0218177185 0.0017987475
0.0203588182 -0.0256597897 0.0144239412
0.0230577265 -0.0234706284 0.0094540916
0.0245100040 -0.0291144664 0.0044891112
0.0249747097 -0.0273271090 -0.0005779886
0.0068297038 -0.0225862995 0.0239590845
0.0106398361 -0.0259548117 0.0225261375
0.0142080972 -0.0255926454 0.0204896467
0.0177927051 -0.0237668287 0.0174936750
-0.0131829739 -0.0260133526 0.0212150407
-0.0074866784 -0.0288653833 0.0237597461
-0.0042599804 -0.0191941392 0.0245930992
-0.0245899571 -0.0277451051 0.0043126718
-0.0228049215 -0.0243771672 0.0100833741
-0.0209851117 -0.0258742318 0.0133982674
-0.0185058423 -0.0194006326 0.0166340720
0.0237703230 -0.0320000015 -0.0015890858
0.0140343998 -0.0320000015 -0.0002996605
0.0131700743 -0.0320000015 0.0007802967
-0.0062542585 -0.0320000015 -0.0184264959
-0.0083901811 -0.0320000015 -0.0144213488
0.0144225459 -0.0320000015 -0.0203844303
-0.0135989988 -0.0320000015 -0.0200989356
-0.0145692694 -0.0320000015 -0.0102216243
-0.0139279884 -0.0320000015 -0.0075103076
-0.0118187920 -0.0320000015 0.0102312215
-0.0183899815 -0.0320000015 0.0163512599
0.0050751878 -0.0320000015 0.0109309353
0.0013272914 -0.0320000015 0.0237022037
0.0121674040 -0.0320000015 0.0185065115
0.0137649716 -0.0320000015 0.0107563648
0.0057289604 -0.0320000015 0.0093184089
0.0219722901 -0.0320000015 0.0061469465
0.0035191781 -0.0320000015 -0.0036211346
0.0081545430 -0.0320000015 -0.0022900819
-0.0102225418 -0.0320000015 -0.0015216396
-0.0087866103 -0.0320000015 0.0062915474
-0.0169123972 -0.0320000015 0.0031198829
-0.0101755323 -0.0320000015 0.0023328243
-0.0222570044 -0.0320000015 0.0035799648
0.0125116519 -0.0320000015 -0.0064513339
0.0158193153 -0.0320000015 -0.0163648154
0.0068754757 -0.0320000015 -0.0161718083
-0.0060190995 -0.0320000015 0.0166948587
-0.0046629832 -0.0320000015 0.0138552378
0.0063154889 -0.0320000015 -0.0153810928
0.0030752336 -0.0320000015 -0.0106474043
0.0245446588 -0.0261814809 -0.0015405855
-0.0157430700 -0.0266128040 -0.0146051353
0.0024977651 -0.0269440744 0.0220774755
0.0219296316 -0.0294156960 0.0072743143
0.0199068638 -0.0272279627 -0.0108545525
-0.0108453929 -0.0291814318 -0.0201290993
-0.0198148630 -0.0304963084 0.0108357807
-0.0205930759 -0.0265947314 0.0010260557
-0.0194500059 -0.0136983323 -0.0200781397
-0.0077041485 -0.0159510432 -0.0268950818
-0.0279853788 -0.0172979071 0.0000186939
-0.0217417894 -0.0129311327 0.0175894233
-0.0028407905 -0.0130947707 0.0278197994
0.0184730590 -0.0139794257 0.0209773194
0.0279676464 -0.0161383464 0.0006831797
0.0202817674 -0.0168507329 -0.0192436667
0.0095627535 -0.0194989804 -0.0256092647
0.0250638127 -0.0175796597 0.0082470126
-0.0247078217 -0.0184395509 0.0113120672
-0.0115117935 -0.0181925505 -0.0240928283
0.0229926853 -0.0185057900 0.0191703134
-0.0046092603 -0.0176156629 -0.0294579521
-0.0296003330 -0.0189832638 -0.0038943411
-0.0247743099 -0.0184318180 0.0167808899
0.0137172437 -0.0193631587 0.0265745361
0.0292422433 -0.0185044327 0.0062551281
0.0034977507 -0.0185797203 -0.0297260781
0.0281273097 -0.0173200018 -0.0071039737
0.0181695254 -0.0173841513 0.0229443715
-0.0281059714 -0.0173520666 0.0079831038
-0.0239460173 -0.0173297803 -0.0150714359
0.0121886056 -0.0173000004 -0.0259405274
-0.0042793916 -0.0125000002 -0.0250255437
0.0044158523 -0.0125056019 0.0254904555
0.0238805786 -0.0125000002 0.0114063114
0.0269492901 -0.0125234578 -0.0005824205
-0.0145360742 -0.0125000002 0.0224795057
-0.0244342205 -0.0137750360 0.0048458376
0.0175029943 -0.0135700809 0.0178186632
0.0058981730 -0.0135427170 -0.0240804832
0.0195304987 -0.0155667696 -0.0155322551
0.0246277558 -0.0151155592 -0.0039795252
0.0219206055 -0.0169448993 0.0118027999
0.0097439584 -0.0158385545 0.0229326707
-0.0082991828 -0.0150169910 0.0234135141
-0.0202091579 -0.0154474658 0.0144674166
-0.0247604974 -0.0146793421 -0.0027188574
-0.0200965563 -0.0156738458 -0.0148350590
-0.0069824836 -0.0133194158 -0.0238947678
0.0188298001 -0.0188102260 -0.0170786190
0.0234126424 -0.0192613957 0.0098162427
-0.0017519829 -0.0187456190 0.0252612288
-0.0231053196 -0.0199987417 0.0103291597
-0.0185859410 -0.0191809611 -0.0173177878
0.0168851951 -0.0203000009 -0.0206813718
0.0264300654 -0.0203000009 0.0059225460
0.0251697059 -0.0203000009 0.0143051409
-0.0000057256 -0.0203000009 0.0257621280
-0.0216438680 -0.0203000009 0.0185616980
-0.0253437577 -0.0203000009 -0.0012960333
-0.0072496889 -0.0203000009 -0.0262268226
0.0257746714 -0.0203000009 -0.0090474782
0.0140807781 -0.0203000009 0.0257641171
-0.0292632180 -0.0203000009 -0.0024434398
-0.0223032991 -0.0203000009 -0.0168094346
-0.0044040455 -0.0148204483 -0.0275270849
-0.0216773692 -0.0174564886 -0.0166770857
-0.0276624021 -0.0178599742 0.0021913205
-0.0197594048 -0.0175525825 0.0211371421
0.0190658344 -0.0143739754 0.0165926031
0.0251778023 -0.0163230763 -0.0019441239
0.0183549035 -0.0163098439 -0.0191675496
-0.0240435949 -0.0178459286 -0.0062500761
0.0248499205 -0.0179437186 -0.0023929520
-0.0250201850 -0.0127110826 -0.0001237233
0.0245823258 -0.0129680400 -0.0032821180
0.0070589479 -0.0175798704 0.0290232940
-0.0298777403 -0.0200156253 0.0010347063
0.0213787260 -0.0202335043 0.0198929496
-0.0244735395 -0.0144032599 -0.0085587379
-0.0070871956 -0.0138781712 0.0252034193
0.0269108735 -0.0145382974 0.0064108626
-0.0255355659 -0.0132703435 -0.0108079472
0.0234070853 -0.0139449982 -0.0149851695
-0.0082877341 0.0374586312 -0.0273469704
0.0286468244 0.0424190936 -0.0009049195
0.0272668561 0.0399111709 -0.0087421684
0.0243513281 0.0430816543 -0.0150987678
0.0200083523 0.0430123463 -0.0204202402
0.0137225640 0.0437009545 -0.0250892380
0.0055979121 0.0380067030 -0.0280914009
0.0001311512 0.0401281678 -0.0286676306
0.0009390834 0.0450375685 -0.0286166563
-0.0013306898 0.0462485710 -0.0281013062
-0.0155589558 0.0433758748 -0.0239274130
-0.0238511582 0.0384330450 -0.0158663046
-0.0273094390 0.0436434972 -0.0086465203
-0.0285823696 0.0425630589 -0.0005495504
-0.0217411604 0.0442357209 -0.0184970189
-0.0278876762 0.0463390230 0.0031042232
0.0244561594 0.0432932669 0.0148789421
-0.0206666866 0.0381884800 0.0197998871
-0.0155740688 0.0405760669 0.0240359812
-0.0075777385 0.0382216675 0.0276290596
-0.0018560268 0.0448483582 0.0285983290
0.0089610108 0.0404470890 0.0271863510
0.0153535862 0.0418782439 0.0241674701
0.0219067275 0.0391457029 0.0184314245
0.0003883448 0.0469658412 0.0277026021
0.0033412150 0.0456127939 0.0281422605
0.0138852236 0.0380000100 -0.0262789382
-0.0143022120 0.0380000100 -0.0267420828
-0.0207530317 0.0380000100 0.0226231231
0.0306877872 0.0380000100 -0.0033656961
0.0268807183 0.0380000100 0.0140043037
-0.0059911665 0.0529012395 -0.0015757443
-0.0130207128 0.0468424798 -0.0265445914
-0.0095951546 0.0386094619 0.0293485290
-0.0224266000 0.0393523939 0.0212864942
-0.0295672654 0.0409171249 0.0089154826
-0.0304152704 0.0420836013 -0.0046545604
-0.0262630298 0.0387437109 -0.0162654125
-0.0150426112 0.0399218377 -0.0269344947
-0.0031644322 0.0402696966 -0.0306777376
0.0114410041 0.0411067278 -0.0286845673
0.0219581793 0.0410679034 -0.0216406699
0.0292095487 0.0388310333 -0.0100825350
0.0300071995 0.0412142098 0.0070221535
0.0241746761 0.0400256282 0.0192953044
0.0143644053 0.0415303187 0.0273300071
-0.0014232836 0.0445445553 0.0303974481
-0.0248949363 0.0429751824 0.0180131001
-0.0287988413 0.0437079258 -0.0103882270
-0.0012929925 0.0421230584 -0.0308338127
0.0167662610 0.0431018656 -0.0256971401
0.0298422627 0.0435968840 -0.0069735828
0.0252961022 0.0433165369 0.0173440678
0.0055405377 0.0445413076 0.0299466286
-0.0092658182 0.0449306220 0.0288855669
-0.0296103589 0.0465091507 0.0020468407
-0.0166243558 0.0455543217 -0.0251983114
0.0187378140 0.0450618223 -0.0238691826
0.0295858491 0.0456072986 0.0058007644
-0.0286528940 0.0466931902 0.0076176501
-0.0079470837 0.0470084847 -0.0284533548
0.0219107122 0.0462432817 -0.0201492780
0.0262796611 0.0467892408 0.0137667694
0.0018872277 0.0460256211 0.0299429323
-0.0251953012 0.0475289138 0.0144670545
-0.0063313469 0.0483934448 -0.0277428660
0.0276767544 0.0478391010 -0.0083422775
0.0057629045 0.0486225650 0.0275026085
-0.0275036277 0.0488498319 -0.0034059437
0.0125171110 0.0480649452 -0.0258344587
-0.0174027636 0.0488627596 0.0217934121
0.0267156845 0.0491026954 -0.0070892860
-0.0025257833 0.0496145300 0.0265658683
-0.0220691857 0.0502474680 -0.0128069318
0.0124060076 0.0503654108 -0.0220654469
0.0163146549 0.0501506932 0.0198864496
-0.0206379568 0.0492873477 0.0178857738
-0.0203206316 0.0508793812 -0.0127011292
0.0242351358 0.0503891190 0.0068989853
-0.0024993931 0.0504252665 0.0250693280
-0.0238521367 0.0509454641 -0.0003577822
0.0128012760 0.0509788688 -0.0200263030
0.0221880137 0.0511254644 -0.0062545842
-0.0211104158 0.0512942606 0.0079201917
0.0013392198 0.0513190503 -0.0223801334
0.0229149454 0.0511278090 0.0030330978
0.0058862259 0.0510690588 0.0226385566
-0.0155382336 0.0520356900 0.0111272915
-0.0199274653 0.0519019817 -0.0020602226
-0.0090166750 0.0515941935 -0.0194755381
0.0197562566 0.0516130020 -0.0072949816
-0.0038442388 0.0522746662 0.0170544250
0.0037112924 0.0521314469 -0.0177767007
0.0183609972 0.0521566322 -0.0007743744
0.0132908135 0.0523507195 0.0098932014
-0.0100784332 0.0521704456 0.0149858122
-0.0141553013 0.0523962145 -0.0081756562
0.0006057675 0.0524803975 -0.0150192624
0.0065192208 0.0524660175 0.0141273880
-0.0108315038 0.0527438857 0.0044560347
-0.0098490818 0.0528397722 0.0005036602
0.0096045976 0.0527095456 -0.0073366998
0.0125965244 0.0526736557 -0.0005016228
0.0027860514 0.0525774483 0.0141230002
-0.0088889993 0.0528232225 -0.0036307305
0.0075173252 0.0527748232 0.0082000799
-0.0052588062 0.0527864297 0.0102231561
0.0029462270 0.0528945707 -0.0055931529
0.0065526271 0.0529195031 -0.0007918411
0.0162990226 0.0371541855 0.0246311069
0.0199281640 0.0372966589 -0.0217482507
-0.0269310761 0.0374493522 -0.0117488636
-0.0043682902 0.0371656269 0.0290076324
-0.0026351061 0.0512920801 0.0108684170
0.0035607434 0.0513919279 0.0045889510
-0.0033833942 0.0514432910 -0.0053578777
-0.0024923090 0.0510683690 -0.0145020032
0.0001382652 0.0513629744 0.0065438119
-0.0131957721 0.0511185077 -0.0039138721
-0.0068674228 0.0506072905 -0.0170281254
-0.0042122343 0.0507487990 0.0169750678
-0.0180968974 0.0499642598 -0.0120058690
-0.0139050228 0.0506603544 -0.0105175197
-0.0204727155 0.0497290208 0.0098461744
-0.0196192692 0.0503762179 0.0002049290
-0.0222058097 0.0495887449 -0.0060948460
0.0070827194 0.0514278937 -0.0002767045
0.0158468348 0.0507910149 0.0060866672
0.0190806118 0.0495367575 0.0132883401
-0.0220270897 0.0491905252 -0.0099629845
0.0111321125 0.0507116450 -0.0137778865
0.0025164443 0.0513766596 -0.0073255100
-0.0241529657 0.0483795047 -0.0091675467
-0.0037826301 0.0514301117 -0.0060229610
-0.0263020697 0.0478921709 0.0011991260
0.0082682452 0.0506976922 -0.0157992940
0.0253307282 0.0480926312 -0.0074677771
-0.0078248003 0.0502544282 0.0188386694
-0.0098363914 0.0500020048 0.0194280984
-0.0110022206 0.0504314783 0.0163656619
-0.0196360803 0.0488420464 0.0155885408
-0.0086287018 0.0513824272 0.0011215793
-0.0058127268 0.0499808367 -0.0205222770
0.0042713015 0.0505079300 -0.0185029684
0.0007810686 0.0509172423 -0.0157420629
0.0064069351 0.0501417393 -0.0199756164
0.0264250509 0.0463093543 -0.0096619042
0.0192465247 0.0504346759 -0.0032133786
0.0098964373 0.0513361618 0.0000176145
0.0271769263 0.0470813210 0.0039919366
0.0195694888 0.0481319172 0.0175825329
0.0141584190 0.0483498469 0.0218429323
0.0074796704 0.0509768979 0.0129874878
0.0049336957 0.0482015772 0.0257437987
0.0037647333 0.0476339499 0.0266603350
-0.0255054864 0.0375193038 0.0097182208
-0.0243099286 0.0446180022 0.0080126259
-0.0244915728 0.0458122440 0.0122849880
-0.0098906594 0.0368792153 -0.0250277939
0.0265819828 0.0367318994 0.0110023207
-0.0089323682 0.0413509821 -0.0231243620
0.0250633500 0.0467708933 0.0075322482
0.0272084644 0.0458071952 0.0118849633
0.0266373434 0.0432041233 0.0088766814
-0.0116903405 0.0429267408 -0.0240619104
0.0246028168 0.0434589773 0.0143555741
-0.0277935672 0.0442215515 0.0060348197
0.0251586724 0.0376637829 0.0129598078
0.0236587665 0.0407431595 0.0126768526
-0.0286938154 0.0368278408 -0.0020864227
0.0158799626 -0.0081177004 0.0325808873
-0.0080042205 0.0159029933 0.0331147240
0.0266903064 -0.0067077754 0.0072834850
0.0234494695 -0.0029430472 0.0155903329
0.0240421063 -0.0058808493 0.0126333291
-0.0271601974 0.0111087669 0.0065371674
-0.0258763129 0.0085138087 0.0080932849
-0.0241028576 -0.0054738826 0.0134119279
-0.0148267507 0.0086315466 -0.0237705062
-0.0119274441 0.0107275931 -0.0239606630
-0.0066916882 -0.0018972040 -0.0270417824
-0.0117117050 0.0094953940 0.0255967922
-0.0099444917 0.0093275986 0.0263287497
-0.0018559622 0.0114287252 0.0280980677
0.0083884661 0.0129667602 0.0268776555
0.0114968678 -0.0068185639 0.0256560570
0.0021463295 -0.0113716253 0.0281634904
-0.0059224085 -0.0090680515 0.0276862607
0.0131480707 0.0041894246 0.0249320581
0.0247986588 -0.0162445555 0.0135175724
0.0159644066 -0.0098057468 0.0232403526
0.0160712089 0.0055780666 0.0231667434
0.0174934189 0.0057883327 0.0220568012
0.0192996843 0.0142685513 0.0205050418
0.0210834738 0.0020562596 0.0187080776
0.0211891368 0.0124932788 0.0185816000
-0.0241791119 -0.0089205471 0.0144342423
-0.0224261006 -0.0134920234 0.0170265091
-0.0226559405 0.0078929108 0.0166782344
-0.0192724723 0.0026255043 0.0205271876
-0.0175987346 -0.0100739841 0.0219719557
-0.0164865149 0.0044242220 0.0228224567
-0.0153937469 0.0040943316 0.0236076758
-0.0005987552 0.0154999709 0.0295035236
0.0271105140 -0.0078905816 0.0075566834
0.0264388243 0.0022867481 -0.0096728838
0.0257294626 0.0031200621 -0.0115215644
0.0115094297 0.0088263897 -0.0257237294
0.0085404001 0.0136562484 -0.0268452803
0.0060118918 -0.0146824092 -0.0275104055
0.0047443540 -0.0031184093 -0.0277828085
0.0017363790 -0.0031236178 -0.0281441901
-0.0005074937 -0.0169229472 -0.0281551190
-0.0014443685 0.0085636312 -0.0281513360
-0.0022374027 0.0020368978 -0.0280818732
-0.0045448145 0.0006799435 -0.0278225192
0.0244974862 0.0054928924 -0.0139489645
0.0231834911 -0.0097156694 -0.0159959365
0.0214756748 -0.0037127659 -0.0182269694
0.0209719929 -0.0100793041 -0.0187906636
0.0199089168 0.0064127830 -0.0199339332
0.0175142456 -0.0019868079 -0.0220620267
0.0153721214 -0.0040108180 -0.0235743564
0.0148690928 -0.0058269954 -0.0239056757
0.0129921016 0.0137843181 -0.0249713027
0.0272066702 0.0075038195 -0.0072486748
0.0278379616 0.0014135777 -0.0042687676
0.0281124022 -0.0045693445 -0.0019986767
0.0281428688 -0.0112888383 -0.0017267405
0.0281508737 0.0083937981 0.0015592870
0.0280765433 -0.0157311307 0.0022403918
0.0277639082 0.0138926182 0.0046274926
0.0211829986 0.0154999709 -0.0208417247
-0.0288448915 0.0260818921 0.0073657193
0.0273082190 0.0371709364 0.0115686526
-0.0049621093 0.0201378480 -0.0293772540
-0.0025950942 0.0213251087 -0.0296488383
-0.0001652423 0.0210065448 -0.0297513958
0.0019452087 0.0290506637 -0.0297234043
0.0073716431 0.0339345033 -0.0288310095
0.0096611484 0.0301937773 -0.0281413580
0.0098205915 0.0244792558 -0.0280844693
0.0142594220 0.0156803533 -0.0261420578
0.0152049147 0.0321336678 -0.0255939514
0.0186918709 0.0298692760 -0.0231472116
0.0192576503 0.0267230201 -0.0226845775
0.0207581029 0.0180247823 -0.0213291887
0.0243101626 0.0315734574 -0.0171950605
0.0247910977 0.0298738497 -0.0165019524
0.0268671148 0.0298175552 -0.0127877238
0.0270934540 0.0163255883 -0.0122921083
0.0283676622 0.0280293150 -0.0089708554
0.0289032875 0.0342128177 -0.0071694780
0.0296320431 0.0322802146 -0.0026649808
0.0297439478 0.0327208837 0.0006856969
0.0296932479 0.0373975461 0.0024603982
0.0291834215 0.0178410088 0.0055746505
-0.0289420010 0.0297068195 0.0070088065
-0.0294914269 0.0205579993 0.0039359963
-0.0296987660 0.0207091199 0.0022672430
-0.0297066848 0.0365595247 -0.0017959434
-0.0292851226 0.0377408052 -0.0052850597
-0.0290924970 0.0190059324 -0.0062356984
-0.0279048177 0.0168198588 -0.0103953459
-0.0267771915 0.0339837416 -0.0129846291
-0.0254712014 0.0294412593 -0.0153741298
-0.0254122376 0.0188174760 -0.0154719100
-0.0229986119 0.0178475126 -0.0188959201
-0.0203100492 0.0170581467 -0.0217902248
-0.0200022329 0.0366347800 -0.0220757372
-0.0171451139 0.0164521610 -0.0243530389
-0.0254472717 0.0180392691 0.0154478957
-0.0228214273 0.0224269140 0.0190942991
-0.0201701679 0.0201616987 0.0218704065
-0.0197082392 0.0320619315 0.0222943605
-0.0171849882 0.0338787054 0.0242891187
-0.0155119930 0.0165585011 0.0254076825
-0.0116359409 0.0166843284 0.0273816417
-0.0106073549 0.0335313862 0.0278163212
-0.0082897559 0.0280780962 0.0285733203
-0.0051908354 0.0336605421 0.0292953004
-0.0015045080 0.0177235107 0.0297139581
0.0004032140 0.0161915871 0.0297769347
0.0017844432 0.0371315333 0.0296979503
0.0059809888 0.0240434419 0.0291585611
0.0069042713 0.0231184050 0.0289801347
0.0109479136 0.0308876245 0.0276724014
0.0143281397 0.0181597147 0.0260762409
0.0158375863 0.0318542647 0.0252238099
0.0163322794 0.0379983655 0.0249086507
0.0197580202 0.0159842094 0.0222486720
0.0214165467 0.0253779915 0.0207156181
0.0216840013 0.0363700406 0.0204069590
0.0254076015 0.0363362505 0.0154200247
-0.0247531145 0.0054580116 -0.0134831445
-0.0255393540 0.0110116488 -0.0118546800
-0.0269272939 0.0008765337 -0.0083049704
-0.0280573404 0.0131060751 0.0025200262
-0.0280279638 -0.0068140118 0.0027440798
-0.0281544414 -0.0081267291 0.0009363543
-0.0281604886 -0.0016649558 -0.0013699829
-0.0280065790 0.0101039514 -0.0029067905
-0.0277263089 0.0001422753 -0.0050379297
-0.0272881458 -0.0030050267 -0.0069656935
-0.0240911302 -0.0003345025 -0.0145822383
-0.0241736997 0.0106486205 -0.0144526797
-0.0225028568 -0.0094204457 -0.0169426872
-0.0224847356 0.0112604903 -0.0169733999
-0.0203356001 0.0132908605 -0.0194875267
-0.0180951196 -0.0161922163 -0.0215839388
-0.0178206349 0.0073462930 -0.0218021364
-0.0257039917 -0.0212505158 -0.0152454939
-0.0161007549 -0.0175180453 -0.0251693324
-0.0298075989 -0.0180623080 -0.0021408712
-0.0049589597 -0.0182136802 -0.0295630590
0.0058233760 -0.0199545319 -0.0293939608
0.0239763042 -0.0197254174 -0.0179528272
0.0298835062 -0.0212320966 -0.0017581953
0.0251670466 -0.0209027957 0.0161576352
0.0145414998 -0.0204352674 0.0261212741
-0.0009794043 -0.0186125703 0.0299286465
-0.0190635580 -0.0189675907 0.0231145657
-0.0298475453 -0.0212817392 0.0000190854
0.0023156929 -0.0158012820 0.0309146812
-0.0135836917 0.0082486505 0.0300256918
0.0139861113 0.0077026250 0.0308213071
-0.0173563336 0.0112803243 0.0260202738
-0.0185104371 -0.0082207491 0.0253520171
-0.0205972099 -0.0065286950 0.0233299482
-0.0137485112 0.0138159514 0.0283210093
-0.0132487545 -0.0123178380 0.0309422004
-0.0035661966 -0.0180851128 0.0313463560
-0.0186728616 -0.0006475700 0.0276210974
-0.0166787393 0.0100464023 0.0271578583
0.0027222592 -0.0205646819 0.0308967654
0.0192280427 0.0081320595 0.0245966215
0.0059292654 0.0255560697 0.0303491633
0.0184713051 0.0127313865 0.0248857435
0.0218511549 -0.0058074758 0.0220548518
0.0118987025 0.0140920506 0.0309890762
0.0171723358 -0.0052067058 0.0319687985
0.0168403147 -0.0064175975 0.0325471569
0.0191531885 -0.0020962304 0.0256704721
0.0138466415 0.0129441997 0.0286472955
-0.0028569956 0.0256406869 0.0308584113
-0.0050665777 0.0260412284 0.0305313938
-0.0095036005 0.0321595599 0.0294934173
-0.0123360810 0.0344670169 0.0283954949
-0.0112513418 0.0202916060 0.0288505357
-0.0176132877 0.0367962325 0.0254555221
-0.0210804770 0.0145084682 0.0227089453
-0.0202667639 0.0308062144 0.0234262597
-0.0196213746 0.0227206189 0.0240125718
-0.0228025130 0.0281426578 0.0209392925
-0.0258838433 -0.0187574988 0.0170079586
-0.0246481877 0.0121213294 0.0187546930
-0.0238481352 -0.0051556880 0.0197751551
-0.0223247274 -0.0156679956 0.0213836047
-0.0166420680 -0.0207229938 0.0260230352
0.0160655912 -0.0190347856 0.0264283141
0.0236697688 -0.0177439732 0.0199744738
0.0250089231 0.0195862993 0.0182399334
0.0259629530 0.0336529032 0.0168953561
0.0236860413 0.0058371969 0.0199555054
0.0207181387 0.0371345222 0.0229953231
0.0216291899 0.0284191819 0.0221706486
0.0167620221 0.0280392394 0.0260086707
0.0174029323 0.0242012773 0.0255732883
0.0124418346 0.0229159826 0.0283945175
0.0161416350 0.0335526200 0.0264484311
0.0082088234 0.0309470467 0.0298731443
0.0014501561 0.0285244531 0.0309418566
0.0040016755 0.0302453087 0.0307243477
0.0007073713 -0.0095206542 -0.0309756497
-0.0003747794 0.0191681956 -0.0309696323
-0.0009730051 0.0134201051 -0.0309331496
-0.0004903999 -0.0067211665 -0.0309582824
-0.0254435405 0.0041583748 0.0176311671
-0.0266061605 0.0252104798 0.0158457621
-0.0262883105 0.0087540412 0.0164208644
-0.0277737039 0.0306958051 0.0137332659
-0.0272582895 0.0076553901 0.0146658317
-0.0288541592 0.0204346570 0.0112193616
-0.0287932101 -0.0055835932 0.0113665065
-0.0289529087 0.0214230458 0.0109809578
-0.0298949166 0.0287725489 0.0080361443
-0.0293813552 0.0292107017 0.0098187447
-0.0299087469 0.0025433227 0.0079881384
-0.0298581152 0.0127578088 0.0081638839
-0.0302253178 0.0311282722 0.0068831420
-0.0304580550 -0.0142480441 0.0055133420
-0.0305004699 -0.0171809666 0.0052637044
-0.0309189640 0.0244182117 0.0014429755
-0.0308746758 0.0066314485 0.0022316043
-0.0309833064 0.0032906277 0.0002972450
-0.0309893528 -0.0117005461 -0.0001895885
-0.0308594112 0.0240163942 -0.0025034261
-0.0309090939 0.0049023386 -0.0016187391
-0.0308495209 -0.0005229918 -0.0026795415
-0.0304510551 0.0162440519 -0.0055545316
-0.0306442863 -0.0043128207 -0.0044172586
-0.0306961550 -0.0163944707 -0.0041119820
-0.0297906304 0.0360683602 -0.0083981204
-0.0299132266 -0.0018435118 -0.0079725781
-0.0295760415 -0.0141645415 -0.0091429772
-0.0294282451 0.0075415807 -0.0096559914
-0.0283938802 0.0371769934 -0.0123305697
-0.0281025434 0.0289069732 -0.0130339165
-0.0282220528 -0.0189675125 -0.0127453962
-0.0277229747 0.0076233393 -0.0138250363
-0.0264642944 0.0330859851 -0.0161024548
-0.0269053780 -0.0098035673 -0.0153043713
-0.0263209351 0.0297595987 -0.0163618449
-0.0251546547 0.0197255698 -0.0180345554
-0.0246284628 0.0201420987 -0.0187761525
-0.0243828714 -0.0005319692 -0.0191222806
-0.0228775472 0.0362210840 -0.0208491545
-0.0221724423 0.0319306020 -0.0216381644
-0.0221811798 0.0052194125 -0.0216283872
-0.0207804260 0.0239134901 -0.0229389663
-0.0216982055 -0.0083346164 -0.0221187850
-0.0202358749 0.0119829019 -0.0234256089
-0.0213934876 -0.0095253531 -0.0223910987
-0.0189174447 0.0138620332 -0.0245282112
-0.0172152821 -0.0181441518 -0.0257359672
-0.0187679401 -0.0148936852 -0.0246342910
-0.0162836467 0.0268720888 -0.0263641618
-0.0156144730 0.0248112790 -0.0267339970
-0.0138313377 0.0174645142 -0.0277194903
-0.0154237681 -0.0029229303 -0.0268393947
-0.0121806200 0.0201409974 -0.0284559844
-0.0119481257 -0.0090614833 -0.0285522866
-0.0107292071 0.0161283124 -0.0290571782
-0.0099587530 -0.0155314006 -0.0293410120
-0.0090798075 0.0328763734 -0.0295942383
-0.0070029410 -0.0115680380 -0.0301925883
-0.0057431747 0.0118508716 -0.0304190152
-0.0066435279 0.0161337709 -0.0302660406
-0.0046970071 -0.0155557524 -0.0305967646
-0.0044193470 -0.0047328897 -0.0306439405
-0.0032180122 0.0080677637 -0.0308236834
0.0027185848 -0.0002526243 -0.0308516607
0.0034027852 0.0359550138 -0.0308093035
0.0064780874 0.0346044672 -0.0302941498
0.0051520824 0.0062131757 -0.0305194449
0.0066285473 0.0238266168 -0.0302685859
0.0078518930 0.0157952585 -0.0299480033
0.0077104178 0.0122491362 -0.0299887626
0.0087617983 -0.0058193845 -0.0296858574
0.0106183406 -0.0096574923 -0.0291031005
0.0114648342 0.0016476454 -0.0287524721
0.0128192812 0.0256903697 -0.0281914428
0.0108734826 -0.0129548308 -0.0289974175
0.0136957582 0.0302428588 -0.0277944216
0.0148159247 0.0266695858 -0.0271753342
0.0154606591 0.0106774628 -0.0268190060
0.0167557601 -0.0107916234 -0.0260620174
0.0165232990 0.0209678807 -0.0262269583
0.0187657059 0.0088062534 -0.0246358763
0.0184599449 0.0007157299 -0.0248528266
0.0204242014 0.0279449631 -0.0232573094
0.0209050239 0.0074361412 -0.0228276183
0.0197762635 -0.0135812174 -0.0238363445
0.0223918423 0.0251821259 -0.0213926566
0.0237095821 0.0272707032 -0.0199181105
0.0230936578 -0.0147181107 -0.0206073276
0.0237967310 0.0072923603 -0.0198205912
0.0247096134 0.0282536430 -0.0186617815
0.0253374738 -0.0020809914 -0.0177768963
0.0255462213 -0.0042475593 -0.0174826947
0.0271391795 0.0151553392 -0.0148813380
0.0274711008 0.0255980217 -0.0142807693
0.0272661556 -0.0209507241 -0.0146515911
0.0287920076 0.0284287972 -0.0113694085
0.0288193255 0.0235107221 -0.0113034576
0.0283463342 -0.0174212055 -0.0124453556
0.0290043209 -0.0138985745 -0.0108568408
0.0296798845 0.0340095221 -0.0087825289
0.0302045039 -0.0106963124 -0.0069615293
0.0301575633 0.0329784428 -0.0071244643
0.0303671075 0.0361255054 -0.0060486102
0.0304338444 0.0254973839 -0.0056558263
0.0306782346 -0.0020992771 -0.0042174539
0.0307341713 0.0018155442 -0.0038882350
0.0308913935 0.0227987501 -0.0019339251
0.0308961747 -0.0127431388 -0.0018487882
0.0309983414 -0.0171634277 -0.0000295293
0.0309076282 0.0071960542 0.0016448281
0.0308283254 0.0324385965 0.0030569544
0.0308075605 0.0097260710 0.0034267102
0.0306823262 0.0253644081 0.0041933694
0.0306858104 0.0055408220 0.0041728628
0.0305135610 -0.0171318431 0.0051866550
0.0306642800 -0.0113248564 0.0042995824
0.0301827797 0.0034520536 0.0070369550
0.0296353971 0.0207689132 0.0089369510
0.0295875117 0.0072097939 0.0091031637
0.0281094298 0.0341025490 0.0130173078
0.0286377065 0.0206027626 0.0117419277
0.0289304716 -0.0118312179 0.0110351262
0.0284299753 -0.0032258389 0.0122434381
0.0266759257 0.0330363073 0.0157195323
0.0277637569 -0.0165557565 0.0137512635
0.0268973153 -0.0037585528 0.0153189607
0.0260221369 0.0179624551 0.0168119443
0.0247531681 -0.0161046400 0.0186003858
0.0020664426 -0.0214673789 -0.0305466714
-0.0153992457 -0.0214038891 -0.0257701065
0.0090485201 -0.0214896452 0.0293133914
-0.0297620037 0.0378101687 -0.0068807201
0.0091322098 0.0379473093 0.0285471841
0.0169415899 0.0379339138 -0.0248044558
0.0002261496 0.0172775554 0.0331930586
0.0270817657 -0.0172733920 -0.0118675918
0.0149814780 -0.0172999874 0.0255677825
-0.0060527839 -0.0172012451 0.0281369831
-0.0247241253 -0.0172200853 0.0151580743
-0.0145634489 -0.0172048018 -0.0248272929
0.0052131217 -0.0172999874 -0.0287470032
-0.0096417812 -0.0041952636 0.0290777049
0.0098306276 -0.0037539649 0.0293209116
-0.0071234441 0.0076048767 0.0273738793
-0.0152139015 0.0032789810 0.0299999956
0.0112421436 0.0040780075 0.0299959694
-0.0092103877 -0.0063780696 0.0298994795
-0.0028765446 0.0153965197 0.0299999956
-0.0119950137 0.0001973925 0.0299996074
-0.0055945083 0.0126431484 0.0281158283
-0.0039113083 -0.0120421184 0.0285384333
0.0118195852 0.0058026777 0.0265666885
-0.0106893239 -0.0161297194 0.0237413171
0.0115413195 -0.0137615010 0.0239547618
0.0262697106 -0.0124012615 0.0086396105
0.0241865920 0.0213569855 0.0119001351
0.0248441121 0.0248355865 0.0088499896
0.0238713295 0.0013215954 0.0100866719
0.0238009591 0.0200213253 0.0110667630
0.0239046245 -0.0083138073 -0.0099068507
0.0088386943 -0.0097346396 -0.0252335980
0.0105055212 -0.0078000212 -0.0238144738
-0.0090473821 0.0312633480 -0.0246806370
-0.0110836844 -0.0070331031 -0.0237573274
-0.0103673314 0.0338648193 -0.0238171659
-0.0089481173 0.0145483393 -0.0247108459
-0.0240359294 -0.0155546960 -0.0115170189
-0.0243421398 0.0261651307 0.0120642413
-0.0249906597 0.0201492131 0.0087750989
-0.0240069742 0.0293004407 0.0097342032
-0.0237231922 -0.0010865087 0.0103653896
0.0264914603 -0.0157326305 -0.0105458829
0.0253083863 -0.0102511792 0.0114032519
0.0099672634 -0.0158543501 0.0250293539
-0.0254121535 -0.0137170073 0.0097603475
-0.0248058631 -0.0121448568 -0.0103818692
-0.0112753822 -0.0104356116 -0.0252522294
-0.0011022729 -0.0167932159 0.0324683725
0.0084878572 0.0147211135 0.0324773080
-0.0149229689 -0.0077293537 0.0322891190
-0.0057578457 0.0154927228 0.0317433055
0.0073847465 -0.0095070726 0.0293143384
-0.0118145282 -0.0079767306 0.0293499507
-0.0081173028 0.0091601489 0.0290914837
0.0096457791 0.0075670541 0.0291313687
0.0272308652 0.0377391106 -0.0146347565
-0.0083107109 0.0377000198 -0.0297512776
0.0272619369 -0.0204660356 -0.0126550122
-0.0124965869 0.0362680324 -0.0249116381
-0.0080281063 0.0259024121 -0.0284647817
-0.0129587071 0.0309631501 -0.0253859802
0.0272120031 0.0341012151 0.0087815731
0.0259108155 0.0304500881 0.0145745532
-0.0279708161 0.0330638960 0.0084840898
-0.0255377291 0.0267057158 0.0131628129
-0.0257228826 0.0362700691 0.0100364522
-0.0110824425 0.0348115092 -0.0261177903
-0.0264175935 -0.0137116033 0.0084643312
0.0279992381 -0.0170761155 -0.0019934806
0.0171683075 0.0146420552 -0.0224535859
-0.0280743920 0.0146685700 0.0034701852
0.0245696537 0.0148666439 0.0131500770
-0.0110971551 0.0147221509 0.0259309846
