0.0000067127 0.0118108895 0.0705863336
0.0038031113 0.0131408353 0.0675750883
-0.0000286104 0.0192336973 0.0708490014
-0.0038189134 0.0169382818 0.0670219112
-0.0019111091 0.0212108884 0.0709870770
0.0051505270 0.0226636932 0.0642823028
-0.0057678836 0.0231537375 0.0665474902
-0.0046570528 0.0243108887 0.0719361431
0.0057524091 0.0243888872 0.0618731189
-0.0041241994 0.0254347915 0.0734018996
-0.0012396072 0.0273108892 0.0739909580
0.0069810925 0.0273108892 0.0667996181
0.0014447996 0.0283753607 0.0725664463
-0.0043243177 0.0303108897 0.0631250624
0.0047392382 0.0309617582 0.0715291246
0.0018030743 0.0323108882 0.0723164712
0.0008837553 0.0365363620 0.0621385920
0.0048652938 0.0382888948 0.0667462347
0.0018368271 0.0372617411 0.0714588006
-0.0042100933 0.0377979377 0.0694523205
-0.0029930291 0.0405322190 0.0630757845
0.0012444071 0.0428108908 0.0633669811
0.0051007917 -0.0284355097 0.0633746914
0.0026532940 -0.0258479015 0.0646672931
0.0216383720 0.0124337502 0.0658054758
0.0013065497 -0.0249581375 0.0651619047
0.0227764398 0.0129823497 0.0576037033
-0.0045462946 0.0275491366 0.0611973421
-0.0061324685 0.0275680982 0.0709452755
0.0020622822 0.0275519579 0.0760257603
-0.0090930433 0.0273799622 0.0737181233
0.0218572629 0.0187324367 0.0728340754
0.0206594654 0.0150703719 0.0693437153
-0.0043381854 -0.0281156252 0.0766278423
0.0268141463 0.0102851112 0.0612112149
0.0230440700 0.0105198901 0.0762612600
-0.0070129402 0.0122448709 0.0775000006
-0.0093098160 0.0149773652 0.0775000006
0.0138539294 -0.0066479745 0.0775000006
0.0000615346 -0.0054272655 0.0775000006
-0.0008666251 -0.0201227706 0.0775000006
-0.0027098448 0.0042094580 0.0775000006
0.0087095787 -0.0090317087 0.0775000006
-0.0006941152 -0.0209982154 0.0775000006
-0.0044546782 0.0121692077 0.0775000006
-0.0114054737 0.0151422335 0.0775000006
-0.0010003304 -0.0128008847 0.0775000006
0.0109056835 -0.0109361608 0.0775000006
0.0240368530 -0.0143446270 0.0775000006
0.0213404713 -0.0121817381 0.0775000006
0.0261090703 -0.0088748706 0.0775000006
0.0074539214 -0.0169487407 0.0775000006
0.0139597718 -0.0111458815 0.0775000006
0.0096659119 -0.0247275517 0.0775000006
0.0181689201 0.0134766232 0.0775000006
0.0108390078 0.0135176913 0.0775000006
-0.0005686094 0.0141932316 0.0775000006
0.0102123171 0.0104195285 0.0775000006
-0.0017472835 0.0241209579 0.0775000006
-0.0024393384 0.0201192448 0.0775000006
0.0028774060 0.0252412525 0.0775000006
-0.0124162157 0.0238689045 0.0775000006
-0.0102947031 -0.0250044706 0.0775000006
-0.0235089395 -0.0074827005 0.0775000006
-0.0192221009 -0.0168379628 0.0775000006
-0.0109372998 0.0086747089 0.0775000006
-0.0043252619 -0.0230144893 0.0775000006
-0.0270684710 0.0040240818 0.0775000006
-0.0151513005 0.0174630863 0.0775000006
-0.0112423951 -0.0036068765 0.0775000006
-0.0128605105 0.0050603903 0.0775000006
-0.0147912057 -0.0129515366 0.0775000006
-0.0158684867 -0.0005505078 0.0775000006
-0.0153437674 -0.0129737717 0.0775000006
0.0180312784 -0.0224800640 0.0570861050
0.0091547444 -0.0275010992 0.0663334919
0.0129553450 -0.0258639805 0.0734741792
0.0276334097 0.0087448661 0.0725318952
-0.0025010335 -0.0285784249 0.0570516236
-0.0272026743 0.0096330736 0.0565587562
-0.0281231613 0.0067034391 0.0678030435
-0.0121409689 0.0261535833 0.0565822058
0.0093253168 0.0272799378 0.0579958876
0.0186050903 0.0222094267 0.0728038145
-0.0255169542 0.0136509220 0.0699695910
-0.0239252272 0.0162415726 0.0628067669
-0.0211551736 0.0197482643 0.0701243330
-0.0179124812 0.0226851474 0.0632037804
-0.0151954414 0.0245711605 0.0695064690
-0.0142423784 0.0251925152 0.0612788700
-0.0123907760 0.0261385793 0.0626859847
0.0142615208 0.0251793323 0.0740435980
0.0154871917 0.0243809522 0.0599839399
0.0204665870 -0.0205011125 0.0738431288
0.0226195266 -0.0179526294 0.0656932022
0.0238177638 -0.0164408039 0.0661780270
0.0250745407 -0.0142359370 0.0607275777
0.0275275983 -0.0088367890 0.0706202014
0.0277741464 -0.0080516024 0.0723463196
0.0285332826 -0.0046961253 0.0614880336
0.0288941908 0.0011144944 0.0569650918
0.0287704638 0.0017693395 0.0730041556
0.0284269467 0.0055147046 0.0614730715
0.0280167386 0.0072106441 0.0710279380
-0.0287556382 0.0024205047 0.0723060299
-0.0288399638 0.0009849280 0.0643274985
-0.0285041932 -0.0049354099 0.0737497753
-0.0275176190 -0.0088274619 0.0665541393
-0.0261413050 -0.0123203659 0.0635741291
-0.0257267915 -0.0131959244 0.0684660014
-0.0255723549 -0.0135830491 0.0566075110
-0.0222780955 -0.0184627935 0.0701975957
-0.0203605408 -0.0203662233 0.0659173893
-0.0181920455 -0.0224203302 0.0711007946
-0.0152619261 -0.0244140737 0.0577040877
-0.0130509032 -0.0258506385 0.0682617322
-0.0110175977 -0.0267177090 0.0709236766
-0.0073057686 -0.0280233324 0.0647328113
-0.0002174780 0.0308107172 0.0593313272
-0.0035306374 0.0305436449 0.0783749010
0.0005185864 0.0308331218 0.0768823140
0.0219652851 -0.0218205391 0.0773308871
0.0214343322 -0.0223078647 0.0788427526
0.0183943422 -0.0249323059 0.0751842570
0.0127145003 -0.0281730921 0.0796801556
0.0133470686 -0.0279570645 0.0580446072
0.0087086152 0.0296600619 0.0803357827
0.0109597662 0.0288682194 0.0695905281
0.0139548688 0.0276266438 0.0790420606
0.0162894838 0.0262416118 0.0693480954
0.0148328188 0.0271136477 0.0792199215
0.0188234891 0.0245363632 0.0769403392
0.0227863558 0.0209907531 0.0816431475
0.0228230462 0.0209209558 0.0755328943
0.0245432425 0.0187716321 0.0763270485
0.0266207612 0.0156454131 0.0664291483
0.0274511733 0.0141392517 0.0696180689
0.0290872525 0.0105802529 0.0698516927
0.0295754051 0.0089489342 0.0798395279
0.0302960984 0.0062693296 0.0684059330
0.0304489579 0.0054537008 0.0818128385
0.0308742369 -0.0007673329 0.0576111898
0.0308909072 -0.0004980682 0.0625052245
0.0308515836 -0.0020394162 0.0837971728
0.0308937838 -0.0018050942 0.0587178675
0.0303816391 -0.0052856937 0.0668910461
0.0298741999 -0.0079751804 0.0658244459
0.0287099807 -0.0115894920 0.0663786429
0.0276759066 -0.0136017627 0.0742064468
0.0275876446 -0.0138451726 0.0603414737
0.0258411521 -0.0169767912 0.0680957185
0.0247042149 -0.0185658975 0.0740655995
0.0066598757 -0.0302694627 0.0599831318
0.0038650625 -0.0306333069 0.0723997142
0.0059774842 -0.0303872040 0.0584876800
0.0007673681 -0.0308770396 0.0587455051
-0.0021897690 -0.0308002228 0.0705168024
-0.0051447239 -0.0305114315 0.0708024138
-0.0084634914 -0.0297558475 0.0804159351
-0.0084649283 -0.0297709718 0.0720178239
-0.0116681978 -0.0286265665 0.0706647627
-0.0140827225 -0.0274458690 0.0665435569
-0.0168885141 -0.0258081508 0.0752826990
-0.0180717875 -0.0250422103 0.0749507421
-0.0192729627 -0.0241533897 0.0600775076
-0.0200623692 -0.0235617882 0.0762694145
-0.0227784888 -0.0209617955 0.0744037957
-0.0249535895 -0.0182078525 0.0818528400
-0.0249107111 -0.0182922369 0.0676064540
-0.0276818556 -0.0138243171 0.0596575700
-0.0282303532 -0.0125417942 0.0591780240
-0.0299011809 -0.0078384231 0.0829700613
-0.0295428980 -0.0091115328 0.0759157802
-0.0303882517 -0.0058994857 0.0699776061
-0.0304793866 -0.0053336681 0.0743844662
-0.0308098896 -0.0008704625 0.0610272057
-0.0308746972 -0.0000262215 0.0771404324
-0.0307241199 0.0032370625 0.0605893959
-0.0302474000 0.0064013742 0.0768265975
-0.0299649275 0.0077398598 0.0656973990
-0.0287149190 0.0114812461 0.0667129597
-0.0280529026 0.0127694654 0.0577336296
-0.0281481575 0.0125938465 0.0585525167
-0.0271720228 0.0147075586 0.0822869220
-0.0244041017 0.0189618929 0.0662865229
-0.0220063982 0.0217223032 0.0775660802
-0.0225082692 0.0212434095 0.0581931913
-0.0205532005 0.0231893597 0.0806456412
-0.0176637980 0.0253255190 0.0685003827
-0.0131683520 0.0280285707 0.0761572066
-0.0127542369 0.0282181116 0.0771654259
-0.0105261191 0.0290809633 0.0599160538
-0.0083661208 0.0298090579 0.0638189587
-0.0187089486 -0.0225341067 0.0564999990
-0.0186136705 0.0221131891 0.0564999990
0.0172847380 0.0245817968 0.0564999990
0.0231259978 -0.0190651442 0.0564999990
-0.0162225251 0.0212527435 0.0791621895
0.0242257839 0.0004841102 0.0787156769
-0.0079375506 -0.0222500948 0.0796878393
-0.0012228279 0.0295766655 0.0727293493
-0.0021637789 0.0297088423 0.0616447354
-0.0051887045 -0.0018287355 0.0804999992
-0.0028903080 -0.0024479977 0.0804999992
0.0074039927 -0.0004358305 0.0804999992
0.0017343617 -0.0069217801 0.0804999992
0.0011065916 0.0086684509 0.0815129580
0.0074823644 -0.0048063736 0.0836557467
-0.0047006761 -0.0075647965 0.0820465070
-0.0087831935 -0.0086556201 0.0844999999
-0.0189009230 0.0179162353 0.0844999999
-0.0066860089 0.0103978716 0.0844999999
-0.0140557969 0.0170155251 0.0844999999
-0.0225455968 -0.0051565119 0.0844999999
-0.0301000149 0.0010522546 0.0844999999
0.0110877703 0.0166191595 0.0844999999
-0.0079781479 0.0190656763 0.0844999999
-0.0052635941 0.0212765314 0.0844999999
0.0009317654 0.0296223705 0.0844999999
0.0189072692 -0.0192175250 0.0844999999
0.0238969684 -0.0138324314 0.0844999999
0.0068969304 -0.0222271384 0.0844999999
0.0020642401 -0.0274654660 0.0844999999
0.0141789844 0.0062236881 0.0844216108
0.0143906050 -0.0186252999 0.0844999999
0.0164164265 0.0046243369 0.0844999999
-0.0095027781 -0.0076674313 0.0844999999
-0.0093443996 -0.0022537543 0.0844999999
0.0299638695 -0.0008454030 0.0844999999
0.0226802064 -0.0025786424 0.0844999999
-0.0186827196 -0.0201608047 0.0844999999
-0.0272858222 -0.0109064599 0.0844999999
0.0042619834 0.0275629548 0.0844999999
0.0074965260 0.0244938158 0.0844999999
0.0070369663 0.0229680977 0.0844999999
-0.0248400334 0.0090096453 0.0844999999
-0.0133154338 0.0010778258 0.0844999999
0.0163449705 0.0157201441 0.0844999999
0.0132793839 0.0104594431 0.0844999999
0.0163113220 -0.0151051104 0.0844999999
-0.0030437516 -0.0095781291 0.0844037683
0.0061506989 -0.0173033647 0.0844491720
0.0089622498 -0.0149771997 0.0843616131
-0.0119051376 -0.0257508770 0.0844999999
-0.0146327144 -0.0250034985 0.0844999999
-0.0169895385 0.0055931836 0.0844999999
-0.0065544104 -0.0155870882 0.0844999999
-0.0173073600 0.0200736677 0.0833724911
-0.0236573593 0.0050583164 0.0844396954
-0.0231602255 0.0047382060 0.0842694427
-0.0076134412 -0.0232840969 0.0826081691
0.0265143677 -0.0003572528 0.0807438707
0.0226937305 0.0037638742 0.0804999992
0.0114637663 0.0205658715 0.0806617959
0.0021486404 0.0303108897 0.0724444942
0.0000803341 0.0250890943 0.0785000026
0.0225162098 0.0128889662 0.0822317267
0.0222874908 -0.0112673053 0.0843317638
0.0008973897 -0.0233337521 0.0802822022
-0.0203914461 -0.0112863317 0.0829430860
-0.0210159702 0.0135392841 0.0788319915
0.0187464956 0.0237736000 0.0566015470
-0.0260547275 -0.0157745170 0.0566608019
0.0276142866 -0.0121845613 0.0843651027
-0.0294425335 -0.0081878276 0.0843000470
0.0217095221 0.0219444090 0.0840306014
0.0160457139 -0.0288251407 0.0607767830
0.0113635899 -0.0310292243 0.0612223292
0.0199193206 -0.0242085296 0.0680363662
0.0105391086 -0.0292858922 0.0662642806
0.0193186899 -0.0245588695 0.0633727331
0.0199729468 -0.0262985178 0.0723382581
-0.0235657369 0.0080813081 0.0752869348
0.0058250166 -0.0258996046 0.0789700521
0.0260831284 0.0106983442 0.0576243188
0.0057695777 -0.0126038000 0.0634779943
0.0163732248 -0.0306150240 0.0678519585
0.0211569692 -0.0270020621 0.0700800887
0.0132763052 -0.0313636681 0.0616913020
0.0166308033 -0.0285425802 0.0726683865
0.0181295549 -0.0215511331 0.0694719769
0.0111117237 -0.0238497817 0.0717074371
0.0086845065 -0.0265480587 0.0673451671
0.0134161390 -0.0291797793 0.0615567554
0.0171241301 -0.0227708236 0.0619290156
0.0081523813 -0.0227750935 0.0651370849
0.0122457331 -0.0139157670 0.0677687116
0.0098508667 -0.0209832724 0.0696076951
0.0051991258 -0.0156854085 0.0647285365
0.0118093747 -0.0183025510 0.0630132536
-0.0166073747 0.0185549301 0.0234387220
0.0011963251 0.0249297769 0.0284854051
-0.0244022748 0.0051980477 0.0308924503
-0.0233220731 0.0085823757 0.0290440174
-0.0220429149 0.0115840133 0.0279260690
-0.0108014711 0.0225084365 0.0258370011
-0.0070671155 0.0240013217 0.0263409819
0.0055563122 0.0242036062 0.0267508023
0.0130024851 0.0212559777 0.0246768549
0.0196201511 0.0153744791 0.0313300386
0.0239618773 0.0066207565 0.0266438367
-0.0166220101 -0.0185852487 0.0245178634
0.0181371969 -0.0169369228 0.0305983920
-0.0248800421 0.0003065949 0.0316540218
0.0231527590 -0.0089099850 0.0315609245
0.0207007418 -0.0138063182 0.0267661767
0.0117017015 -0.0221132310 0.0249898718
0.0054501346 -0.0242367255 0.0253209927
-0.0055035852 -0.0242740329 0.0269651286
-0.0091585859 -0.0231171626 0.0319723000
-0.0196924494 -0.0153571686 0.0300004456
-0.0225273714 -0.0106203942 0.0243760365
-0.0248694076 -0.0021072452 0.0279569747
-0.0139751012 -0.0206223871 0.0226541466
-0.0038068176 -0.0247461381 0.0221999995
0.0201038835 0.0154841234 0.0221999995
-0.0253601979 -0.0076661483 0.0221999995
-0.0231059406 0.0119224293 0.0221999995
0.0156156146 -0.0200490746 0.0221999995
-0.0017092006 0.0276175047 0.0222143262
0.0184007842 0.0178213504 0.0221999995
-0.0136853271 -0.0241404282 0.0223034388
-0.0146085922 0.0235698625 0.0223420033
-0.0268663781 -0.0085635493 0.0239427733
0.0220428771 -0.0179244772 0.0227110863
0.0078987171 0.0271345104 0.0233682698
0.0176067637 -0.0222004951 0.0235519850
-0.0281340654 0.0022605768 0.0291163973
0.0023956710 0.0281234139 0.0286563757
0.0084325105 0.0268963436 0.0241400678
-0.0126774927 0.0251444078 0.0258969729
-0.0273845897 0.0068346861 0.0281729401
-0.0240998458 0.0146798496 0.0269102339
-0.0265340582 -0.0094863005 0.0243024603
-0.0006676613 -0.0282537860 0.0299999993
-0.0271690829 -0.0019702519 0.0254119418
0.0281832158 0.0036214447 0.0376479616
0.0267221000 0.0095921982 0.0375484852
0.0241339541 0.0149305257 0.0347378913
0.0198778561 0.0203268680 0.0309585248
0.0156564750 0.0236106439 0.0393314456
0.0132665872 0.0250516680 0.0327567692
0.0056341346 0.0278376679 0.0336684939
0.0008197045 0.0284282967 0.0322911678
-0.0074222766 0.0272917656 0.0306267760
-0.0091370096 0.0268210551 0.0306149604
-0.0176327576 0.0223049616 0.0303508925
-0.0217835931 0.0182710551 0.0409221977
-0.0239150769 0.0151701423 0.0400057061
-0.0274787940 0.0067357510 0.0313433120
-0.0282058142 0.0033631016 0.0322453898
-0.0284216166 -0.0008960716 0.0329370746
-0.0279912622 -0.0048853115 0.0400001626
-0.0258196326 -0.0117367345 0.0389683183
-0.0228794349 -0.0168402919 0.0377273174
-0.0174196853 -0.0224732922 0.0384177573
-0.0108731205 -0.0262377199 0.0306520924
-0.0072480223 -0.0274298021 0.0346600397
-0.0015431172 -0.0283650165 0.0359809151
0.0011814122 -0.0283966565 0.0393124492
0.0098802591 -0.0265892151 0.0341453175
0.0142565418 -0.0245674615 0.0344903858
0.0200249322 -0.0201565112 0.0307333834
0.0234873495 -0.0158132022 0.0406044702
0.0262455334 -0.0109424423 0.0364431250
0.0279109304 -0.0053168198 0.0344233720
-0.0017582516 0.0270000007 0.0283244475
-0.0180011083 0.0208777925 0.0410000011
-0.0249261290 -0.0094275770 0.0410000011
0.0057932565 -0.0272241132 0.0410000011
0.0264900162 0.0030789769 0.0410000011
0.0055452911 0.0274929200 0.0410000011
-0.0113358390 -0.0243223142 0.0414124318
-0.0080274095 0.0255723150 0.0413868406
0.0175775714 0.0207845604 0.0267435131
0.0244521231 -0.0059393584 0.0409305119
-0.0188539345 -0.0025696038 0.0399999991
-0.0162845757 -0.0156599390 0.0399999991
-0.0198364372 -0.0137632477 0.0399999991
-0.0003008437 0.0204712894 0.0399999991
0.0051508757 0.0191507836 0.0399999991
0.0174858119 -0.0074699282 0.0399999991
0.0220339981 -0.0053528987 0.0399999991
0.0185064098 -0.0133050902 0.0399999991
-0.0045795623 0.0072229211 0.0383714742
0.0056129529 -0.0110146699 0.0393189295
0.0087164315 0.0003720753 0.0382357997
-0.0089612998 -0.0005356763 0.0391447099
-0.0043963151 -0.0074089966 0.0387697164
-0.0045797579 -0.0063869747 0.0373000018
0.0135773661 0.0017137027 0.0373000018
-0.0064241730 0.0060317307 0.0373000018
0.0025575132 0.0054256251 0.0414146843
-0.0048736743 0.0035415204 0.0381292526
-0.0028507797 -0.0053543373 0.0390855253
0.0049699784 -0.0034116520 0.0392336967
0.0030574482 0.0059267266 0.0351913687
-0.0075400869 0.0062513967 0.0366827796
0.0058163704 -0.0055609606 0.0372024080
0.0124940008 0.0030915567 0.0358265828
-0.0081634244 -0.0029167787 0.0345175659
-0.0017982666 -0.0103619157 0.0368311638
-0.0092838856 0.0174538161 0.0416786380
0.0029568496 -0.0184303958 0.0414999984
-0.0155148389 -0.0002137314 0.0414999984
-0.0123747885 0.0097224707 0.0414999984
0.0194038133 0.0055375950 0.0414999984
0.0082326785 -0.0184176299 0.0414999984
0.0095270085 -0.0086384681 0.0414999984
0.0113803331 0.0104062289 0.0344999991
0.0141741823 0.0048838925 0.0344999991
-0.0149548665 0.0067174973 0.0344999991
0.0111917023 -0.0095278748 0.0344999991
0.0063915840 -0.0135152857 0.0344999991
0.0168435876 -0.0004347780 0.0344999991
-0.0101619008 -0.0132496358 0.0344999991
0.0062178296 -0.0026232549 0.0345693182
-0.0067320877 -0.0042962190 0.0344999991
0.0008584405 0.0081961982 0.0344999991
0.0044276215 0.0127999997 0.0412613845
-0.0144434438 -0.0174073408 0.0404863189
0.0183772636 -0.0014398019 0.0409430553
-0.0079213499 0.0177638343 0.0417247993
-0.0012495079 -0.0270000007 0.0253355103
-0.0142122775 0.0112130886 0.0331526716
0.0103030802 0.0146881128 0.0341825056
0.0151373431 -0.0094674344 0.0335105132
-0.0064273037 -0.0167436627 0.0340438401
0.0178520447 -0.0192549155 0.0419999994
0.0204787035 -0.0150411635 0.0419999994
0.0088612468 -0.0218804518 0.0419999994
0.0004376642 -0.0215856665 0.0419999994
-0.0110819711 -0.0222500051 0.0419999994
0.0154305478 0.0181100292 0.0419999994
-0.0148052906 0.0156549194 0.0419999994
0.0236951068 0.0091130011 0.0419999994
-0.0231546954 0.0095959662 0.0419999994
-0.0231260314 0.0011091036 0.0419999994
0.0245305843 -0.0003198500 0.0419999994
0.0189271074 -0.0208545156 0.0247875925
0.0281259688 -0.0016280932 0.0299124509
-0.0093353311 -0.0265264481 0.0267883925
0.0112478689 -0.0257401650 0.0289642616
0.0263132791 -0.0106391518 0.0298902180
0.0244060003 -0.0142293235 0.0299923028
0.0261146402 0.0107970705 0.0248609916
0.0270000007 -0.0002265479 0.0289629784
0.0186876076 -0.0174733602 0.0278183030
-0.0143346628 0.0112220582 0.0321143621
0.0173762418 0.0108609033 0.0342324394
0.0177281158 0.0047127417 0.0320412442
0.0042953653 0.0219512457 0.0320000015
0.0131127008 0.0136543118 0.0320285616
-0.0074333408 0.0212201406 0.0320000015
-0.0122512342 0.0160663255 0.0320000015
0.0157018862 -0.0176342119 0.0320000015
-0.0054014648 -0.0207138280 0.0320000015
0.0183323348 -0.0142629040 0.0320000015
-0.0171165993 0.0127374603 0.0320000015
-0.0195978257 0.0026893398 0.0320000015
-0.0226255541 -0.0010567456 0.0320000015
0.0133912614 -0.0123763150 0.0320000015
-0.0153291828 -0.0140394394 0.0320000015
0.0215787995 -0.0012717107 0.0320000015
0.0155072858 0.0210380303 0.0463904831
0.0017606456 -0.0233628753 0.0549469972
0.0230599612 0.0037629604 0.0549645680
0.0189947121 0.0116485793 0.0549999997
-0.0229202595 0.0155040260 0.0549999997
-0.0242427012 0.0109185183 0.0549500815
-0.0231221047 0.0107827290 0.0549838448
-0.0123695749 -0.0211084928 0.0549238876
0.0231183010 -0.0155540498 0.0548271622
0.0097640175 -0.0252103234 0.0548871958
-0.0156570477 0.0216183831 0.0548891333
0.0244999828 0.0082508933 0.0549696103
-0.0209870470 0.0189785455 0.0548111529
0.0136192757 0.0149170379 0.0543278207
-0.0115436583 0.0234642085 0.0534013819
-0.0241216725 -0.0010537921 0.0545544481
-0.0101064468 -0.0182196540 0.0548520787
0.0199749616 -0.0179872819 0.0544022712
0.0283125911 0.0006350895 0.0499165509
0.0280595570 0.0046730879 0.0454785960
0.0273230641 0.0074222334 0.0541142496
0.0232562548 0.0162795843 0.0471133590
0.0213727187 0.0187105724 0.0459365552
0.0189283050 0.0212054698 0.0485015772
0.0166607039 0.0229390375 0.0541742275
0.0098637744 0.0266809236 0.0490649084
0.0083784635 0.0272040496 0.0536696888
-0.0000471589 0.0284002449 0.0502084073
-0.0048484013 0.0279743489 0.0476885213
-0.0099284068 0.0265825132 0.0442486744
-0.0142532393 0.0244937170 0.0462444591
-0.0138144204 0.0247786894 0.0525640006
-0.0215250021 0.0185662246 0.0510680311
-0.0230432902 0.0166078796 0.0491699772
-0.0256551034 0.0122371045 0.0534037877
-0.0277555675 0.0059175329 0.0446016899
-0.0284567252 -0.0003421612 0.0467140397
-0.0282921748 -0.0023968554 0.0419681556
-0.0278243719 -0.0057477695 0.0447227415
-0.0268216946 -0.0091464389 0.0513792063
-0.0241393825 -0.0149842112 0.0501111337
-0.0196450557 -0.0205834520 0.0450282237
-0.0160020838 -0.0234635363 0.0433251393
-0.0110700008 -0.0261270311 0.0442040349
-0.0056974652 -0.0277768915 0.0415131354
-0.0034026330 -0.0282023563 0.0484024120
0.0032253509 -0.0282178639 0.0433272454
0.0065355246 -0.0276295525 0.0492896691
0.0127766903 -0.0254201377 0.0505747268
0.0173400314 -0.0225295704 0.0452430601
0.0197414971 -0.0204569637 0.0500287162
0.0220072224 -0.0178004819 0.0486006067
0.0244141146 -0.0144317882 0.0441228311
0.0268684784 -0.0090877123 0.0458758628
0.0282357129 -0.0032312976 0.0477818230
-0.0263970163 0.0019585300 0.0456137346
-0.0248507680 0.0007505230 0.0482807803
-0.0156980129 0.0211155238 0.0509435753
0.0234121891 0.0023708750 0.0497864975
0.0119441974 -0.0224373754 0.0503496306
0.0091635396 -0.0220910196 0.0495883880
-0.0094190750 -0.0214976958 0.0548906081
0.0168713007 -0.0202427571 0.0529999994
0.0096103785 0.0204780282 0.0529999994
-0.0259817131 -0.0063011903 0.0529999994
-0.0004465892 -0.0237682700 0.0508371264
0.0219861796 0.0113991812 0.0521009732
-0.0240277291 0.0132138135 0.0414999984
0.0251710169 0.0128886669 0.0414999984
0.0014770887 -0.0283200489 0.0414999984
0.0198309726 -0.0165690764 0.0523019835
0.0113405947 -0.0164361268 0.0497545089
-0.0092704051 -0.0177094335 0.0528431138
-0.0229265424 -0.0116960156 0.0502500818
-0.0198115606 0.0027943091 0.0516664088
-0.0115407434 0.0161976992 0.0505854953
-0.0010486413 0.0257064216 0.0506269690
0.0133108528 0.0149507867 0.0529964018
0.0198886712 -0.0012711076 0.0501327421
-0.0142312255 -0.0195564675 0.0504785284
0.0098224866 0.0220967406 0.0499902542
0.0150898947 -0.0227726103 0.0424760648
-0.0259050495 -0.0087388451 0.0422758377
0.0103659966 0.0252828911 0.0419361750
-0.0145565839 0.0012127423 0.0423019064
-0.0000877853 -0.0240312655 0.0428836129
-0.0067357514 -0.0003008672 0.0497981314
0.0067357514 0.0005247931 0.0496494268
-0.0035777044 -0.0090110246 0.0422153572
-0.0101419802 0.0013014037 0.0483912436
0.0061762802 -0.0078164884 0.0462394318
0.0050736881 0.0075003220 0.0467418470
0.0060186395 -0.0021966245 0.0524999984
0.0038119247 0.0045161078 0.0508080567
-0.0021816546 0.0054790897 0.0523808279
-0.0058115753 0.0012309569 0.0450623600
-0.0031218897 -0.0050336697 0.0452178786
0.0027799431 -0.0050652676 0.0459429254
0.0059922213 0.0087129008 0.0485000014
-0.0065619819 0.0086865507 0.0462121022
-0.0223015409 0.0021151229 0.0425000004
-0.0124942376 -0.0132416432 0.0425000004
-0.0187348430 -0.0015977190 0.0425000004
-0.0096827305 -0.0142415969 0.0425000004
-0.0026660331 -0.0264287050 0.0425000004
-0.0167892935 -0.0151482847 0.0425000004
-0.0238671530 -0.0121526423 0.0425000004
0.0104063702 -0.0130783917 0.0425000004
0.0112737562 -0.0182777153 0.0425000004
0.0079084083 0.0208176717 0.0425000004
-0.0002835166 0.0247448405 0.0425000004
0.0178808736 -0.0105579184 0.0425000004
0.0246928539 0.0015461653 0.0425000004
0.0170085268 0.0036675602 0.0425000004
-0.0096505333 0.0133260890 0.0425000004
-0.0092741021 0.0127898024 0.0425000004
-0.0112772354 0.0216268936 0.0425000004
-0.0073954750 0.0215801301 0.0425000004
-0.0164337756 0.0037593062 0.0425000004
-0.0203267781 0.0159203744 0.0425000004
0.0239947852 -0.0073371694 0.0425000004
0.0211178313 -0.0090287022 0.0425000004
0.0007527094 -0.0164629137 0.0425000004
0.0114039755 -0.0230807242 0.0425000004
0.0113400056 0.0182414041 0.0425000004
0.0145712906 0.0099920846 0.0425000004
0.0193238974 0.0092960882 0.0425000004
-0.0170194509 -0.0153484560 0.0494999997
-0.0233965740 -0.0053393532 0.0494999997
-0.0070634754 -0.0123887339 0.0494999997
0.0038001864 0.0227424430 0.0494999997
-0.0231133876 -0.0089419817 0.0494999997
-0.0074778471 -0.0172335354 0.0494999997
-0.0068728043 0.0171001267 0.0494999997
0.0118925478 -0.0112298774 0.0494999997
0.0182412268 -0.0059701712 0.0494999997
0.0146236889 -0.0156127171 0.0494999997
0.0028921007 -0.0138929429 0.0494999997
-0.0068826772 -0.0068750842 0.0494999997
-0.0086714300 -0.0023896356 0.0494999997
-0.0072456797 0.0151186321 0.0494999997
-0.0196743569 -0.0011088434 0.0494999997
0.0058221439 0.0171605594 0.0494999997
-0.0251547206 -0.0059959237 0.0494999997
0.0057599515 0.0161363336 0.0494999997
0.0095289467 0.0172011620 0.0494999997
0.0073875068 0.0076702305 0.0494999997
0.0161472932 0.0016842622 0.0494999997
0.0191036463 0.0049836882 0.0494999997
0.0108225532 -0.0013875313 0.0465094502
0.0090974934 0.0057402657 0.0385309305
-0.0069705305 0.0086195932 0.0398635830
-0.0059849810 0.0106099225 0.0435204510
-0.0043834805 0.0120914926 0.0369135856
0.0097926514 0.0014793685 0.0399387764
0.0123905679 0.0021564143 0.0364134588
0.0100470319 -0.0021694103 0.0373000018
-0.0036881629 -0.0090796341 0.0399331178
-0.0045062488 -0.0067037330 0.0360212721
-0.0060819682 -0.0069078216 0.0373000018
0.0053288025 0.0072412024 0.0409406900
0.0045099479 0.0058678032 0.0372425388
0.0037613285 0.0098199489 0.0373000018
0.0043252889 -0.0076153832 0.0440351515
0.0077481908 -0.0078066872 0.0356757467
0.0066101318 -0.0073169346 0.0353232447
-0.0112914439 0.0013033790 0.0442780662
-0.0071961161 0.0008563406 0.0371485358
-0.0126254008 -0.0008536753 0.0351000018
0.0078221692 0.0052876316 0.0554946647
-0.0192204185 -0.0061515482 0.0549999997
-0.0152352345 -0.0130285172 0.0549999997
0.0104911794 0.0164932788 0.0549965646
0.0034453173 0.0122034250 0.0549999997
0.0046695322 0.0118197875 0.0549999997
-0.0040545852 0.0085220338 0.0549999997
0.0099180960 -0.0091192039 0.0549999997
0.0215505996 -0.0078156811 0.0549994711
-0.0204604170 -0.0015748522 0.0549955644
0.0027274115 0.0259247891 0.0549839711
-0.0149574430 0.0001164461 0.0549965191
0.0117988141 0.0065736263 0.0549976082
0.0162788911 0.0065991326 0.0549967157
0.0076500275 -0.0026854180 0.0549999997
0.0043046062 -0.0181574854 0.0549919392
0.0174736141 -0.0002767702 0.0549981781
0.0087757228 -0.0013986259 0.0549999515
-0.0064446043 0.0226646755 0.0549129233
-0.0110772291 0.0095272654 0.0549974883
0.0011978206 -0.0141566197 0.0549950250
-0.0022521847 -0.0100559730 0.0549982920
-0.0065890142 -0.0062964751 0.0549999997
-0.0161451520 0.0043704533 0.0549934814
0.0197898148 0.0040023864 0.0542024569
-0.0132746014 -0.0209162901 0.0547358274
0.0261266499 -0.0050125238 0.0544767114
0.0200347506 0.0032413873 0.0541092942
0.0072895333 0.0259570291 0.0532574094
-0.0208010816 0.0002553199 0.0540906263
-0.0162655090 -0.0127736978 0.0546155668
-0.0026839666 0.0206101388 0.0540023969
0.0045917425 -0.0033409723 0.0547755724
0.0218270083 -0.0038095842 0.0535712476
-0.0156213001 -0.0210134137 0.0542723808
-0.0090205025 0.0216125226 0.0538538663
-0.0140286531 0.0056233913 0.0529999994
-0.0166976732 -0.0047267549 0.0529999994
-0.0006157083 0.0255764146 0.0529999994
0.0039151729 0.0091439264 0.0529999994
0.0020519144 0.0170799207 0.0529999994
0.0056708437 -0.0013919741 0.0529999994
-0.0029668398 -0.0082318787 0.0529999994
-0.0092815401 -0.0007212892 0.0529999994
0.0214595119 -0.0145642722 0.0529999994
0.0160312133 -0.0186329337 0.0530124751
0.0047135803 0.0255731017 0.0530610179
0.0047260204 -0.0183486243 0.0529999994
-0.0063152293 0.0255987397 0.0529999994
-0.0222324709 -0.0010103375 0.0529999994
-0.0073667548 -0.0071432820 0.0529999994
-0.0119395887 -0.0050645494 0.0529999994
-0.0031630807 -0.0151721789 0.0529999994
-0.0070429288 0.0103836565 0.0529999994
-0.0174361683 0.0082621376 0.0529999994
0.0057669082 -0.0030216812 0.0529999994
0.0122579246 0.0142729951 0.0529999994
0.0096356325 0.0074681994 0.0529999994
0.0124148618 -0.0081952766 0.0529999994
-0.0013644187 -0.0194248175 0.0529999994
0.0154252185 -0.0200388076 0.0525800346
-0.0141551368 -0.0191208746 0.0506506340
0.0103038743 0.0226703239 0.0489352296
0.0245917760 -0.0024088457 0.0489631911
0.0008746204 -0.0120114026 0.0570269148
-0.0093835852 0.0071694629 0.0563205912
-0.0106426021 0.0045750133 0.0549999997
0.0132949627 0.0119769140 0.0595000014
-0.0007907971 -0.0202004267 0.0595000014
-0.0107605588 -0.0098904376 0.0595000014
-0.0135124287 0.0060199947 0.0595000014
0.0026493135 0.0211805598 0.0595000014
0.0189718930 0.0014278354 0.0595000014
0.0133889125 0.0069457713 0.0595000014
-0.0112789303 0.0158070877 0.0595000014
-0.0012846460 0.0055183207 0.0595000014
0.0063491570 0.0006070142 0.0595000014
-0.0074303381 -0.0133697623 0.0594793482
0.0014332426 0.0198353714 0.0595000014
-0.0049750947 0.0076592437 0.0595000014
-0.0043058757 0.0179227724 0.0595000014
-0.0192059833 -0.0019475274 0.0595000014
0.0055199765 -0.0143195923 0.0595000014
-0.0152939754 0.0106097600 0.0595000014
0.0143248483 -0.0147318644 0.0588402662
0.0104664646 -0.0170192212 0.0595000014
-0.0077415948 -0.0137148945 0.0595000014
0.0091141017 0.0198102865 0.0577791144
0.0209948350 -0.0062060963 0.0586659224
-0.0026159123 -0.0216744417 0.0586114311
-0.0216448160 0.0006036319 0.0584418739
-0.0049991297 0.0211353258 0.0577445322
-0.0039402525 0.0038980445 0.0585393317
0.0166788521 -0.0114811884 0.0577056833
-0.0199669937 -0.0079570343 0.0575767708
-0.0096904333 0.0168865580 0.0575000010
-0.0051751986 0.0063465102 0.0575000010
-0.0051605412 0.0002428523 0.0575000010
0.0033151644 -0.0143221618 0.0575000010
0.0020288145 0.0205293879 0.0576954680
-0.0187988418 0.0052094038 0.0575000010
-0.0089853519 -0.0165886027 0.0580258577
0.0108041128 -0.0161173446 0.0575000010
-0.0035329045 -0.0155709257 0.0575000010
0.0003508792 -0.0127020479 0.0575000010
0.0168942715 0.0054919961 0.0575000010
0.0120270523 0.0079549833 0.0575000010
0.0185900263 0.0055915771 0.0581932550
-0.0118855224 -0.0024822967 0.0575000010
-0.0087179687 -0.0147243693 0.0575000010
-0.0161486916 -0.0000758543 0.0575000010
-0.0187070267 -0.0045542686 0.0575000010
0.0065613798 0.0061634587 0.0575000010
0.0084145756 0.0013550654 0.0575000010
0.0071737525 0.0132825176 0.0575000010
-0.0042044874 0.0142674799 0.0575000010
-0.0045974864 0.0102293943 0.0577323502
0.0009041514 0.0120085871 0.0575000010
-0.0067224514 -0.0159678362 0.0644104698
-0.0005890245 -0.0182163147 0.0595560576
-0.0045330588 -0.0102603215 0.0636969496
-0.0057939232 -0.0130648958 0.0644999966
0.0070202339 0.0152115570 0.0628797648
0.0095443812 0.0077591092 0.0644949031
0.0062285249 0.0107448824 0.0644999966
-0.0011268374 0.0309390340 0.0533950129
-0.0033009535 0.0308058820 0.0447938183
-0.0042085074 0.0306949730 0.0291459493
-0.0063404933 0.0302986419 0.0251741220
-0.0081203295 0.0298729870 0.0547900172
-0.0099115685 0.0293362104 0.0453056292
-0.0120105057 0.0285543093 0.0386854381
-0.0133996727 0.0279283316 0.0462035039
-0.0175894582 0.0254224324 0.0279510280
-0.0178666469 0.0252352018 0.0260382466
-0.0199682564 0.0236557476 0.0548329072
-0.0206438371 0.0230457895 0.0273168448
-0.0222421691 0.0215387662 0.0475423750
-0.0225593734 0.0211999848 0.0370406610
-0.0245366237 0.0188888828 0.0444636295
-0.0250511264 0.0182253718 0.0264257293
-0.0265082384 0.0160239605 0.0325505376
-0.0272011758 0.0147817349 0.0282224376
-0.0282737860 0.0126686282 0.0392584729
-0.0288386287 0.0112843714 0.0398115861
-0.0295741349 0.0092667107 0.0439137721
-0.0299354702 0.0078906302 0.0463109692
-0.0305634625 0.0048670712 0.0456844922
-0.0304384586 0.0054404235 0.0246175187
-0.0307653389 0.0026527355 0.0324827203
-0.0309499746 0.0006605050 0.0553890472
-0.0308339822 -0.0025308747 0.0285344999
-0.0308100206 -0.0029990233 0.0407708210
-0.0300548641 -0.0069804781 0.0279465525
-0.0302045040 -0.0066613293 0.0437144206
-0.0299384752 -0.0079440710 0.0545306998
-0.0289713999 -0.0108963411 0.0261881803
-0.0282347797 -0.0127425035 0.0383448614
-0.0271606125 -0.0148723182 0.0416451022
-0.0266078281 -0.0158772852 0.0258071478
-0.0255204669 -0.0175370921 0.0446191488
-0.0239697899 -0.0195653344 0.0297747212
-0.0227980227 -0.0209431386 0.0325448173
-0.0215309103 -0.0222330354 0.0468487730
-0.0192154925 -0.0241861813 0.0295112944
-0.0187610223 -0.0246393695 0.0396790518
-0.0176784339 -0.0254468433 0.0254515503
-0.0157850597 -0.0266417954 0.0395045969
-0.0127445628 -0.0282266983 0.0321867452
-0.0125486066 -0.0283063347 0.0470856982
-0.0117199994 -0.0286780436 0.0301350895
-0.0087025188 -0.0297248753 0.0497636503
-0.0078290722 -0.0299149711 0.0314225023
-0.0046980323 -0.0305238452 0.0360680567
-0.0022588769 -0.0308619672 0.0437346098
-0.0008600078 -0.0309668838 0.0304547117
0.0002608168 -0.0309794695 0.0351220407
0.0031549531 -0.0307967856 0.0537267566
0.0068862378 -0.0301367693 0.0299056235
0.0061248910 -0.0303191119 0.0400909414
0.0098718011 -0.0293354162 0.0420040113
0.0090839154 -0.0295835750 0.0241516501
0.0134924742 -0.0278727048 0.0545864504
0.0134180455 -0.0278859568 0.0229911468
0.0157370406 -0.0266665679 0.0441878222
0.0163880605 -0.0262809019 0.0429099051
0.0178777883 -0.0252826115 0.0557187502
0.0198864291 -0.0237359066 0.0498588580
0.0222815890 -0.0215215578 0.0384563655
0.0229118063 -0.0208245352 0.0558475542
0.0238180026 -0.0197712298 0.0408803798
0.0252599315 -0.0179136992 0.0395697681
0.0264097289 -0.0162194376 0.0443802684
0.0266666399 -0.0157832292 0.0273352030
0.0288397769 -0.0112816327 0.0547497948
0.0287786982 -0.0113901910 0.0264742296
0.0300051182 -0.0077231446 0.0544908195
0.0298908630 -0.0080454116 0.0362588141
0.0303778512 -0.0060108453 0.0268469600
0.0308122009 -0.0021870311 0.0325927931
0.0309377520 -0.0008851946 0.0323542742
0.0309386647 0.0013577695 0.0441929630
0.0306144476 0.0036664098 0.0231468893
0.0304149122 0.0057155756 0.0256037682
0.0304634194 0.0055558193 0.0408995222
0.0300832086 0.0072842594 0.0451021310
0.0295487346 0.0093225278 0.0515657318
0.0286690333 0.0116659665 0.0251556748
0.0284903043 0.0122084198 0.0493428866
0.0273718487 0.0144504407 0.0272111621
0.0258887510 0.0169874979 0.0542783098
0.0263807171 0.0162182557 0.0252157468
0.0248589151 0.0184926790 0.0308329584
0.0228218371 0.0208756780 0.0320883047
0.0217050364 0.0221030769 0.0338875520
0.0211293602 0.0226663144 0.0442869010
0.0193367849 0.0241754711 0.0457574066
0.0172153054 0.0256762888 0.0310337379
0.0157463596 0.0266421152 0.0294748846
0.0147803739 0.0272265949 0.0251404550
0.0113088663 0.0288299529 0.0368223357
0.0094093296 0.0295164926 0.0494491504
0.0081243792 0.0298760897 0.0485263293
0.0068216603 0.0302204089 0.0346495818
0.0045427008 0.0306256056 0.0527961025
0.0018953031 0.0308561357 0.0316813964
0.0011144460 0.0309134400 0.0394387674
0.0011021050 0.0239562397 0.0549999997
-0.0160174111 0.0233681573 0.0548546971
0.0272614800 0.0064243850 0.0550039215
-0.0119196169 -0.0246611342 0.0548870504
0.0020883224 -0.0237801357 0.0549999997
0.0220942856 -0.0144616155 0.0549016698
0.0182714827 -0.0186650793 0.0549355116
-0.0168230542 -0.0198463442 0.0549602677
-0.0260268654 -0.0081134183 0.0548800041
-0.0202896635 0.0136279617 0.0549999997
-0.0142013417 -0.0184351670 0.0549999997
-0.0216997822 -0.0081958222 0.0571231452
0.0009968414 0.0228682550 0.0563066530
-0.0262816348 -0.0062880269 0.0575000010
0.0243970034 0.0107764167 0.0574491073
-0.0245463520 -0.0126588078 0.0575000010
-0.0042661798 -0.0258934639 0.0574576058
0.0191849059 -0.0201771220 0.0574232121
-0.0134488659 0.0246044179 0.0573729692
0.0171157863 0.0222513617 0.0573500022
0.0186108702 0.0150731794 0.0574266837
0.0200636092 -0.0117066971 0.0575000010
-0.0095921016 0.0233518322 0.0575000010
0.0131763742 -0.0219058015 0.0574357326
0.0191998396 0.0114555679 0.0571151555
-0.0292195747 -0.0054390027 0.0563540929
-0.0083978684 -0.0289255545 0.0563183846
0.0179733451 0.0231224774 0.0564015926
-0.0170519644 0.0247219037 0.0563047235
-0.0299540155 -0.0016824680 0.0563142471
0.0250242459 -0.0145805227 0.0564794517
0.0275035787 0.0108256280 0.0220027854
-0.0135822869 -0.0274997593 0.0222530172
-0.0060366807 0.0298938423 0.0222280948
0.0029697571 0.0293389850 0.0437367350
0.0053301739 0.0289761255 0.0494938318
0.0047600141 0.0290695987 0.0242449899
0.0087993143 0.0281279331 0.0478061544
0.0094550178 0.0279415754 0.0247883961
0.0102338463 0.0276312617 0.0231298103
0.0134096935 0.0262311331 0.0400405655
0.0164103296 0.0244626560 0.0432752880
0.0168113950 0.0241907271 0.0260992053
0.0189306785 0.0225690512 0.0439692993
0.0199270226 0.0217227484 0.0389187681
0.0223228692 0.0192677686 0.0225653960
0.0233998362 0.0178928454 0.0531618514
0.0243580903 0.0166322827 0.0250729095
0.0251949826 0.0152617114 0.0226971601
0.0263463359 0.0132069381 0.0353782325
0.0270668938 0.0116494765 0.0392487525
0.0283494688 0.0081154382 0.0378806233
0.0284727327 0.0076739843 0.0481374138
0.0288504945 0.0059577927 0.0403495890
0.0293221615 0.0028344893 0.0502653845
0.0294567365 0.0010377223 0.0383691598
0.0294567365 -0.0013604708 0.0241959622
0.0292950913 -0.0030833945 0.0459140400
0.0290532460 -0.0050366824 0.0484042798
0.0286366858 -0.0069291368 0.0340248562
0.0276640852 -0.0101495835 0.0480265380
0.0273842077 -0.0109636133 0.0508942374
0.0264655482 -0.0129492647 0.0343390087
0.0258783438 -0.0141259570 0.0327022212
0.0245669096 -0.0163055761 0.0274654578
0.0229044668 -0.0185444932 0.0387427705
0.0210761171 -0.0205839481 0.0424537821
0.0204391676 -0.0212563671 0.0439722948
0.0193932484 -0.0221761406 0.0312652399
0.0164195227 -0.0244564230 0.0480189500
0.0157913415 -0.0248823402 0.0428214889
0.0130740835 -0.0264090623 0.0445441136
0.0122329772 -0.0268347351 0.0479679863
0.0098365299 -0.0277895671 0.0324722109
0.0079213348 -0.0283717026 0.0428390638
0.0048898385 -0.0290483150 0.0368798140
0.0051898169 -0.0289991359 0.0236530807
0.0023620307 -0.0293719349 0.0412191405
-0.0022966138 -0.0293754817 0.0518623448
-0.0027254318 -0.0293522319 0.0261616487
-0.0058599660 -0.0288892702 0.0521643657
-0.0061439113 -0.0288427196 0.0429558558
-0.0069784797 -0.0286334847 0.0279184190
-0.0100161719 -0.0277179912 0.0400706357
-0.0117288680 -0.0270355906 0.0434774097
-0.0142663842 -0.0257769445 0.0430402687
-0.0155995017 -0.0250124107 0.0287159886
-0.0161083796 -0.0246673831 0.0317082229
-0.0197520529 -0.0218713692 0.0253870336
-0.0217088364 -0.0199159949 0.0454444868
-0.0210603786 -0.0206005630 0.0247281659
-0.0225263252 -0.0190419303 0.0378957529
-0.0249135391 -0.0157294737 0.0321589031
-0.0253318744 -0.0150341955 0.0386210379
-0.0267746214 -0.0122812134 0.0495850782
-0.0278547603 -0.0095836803 0.0496261341
-0.0283677665 -0.0080611328 0.0260530693
-0.0286283063 -0.0069672052 0.0469391034
-0.0291895731 -0.0040536137 0.0304847925
-0.0293781698 -0.0023195037 0.0420435230
-0.0294567365 0.0006873061 0.0460438115
-0.0294567365 0.0014568901 0.0474599447
-0.0291888427 0.0040603296 0.0325278584
-0.0287913231 0.0062266115 0.0417441446
-0.0286337387 0.0069425255 0.0274582161
-0.0281592084 0.0086801109 0.0277465648
-0.0268317377 0.0121577586 0.0396776042
-0.0264647956 0.0129508915 0.0399438993
-0.0248131913 0.0158962530 0.0526129484
-0.0236662758 0.0175423498 0.0520832109
-0.0232649984 0.0180702215 0.0284082262
-0.0222780332 0.0193151014 0.0374391051
-0.0201764151 0.0215109125 0.0440818865
-0.0180239960 0.0233391946 0.0385978630
-0.0173860279 0.0238011165 0.0435597064
-0.0139003211 0.0259710188 0.0378466224
-0.0127586378 0.0265763010 0.0294924519
-0.0117881352 0.0270119764 0.0480014551
-0.0098458574 0.0277858507 0.0436927813
-0.0074186826 0.0285112631 0.0294460610
-0.0047274809 0.0290749322 0.0506459355
-0.0036035793 0.0292591871 0.0361388367
-0.0004156160 0.0294774662 0.0326057318
-0.0138524324 -0.0251474964 0.0536343719
0.0151919150 0.0249922949 0.0535253222
0.0283811231 -0.0068758769 0.0536579048
-0.0193952066 -0.0207823988 0.0542655041
-0.0054928870 0.0278618225 0.0536703137
0.0196511294 0.0210753715 0.0572556199
0.0224303321 0.0131542738 0.0572802508
-0.0154997323 0.0222957503 0.0570708712
-0.0127524392 -0.0218196403 0.0551725777
-0.0229144650 0.0051785964 0.0562020963
-0.0088799402 0.0265202515 0.0545379715
-0.0028091843 -0.0300128129 0.0562000014
-0.0215690229 -0.0185782571 0.0573194934
0.0282906777 0.0042677669 0.0572868321
-0.0140057526 -0.0275283276 0.0222999994
0.0021144623 -0.0306335549 0.0221817100
-0.0293247166 -0.0047067692 0.0222333489
