-0.0290541825 -0.1711320279 -0.0078101253
-0.0291449442 -0.1710110803 0.0233179473
0.0270829502 -0.1711044856 -0.0179062865
-0.0100126733 -0.1710000187 -0.0280893926
-0.0305448636 -0.1710000187 -0.0199914524
-0.0159873237 -0.1710000187 -0.0318237718
0.0184157736 -0.1710000187 -0.0316572667
0.0317357842 -0.1710282550 -0.0054593932
0.0362443312 -0.1710890902 -0.0009942013
0.0090678816 -0.1710000187 0.0330735261
-0.0209460492 -0.1711859184 0.0316616260
-0.0310019052 -0.1710418012 0.0136563601
-0.0285355463 -0.1725330198 -0.0258429652
-0.0358448585 -0.1719149045 0.0146742301
-0.0061577900 -0.1718850350 0.0381197437
0.0329218888 -0.1727335528 0.0203960102
0.0340274246 -0.1726984373 -0.0182550146
0.0258429931 -0.1806489542 -0.0233795882
0.0336635226 -0.1804601216 -0.0087294627
0.0063255015 -0.1811408487 -0.0338905299
-0.0212256013 -0.1785406231 -0.0275913219
-0.0291281419 -0.1750407199 0.0187519678
0.0023939414 -0.1752134622 0.0346672092
0.0296255916 -0.1806424886 0.0181679031
0.0183145285 -0.1816818008 0.0286528057
0.0115687516 -0.1819689135 -0.0309683693
0.0000992315 -0.1819999963 -0.0310313588
-0.0227036294 -0.1819990599 0.0199737208
0.0163117798 -0.1819999963 0.0270187697
0.0209870745 -0.1819351484 0.0244910818
-0.0211882907 -0.1723099216 0.0210156391
0.0210008644 -0.1743378770 -0.0214675019
0.0284446174 -0.1809166898 -0.0089328876
0.0075478946 -0.1715827974 -0.0290372897
-0.0019378560 -0.1787938731 -0.0299114494
-0.0029067325 -0.1790741004 -0.0298264553
-0.0260694265 -0.1724260626 -0.0147653006
-0.0256009226 -0.1796192779 0.0153830961
-0.0109538345 -0.1747552707 0.0277302886
0.0150412452 -0.1779806396 0.0258557482
0.0292758917 -0.1720191449 0.0061738821
0.0243032458 -0.1747454344 0.0176598286
0.0361692577 -0.1748094731 0.0119120924
0.0003182320 -0.1749791022 0.0353987629
-0.0342776555 -0.1748398680 0.0167914125
-0.0306071080 -0.1749977096 -0.0168295041
0.0188568304 -0.1749706687 -0.0300236686
0.0233063599 -0.1784048556 0.0211630184
-0.0211278334 -0.1774387583 0.0228834214
-0.0231649385 -0.1786077243 -0.0218323925
0.0226398637 -0.1799210796 -0.0230692549
0.0256417427 -0.1816956192 0.0155430858
0.0321864184 -0.1728995320 0.0135222168
-0.0145204045 -0.1736328253 -0.0348222798
0.0139798868 -0.1737916098 0.0308592267
-0.0309195710 -0.1815715349 -0.0156752428
0.0305950092 -0.1773861849 -0.0126291714
-0.0293896458 -0.1748399914 0.0240972144
-0.0058398759 -0.1891999990 -0.0024280046
-0.0095098555 -0.1843752815 -0.0023254084
-0.0013832212 -0.1876788163 0.0095845479
0.0094329002 -0.1849891196 -0.0026759616
-0.0055018697 -0.1844460443 -0.0080153779
-0.0116445194 -0.1810999960 -0.0203394203
0.0161850935 -0.1810999960 -0.0031110445
0.0122228782 -0.1810999960 0.0242221012
0.0124038685 -0.1810999960 0.0104073659
0.0214705433 -0.1810999960 0.0006587733
0.0075237322 -0.1810999960 -0.0062066865
-0.0178129100 -0.1810999960 -0.0112873396
0.0047937718 -0.1810999960 -0.0157887531
0.0184369404 -0.1810999960 -0.0229946050
0.0001310233 -0.1810999960 -0.0241435931
-0.0113252975 -0.1810999960 0.0077045401
-0.0179490623 -0.1810999960 0.0150957492
0.0117501929 -0.1810999960 0.0264417071
0.0023358997 -0.1810999960 0.0237905349
-0.0266870251 -0.1810999960 0.0066939116
-0.0223420825 -0.1810999960 0.0026358366
0.0029379090 -0.1358840143 0.0033168461
0.0008146581 -0.1638355876 0.0042135601
0.0006383298 -0.1333047850 0.0043301256
-0.0031352272 -0.1324075110 0.0031808936
-0.0043140485 -0.1810234180 -0.0007213654
-0.0041367275 -0.1804648279 -0.0015749973
-0.0030928684 -0.1696189897 -0.0030901818
-0.0012399451 -0.1516228249 -0.0042145791
0.0020003529 -0.1683863575 -0.0039383809
0.0034333101 -0.1873521169 -0.0025903173
0.0042751456 -0.1743627449 0.0001264768
0.0043066901 -0.1701045752 0.0012105112
0.0014097733 -0.1240000054 -0.0257136641
-0.0003826355 -0.1240000054 -0.0209031971
-0.0044139862 -0.1240000054 -0.0091220550
-0.0000044392 -0.1240000054 0.0155299197
0.0029764880 -0.1240000054 0.0159147553
0.0105813272 -0.1240000054 0.0223292569
-0.0014655436 -0.1240000054 0.0215087691
-0.0152606194 -0.1240000054 0.0181395210
-0.0269347540 -0.1240000054 0.0001152289
-0.0248040028 -0.1240000054 0.0138559240
-0.0166419803 -0.1240000054 -0.0090653103
-0.0277599580 -0.1240000054 -0.0024559745
0.0090922666 -0.1240000054 0.0103318143
-0.0000891010 -0.1655374373 -0.0299685031
-0.0011675708 -0.1438755081 -0.0298850338
0.0299346043 -0.1663915026 -0.0014560527
0.0208402417 -0.1158716227 -0.0212320392
0.0194191493 -0.1340162938 -0.0226802050
0.0143079331 -0.1641906090 -0.0262517451
0.0134063082 -0.1242923355 -0.0268358859
0.0076886669 -0.1612444142 -0.0289366181
0.0050177371 -0.1496063320 -0.0294047069
0.0043248072 -0.1323871030 -0.0294559411
0.0014305934 -0.1497428597 -0.0299063087
-0.0155470111 -0.1491192910 -0.0255891329
-0.0142608734 -0.1697887008 -0.0262599487
-0.0116955782 -0.1587145927 -0.0275149702
-0.0092063712 -0.1450606586 -0.0284143106
-0.0053718887 -0.1564437586 -0.0294448973
-0.0024724248 -0.1628494038 -0.0298352711
-0.0186784419 -0.1745570740 -0.0233864744
-0.0213265285 -0.1483926686 -0.0208769685
-0.0214221088 -0.1727188866 -0.0209588209
-0.0241183011 -0.1471912403 -0.0177351531
-0.0261149438 -0.1710433050 -0.0145758474
0.0298983631 -0.1265960839 0.0012197585
0.0294431933 -0.1489708338 0.0054560977
0.0298344744 -0.1221635592 0.0017340487
0.0289520300 -0.1586303254 0.0076558459
0.0283776175 -0.1243980487 0.0096996377
0.0274482548 -0.1302152050 0.0120056381
0.0240081181 -0.1798916782 -0.0179539455
0.0237523587 -0.1233104022 -0.0181651954
0.0256198926 -0.1604077474 -0.0155249612
0.0270070455 -0.1199556780 -0.0129401265
0.0268965930 -0.1635567358 -0.0131679784
0.0289934285 -0.1483043804 -0.0074834144
0.0288677477 -0.1511517867 -0.0078804234
0.0297271470 -0.1507664757 -0.0033953048
0.0296762314 -0.1295640655 -0.0041025959
0.0161796333 -0.1726534758 -0.0252326786
0.0197348594 -0.1647185259 -0.0225108901
0.0031862315 -0.1370416964 0.0298004664
-0.0229536740 -0.1264569428 0.0192180216
-0.0208315878 -0.1801548156 0.0211633586
-0.0298877889 -0.1417054788 0.0010155368
0.0247485230 -0.1616487098 0.0169518152
0.0261360467 -0.1353953713 0.0145760176
-0.0296966093 -0.1726048064 -0.0033304372
-0.0295004176 -0.1444770210 -0.0042888833
-0.0289947785 -0.1559026686 -0.0074974509
-0.0273888773 -0.1308254150 -0.0121184202
-0.0273782309 -0.1795651097 -0.0120044435
-0.0242975758 -0.1743562965 0.0175638330
-0.0256832509 -0.1774085765 0.0152346394
-0.0272834965 -0.1525144655 0.0122047289
-0.0285470888 -0.1519104505 0.0087593645
-0.0288195129 -0.1726618376 0.0077330846
-0.0287579828 -0.1459459764 0.0081386854
-0.0295605272 -0.1684307278 0.0044002466
-0.0029881154 -0.1597359432 0.0297095002
-0.0056135148 -0.1424354781 0.0292777810
-0.0097557011 -0.1755056507 0.0282215151
-0.0131376688 -0.1435075991 0.0267993225
-0.0141555836 -0.1438687267 0.0263366031
-0.0160032353 -0.1347103435 0.0252577544
-0.0199490757 -0.1627026639 0.0223529671
0.0176090588 -0.1569846376 0.0242362093
0.0167054817 -0.1804932862 0.0248647334
0.0116606160 -0.1602397188 0.0275313896
0.0069014828 -0.1654570821 0.0290743513
0.0090103503 -0.1598781418 0.0284193408
0.0065521784 -0.1274530647 0.0291302088
0.0220874170 -0.1800061969 0.0200137040
0.0209427658 -0.1320744734 0.0213218293
0.0215101534 -0.1636111683 0.0208857449
0.0237299051 -0.1727124824 0.0182498893
0.0161287402 -0.1150220456 0.0120536736
0.0178257083 -0.1201989179 0.0131347616
0.0099097628 -0.1164449249 -0.0004157419
0.0041585592 -0.1154635521 -0.0108027207
0.0064000705 -0.1233214978 -0.0149310712
0.0174927551 -0.1121999994 -0.0088012616
0.0249193816 -0.1121999994 -0.0056840698
0.0107654440 -0.1121999994 -0.0061699380
0.0206349405 -0.1121999994 -0.0043102038
0.0289875461 -0.1775708095 0.0008462249
-0.0266554206 -0.1774925370 0.0007039059
0.0213753967 -0.1113285784 -0.0134676707
0.0260862251 -0.1944812015 -0.0003751690
-0.0274957995 -0.1947307909 0.0003900560
0.0259858941 -0.1914290797 0.0073991287
-0.0244382323 -0.1897093587 0.0136929503
-0.0114484676 -0.1959999949 0.0226302049
-0.0059856123 -0.1959999949 0.0138982862
-0.0095878979 -0.1959999949 0.0193167595
-0.0170655448 -0.1959999949 -0.0011822764
0.0137828208 -0.1959999949 -0.0026117286
-0.0010641827 -0.1959999949 0.0191627624
0.0028881943 -0.1959999949 0.0156768054
-0.0047479501 -0.1959999949 0.0218193508
0.0233538751 -0.1959999949 0.0056691930
0.0291321934 -0.1959999949 0.0037082052
0.0134796174 -0.1959999949 -0.0200168343
-0.0093264437 -0.1959999949 -0.0152111795
-0.0086514396 -0.1959999949 -0.0216067906
0.0070394553 -0.1959999949 -0.0135625472
-0.0174257579 -0.1959999949 0.0176141713
-0.0144243821 -0.1959999949 -0.0147560025
-0.0216351155 -0.1959999949 -0.0175513015
0.0239164084 -0.1959999949 -0.0095116457
0.0009660286 -0.1913989974 -0.0042406775
0.0267112088 -0.1942368080 -0.0129804184
-0.0068735696 -0.1890399206 0.0291386985
-0.0127852228 -0.1837635834 0.0268966493
0.0117528978 -0.1941887259 0.0275475292
0.0011457321 -0.1891299819 0.0297532424
0.0278955441 -0.1921272908 0.0107789728
0.0214326776 -0.1889697796 0.0207602010
0.0273545182 -0.1814319325 -0.0118650615
0.0298032716 -0.1866685585 0.0004942648
-0.0293196229 -0.1880202469 -0.0060576699
0.0077478476 -0.1841533543 -0.0287427401
0.0156428795 -0.1836427362 -0.0254613123
-0.0131700043 -0.1890560238 -0.0268339763
-0.0038574265 -0.1923903224 -0.0294854900
-0.0279978658 -0.1867340241 -0.0105675588
-0.0213800699 -0.1952350502 -0.0206783945
-0.0278427600 -0.1910069610 0.0109273700
-0.0298504668 -0.1906063146 0.0015076515
-0.0058676912 -0.1891999990 0.0045208406
-0.0005228168 -0.1891999990 -0.0066827547
-0.0098096100 -0.1811999977 -0.0046991423
-0.0102929258 -0.1811999977 -0.0179680624
-0.0046283952 -0.1811999977 -0.0242889791
0.0042299086 -0.1811999977 -0.0216618497
0.0122104757 -0.1811999977 -0.0176336255
0.0206972347 -0.1811999977 -0.0197028103
0.0173694162 -0.1811999977 -0.0044370132
0.0254629879 -0.1811999977 0.0001100578
0.0123435393 -0.1811999977 0.0060173832
-0.0017673144 -0.1811999977 0.0208854809
0.0178292209 -0.1811999977 0.0235203062
0.0090081250 -0.1811999977 0.0088852167
-0.0174986316 -0.1811999977 -0.0019019942
-0.0119113918 -0.1811999977 0.0065989954
-0.0279336166 -0.1811999977 0.0097796839
-0.0160727674 -0.1811999977 0.0243013994
-0.0008486639 -0.1870032340 0.0096845900
0.0092288102 -0.1887567065 -0.0025336331
-0.0051510858 -0.1878971391 -0.0084478772
0.0049293032 -0.0172201510 0.0500745855
0.0114577447 0.0109546796 0.0445000008
0.0156991788 0.0008720069 0.0445000008
0.0179380042 -0.0077765931 0.0445000008
0.0148359561 -0.0172995587 0.0445000008
-0.0015759356 -0.0276240007 0.0445000008
-0.0106462253 -0.0160479549 0.0445000008
-0.0201731959 -0.0132374645 0.0445000008
-0.0153212437 0.0006130684 0.0445000008
-0.0216051370 0.0132263958 0.0445000008
-0.0120785099 0.0200491144 0.0445000008
0.0044574683 0.0207320244 0.0445000008
0.0127430103 0.0248510690 0.0435998585
-0.0231724043 -0.0151403974 0.0435215370
0.0266540912 0.0168686190 0.0434612927
-0.0153720140 0.0291237730 0.0467428269
0.0014541475 -0.0234362945 0.0500504507
0.0155796867 -0.0281602195 0.0472548444
0.0020616035 -0.0194834545 0.0480000004
-0.0325809365 0.0012249922 0.0479297127
-0.0097384396 -0.0218553046 0.0480000004
-0.0030172389 -0.0149736300 0.0522921821
0.0077480469 -0.0154720268 0.0565399685
0.0332994571 0.0089017760 0.0480000004
0.0244145667 -0.0108735202 0.0480000004
0.0079374675 0.0305265872 0.0480000004
0.0022220696 0.0237242303 0.0480000004
0.0209006394 0.0261138440 0.0481980657
-0.0230547236 0.0197206618 0.0430000015
0.0261888421 0.0125866219 0.0430000015
-0.0207721082 -0.0233712674 0.0430000015
0.0141715799 -0.0296553201 0.0430000015
-0.0312061701 -0.0077077334 0.0430000015
0.0100520755 -0.0287696196 0.0430000015
0.0061988559 0.0312193632 0.0430000015
-0.0326020843 0.0101762879 0.0430000015
0.0249245061 -0.0344180493 0.0410000011
0.0171981611 -0.0454480333 0.0410000011
0.0274091999 -0.0240271183 0.0480000004
0.0120298021 -0.0302823141 0.0523994618
-0.0205945169 -0.0381512273 0.0410000011
-0.0118498269 -0.0300728161 0.0507651483
-0.0251248260 0.0091097622 0.0480000004
-0.0338943792 -0.0067425949 0.0480000004
-0.0390445760 -0.0156846016 0.0410000011
-0.0222891144 -0.0218700078 0.0480000004
-0.0103102332 -0.0108213945 0.0542967804
-0.0150067226 0.0016429308 0.0571654733
-0.0093304522 0.0115307547 0.0476749240
0.0050027272 0.0140184116 0.0568709001
0.0130092669 0.0069382955 0.0519110368
0.0115739078 -0.0092489747 0.0563510565
-0.0022505570 -0.0146707313 0.0492752517
0.0115612077 -0.0137137401 0.0502340005
0.0229371278 -0.0185370546 0.0519939674
0.0243756255 0.0196084777 0.0495852017
0.0107189868 0.0151268632 0.0562506024
0.0014877839 0.0209700581 0.0480270357
0.0396109081 0.0049743767 0.0427556177
0.0304403238 -0.0024956115 0.0502711112
0.0284310558 -0.0133498469 0.0497927534
0.0217830375 0.0109651661 0.0531126455
0.0254289393 0.0018585352 0.0485118790
0.0191861668 -0.0012737195 0.0556550412
0.0314818742 -0.0132033179 0.0504614466
-0.0093051527 0.0243811208 0.0480000004
-0.0183373021 0.0163309492 0.0480000004
0.0216546043 0.0336136296 0.0461401695
-0.0122510311 0.0393716756 0.0414834345
-0.0248992139 0.0316760476 0.0409999928
0.0032956012 0.0423487903 0.0409999207
0.0129041920 0.0267599683 0.0539507454
-0.0315951789 0.0244567625 0.0414449236
-0.0040468989 0.0284509785 0.0514325260
0.0061763612 0.0363128031 0.0488944381
0.0190421812 0.0233418667 0.0483382763
0.0393268462 0.0152151571 0.0409999913
-0.0289942072 0.0312695084 0.0363271547
0.0271635331 -0.0218645610 0.0411125793
0.0332565201 -0.0097659576 0.0392388841
0.0318616925 0.0144713106 0.0396321698
0.0051509864 0.0340795105 0.0426941816
-0.0113135046 0.0327118785 0.0389363809
-0.0284331714 0.0200519277 0.0374959255
-0.0341199978 -0.0059716851 0.0412491126
-0.0175815978 -0.0299538511 0.0409492229
-0.0247890097 0.0248201234 0.0365255009
-0.0051900703 -0.0378505134 0.0516055243
0.0179651604 -0.0356004395 0.0480314215
0.0234203666 -0.0321806222 0.0444171435
0.0207407130 -0.0386145586 0.0512791960
0.0186563987 -0.0397286400 0.0522973125
0.0130630482 -0.0263607436 0.0545045461
0.0257759254 -0.0473980619 0.0416569665
0.0235309977 -0.0400491128 0.0538480990
0.0294586904 -0.0382635724 0.0423251795
0.0369779916 -0.0233901258 0.0449992911
0.0329676525 -0.0222714844 0.0425197554
0.0278633138 -0.0244009534 0.0509318661
0.0326453142 0.0126841589 0.0364917627
0.0327068956 0.0262188984 0.0362876839
0.0278953217 0.0262524450 0.0360963487
0.0427189674 -0.0140597306 0.0407306084
0.0300923783 -0.0623337250 0.0440611444
0.0297554527 -0.0502853997 0.0479895174
0.0301091503 -0.0483017567 0.0375206626
0.0361482967 -0.0305695991 0.0407264457
-0.0247470648 -0.0314183065 0.0525720714
-0.0163609263 -0.0363480915 0.0488341414
-0.0260926509 -0.0351128046 0.0482126629
-0.0180473127 -0.0397509885 0.0543957972
-0.0176390948 -0.0287511704 0.0518018256
-0.0312124538 -0.0251090936 0.0461505223
-0.0396191015 0.0013638106 0.0420674951
-0.0292323735 0.0160367666 0.0511363162
-0.0246802126 -0.0170184451 0.0523381550
-0.0170645925 0.0037740294 0.0484216021
-0.0363142239 0.0064628463 0.0488704658
-0.0169139992 -0.0049725263 0.0554917505
-0.0284311199 -0.0110630846 0.0493647830
-0.0233694756 -0.0014204486 0.0525125793
-0.0410748758 -0.0137419070 0.0447560927
-0.0272491910 -0.0255150759 0.0518890916
-0.0183506315 -0.0123996886 0.0488042667
-0.0138175550 -0.0208871080 0.0513388872
-0.0320177287 -0.0335307461 0.0424341020
-0.0235286600 -0.0400915239 0.0460001044
-0.0321435234 -0.0296098182 0.0519194807
-0.0105889699 -0.0410195357 0.0516911313
-0.0424787245 -0.0714966080 0.0121502568
-0.0116391919 -0.0375994590 0.0561047654
-0.0139538454 -0.0469824265 0.0548731691
-0.0166348213 -0.0763773783 0.0449149229
-0.0401786743 -0.0723231716 0.0212283164
-0.0464637958 -0.0391030664 0.0221946106
-0.0432267901 -0.0177852702 0.0401872122
-0.0472954377 -0.0395556927 0.0076200745
-0.0465267748 -0.0455003811 0.0122641127
-0.0464034049 -0.0337719973 0.0264012633
-0.0448001732 -0.0282794567 0.0348814631
-0.0369697849 -0.0297775871 0.0405439847
-0.0013981193 -0.0474932785 0.0457190331
0.0031415108 -0.0472571460 0.0503285313
0.0188338378 -0.0485029450 0.0537848123
0.0293648740 -0.0222259194 0.0540271235
0.0355175971 -0.0786454172 0.0285655011
0.0216989881 -0.0728017052 0.0441123019
0.0320374518 -0.0288505614 0.0522438092
0.0104728022 -0.0444853531 0.0493021877
0.0049710780 -0.0394345063 0.0487423274
-0.0039948442 -0.0452917774 0.0410000011
0.0290875917 0.0189148397 0.0514082443
0.0392351209 0.0038508903 0.0466325339
0.0355365031 -0.0138227590 0.0507270254
0.0122550307 -0.0112412813 0.0576172317
0.0415271803 0.0157271893 0.0378797141
0.0303123370 -0.0211294265 0.0536184125
-0.0056074002 0.0167135156 0.0505357696
-0.0134394899 0.0206110874 0.0534421760
-0.0172900670 0.0115141375 0.0552052907
-0.0329903297 0.0218712844 0.0437847525
-0.0115660940 0.0391215130 0.0451048456
-0.0124937329 0.0284991442 0.0535338731
0.0087580738 0.0429454335 0.0394622656
0.0351142284 0.0249269745 0.0407141467
-0.0009141179 0.0235901958 0.0561454470
-0.0294484067 0.0258880941 0.0472254971
0.0174770149 0.0291688639 0.0519901539
-0.0102977708 0.0382574743 0.0361881291
-0.0175266869 0.0379068837 0.0363435060
-0.0302022675 -0.0182763892 0.0365652563
0.0092883554 -0.0635750399 -0.0009774268
0.0062103190 -0.0616342583 -0.0019162749
0.0002123003 -0.0574145193 0.0150271004
0.0352307824 -0.0786035249 0.0113959037
0.0409230617 0.0166081763 0.0365678103
0.0382995698 0.0069020511 0.0361484225
0.0304254719 -0.0305389894 0.0362901933
0.0367005732 -0.0145724516 0.0362451438
0.0126713267 -0.0495128609 0.0347234179
0.0277885539 -0.0672725298 0.0261175833
0.0343379963 -0.0791620094 0.0046243075
0.0232677954 -0.0708592226 0.0143538381
0.0211534360 -0.0598575990 0.0303911737
0.0231131251 -0.0632701106 0.0281836121
0.0111613840 -0.0607246246 0.0244645625
0.0324875114 -0.0741701048 0.0201197147
0.0201631888 -0.0682310542 0.0181915456
0.0092402161 -0.0421520957 0.0356660795
-0.0437531186 -0.0013512539 0.0395186413
-0.0287904572 -0.0131507947 0.0545547291
-0.0244058524 0.0013498293 0.0558234456
-0.0186749870 -0.0005079850 0.0570269359
-0.0312409002 0.0244805555 0.0464528166
-0.0152636653 -0.0221696471 0.0572246510
-0.0098579777 -0.0359509076 0.0359095089
-0.0372989044 -0.0002263283 0.0361933792
-0.0373131714 -0.0157004242 0.0364179337
-0.0347861182 -0.0179500247 0.0364678605
-0.0124903978 -0.0406150618 0.0357388285
-0.0290857997 -0.0322336353 0.0362024621
-0.0073802035 -0.0478533274 0.0345803670
-0.0444720941 -0.0211536244 0.0346794345
-0.0361596209 -0.0299512845 -0.0383718201
0.0122464193 -0.0696422353 -0.0063708020
0.0201410207 -0.0724143784 -0.0175550326
-0.0064603460 -0.0603419024 -0.0177432359
-0.0006759748 -0.0630699870 -0.0018186846
0.0138289123 -0.0672133118 -0.0231311616
0.0059375587 -0.0654710864 -0.0135123690
0.0134494579 -0.0703588881 -0.0024577989
0.0194711871 -0.0741919915 -0.0027650929
0.0217211947 -0.0744446668 0.0138100114
0.0209398217 -0.0730776628 0.0172689621
0.0275836546 -0.0792452528 -0.0023014450
0.0200986566 -0.0715253054 -0.0261418216
-0.0223226592 -0.0570142749 -0.0065533938
-0.0151223515 -0.0590288937 -0.0111363399
-0.0077240129 -0.0586032832 -0.0307950392
-0.0090098700 -0.0605836248 0.0042674695
-0.0113543916 -0.0598282945 0.0134031304
-0.0074679513 -0.0598072831 0.0203052896
0.0071313282 -0.0664709844 0.0057945657
0.0013970209 -0.0637252070 0.0130635050
-0.0034041329 -0.0618761346 0.0094568518
0.0339447154 -0.0851865683 -0.0004002808
0.0115024319 -0.1498516800 0.0314799608
0.0156659765 -0.1463954597 0.0308171507
0.0137510520 -0.1352725565 0.0303004338
0.0122318294 -0.0970932580 0.0307838340
0.0176046023 -0.0935295073 0.0294990796
0.0176267264 -0.1482168021 0.0309911720
0.0267564252 -0.1278436680 0.0229893952
0.0249853120 -0.1323069858 0.0249645376
0.0185334242 -0.1078618352 0.0294051024
0.0205360831 -0.0852672161 0.0272750459
0.0207312538 -0.1447783090 0.0290588812
0.0230742514 -0.1300884268 0.0267771682
0.0240208888 -0.1617067396 0.0270734121
0.0245927925 -0.0925387884 0.0239005491
0.0279869373 -0.0949558921 0.0197689575
0.0283464209 -0.0990245193 0.0194390991
0.0306297613 -0.1471084124 0.0183766749
0.0304747183 -0.1700117924 0.0145615941
0.0310088996 -0.1640598804 0.0120997050
0.0303189969 -0.1326949186 0.0142552349
0.0305153764 -0.1527241096 0.0128528764
0.0334826131 -0.1049284115 0.0084010220
0.0341708360 -0.1187752405 0.0075628342
0.0332465781 -0.0877560400 -0.0078001285
0.0341058354 -0.1061496585 -0.0063331560
0.0343235454 -0.0930990828 0.0011740923
0.0357278745 -0.1477428491 -0.0021617519
0.0343460279 -0.1083935642 -0.0053329323
0.0335522942 -0.0944356833 0.0074276357
0.0336966111 -0.0992403700 0.0073500877
0.0363812185 -0.1709160630 0.0011497207
0.0350461091 -0.1268960352 0.0034643387
0.0347522331 -0.1589590595 -0.0092392831
0.0334708333 -0.1338933376 -0.0103279813
0.0329794968 -0.1678583837 -0.0108350657
0.0303977539 -0.1652067644 -0.0141792868
0.0306338658 -0.1128964108 -0.0124097403
0.0307412280 -0.1232610721 -0.0168005579
0.0312015511 -0.1531208956 -0.0169325297
0.0282246033 -0.0978429347 -0.0195944846
0.0280733587 -0.1190451873 -0.0208986553
0.0263868889 -0.0888146044 -0.0218747705
0.0275439983 -0.1342851581 -0.0222525997
0.0259659619 -0.1183119657 -0.0235099485
0.0250537955 -0.1322644985 -0.0249886504
0.0244516811 -0.1279382142 -0.0254281433
0.0232903496 -0.1169841580 -0.0261549464
0.0236118036 -0.1699850807 -0.0276648688
0.0212489677 -0.1507318303 -0.0288400267
0.0190633458 -0.1093110377 -0.0291268485
0.0152993762 -0.0822258774 -0.0303493586
0.0156263521 -0.1066909842 -0.0305928974
0.0120310913 -0.1205792993 -0.0309027293
0.0127696702 -0.1366390628 -0.0305347524
0.0113207364 -0.0807582024 -0.0315918693
0.0102193630 -0.1065845446 -0.0330709215
-0.0145329354 -0.0672172000 -0.0302440493
-0.0162205338 -0.1013522070 -0.0304028237
-0.0152517904 -0.1463255183 -0.0306137901
-0.0294985330 -0.1372523400 -0.0197093370
-0.0293886724 -0.0884171935 -0.0175711453
-0.0222369607 -0.0902745393 -0.0261023071
-0.0229885012 -0.1476959398 -0.0273545867
-0.0236066007 -0.1709256116 -0.0275780482
-0.0259876628 -0.1068014870 -0.0230821604
-0.0286673123 -0.1364417064 -0.0208635797
-0.0169236303 -0.0876450875 -0.0297155321
-0.0217190654 -0.1059300923 -0.0270734474
-0.0205316517 -0.1448285129 -0.0292136302
-0.0239917023 -0.1157317961 -0.0253684601
-0.0285490151 -0.1105971967 -0.0198558725
-0.0302877450 -0.0910019970 -0.0162228177
-0.0311807293 -0.1598642674 -0.0176035660
-0.0309617887 -0.1654180654 -0.0159707953
-0.0303711742 -0.1572845073 -0.0141189216
-0.0316682627 -0.0797596325 -0.0113159005
-0.0305260044 -0.0937617363 -0.0127757094
-0.0341469025 -0.1668855063 -0.0099076068
-0.0319126168 -0.0724435661 -0.0108161376
0.0148969627 -0.1696543052 -0.0330826696
-0.0328486746 -0.1709039104 0.0135195372
0.0141446206 -0.1662225805 0.0325517521
-0.0300616591 -0.1345264200 0.0188871969
-0.0309029368 -0.1414109713 0.0167650377
-0.0315823587 -0.1514141790 0.0113298937
-0.0305291058 -0.1219421357 0.0155603048
-0.0304214466 -0.1018862201 0.0131146917
-0.0335866752 -0.1159110559 0.0097252233
-0.0345762058 -0.1661601236 0.0097514190
-0.0323674993 -0.1076557965 0.0107532680
-0.0332522645 -0.0838104266 0.0081511723
-0.0328387265 -0.0644183656 -0.0077725698
-0.0350155657 -0.1447179143 -0.0073639036
-0.0339903892 -0.0946345458 -0.0059406746
-0.0350069257 -0.1347972142 -0.0057308058
-0.0349944560 -0.1198986399 -0.0028780890
-0.0340097233 -0.0784524843 0.0000761204
-0.0349017485 -0.1141229513 -0.0004593740
-0.0348423161 -0.1108785593 0.0020311482
-0.0331810766 -0.0635221668 0.0059615493
-0.0330313432 -0.0604822868 0.0065362717
-0.0360258243 -0.1633910884 0.0039153424
-0.0334273233 -0.0782549955 0.0069718222
-0.0239406503 -0.0562702974 -0.0177545024
-0.0322162409 -0.0566563165 -0.0074071875
-0.0251780818 -0.0558029646 -0.0093675793
-0.0221114963 -0.0569613135 0.0048956526
0.0369019182 -0.1110472699 -0.0005115400
-0.0119230706 -0.1528503645 -0.0311362314
-0.0125635152 -0.0942844115 -0.0305906948
-0.0092545633 -0.1103951966 -0.0335489031
-0.0104242974 -0.1584449339 -0.0334387373
-0.0031341651 -0.0672724696 -0.0335986400
-0.0056901182 -0.0866091121 -0.0337465574
-0.0045726910 -0.1640793821 -0.0359224868
-0.0054228440 -0.1266414960 -0.0348220390
0.0077973766 -0.0949506303 -0.0335784565
0.0043312080 -0.0837193358 -0.0338252322
0.0070051997 -0.0769568833 -0.0333290676
0.0039977799 -0.1428745244 -0.0354213964
0.0010991610 -0.1529201863 -0.0359294479
0.0026552233 -0.1427097583 -0.0355998863
-0.0001497814 -0.0830233898 -0.0340839022
-0.0014010584 -0.0959661152 -0.0343754543
-0.0021429021 -0.1443990487 -0.0356308316
-0.0369889535 -0.1473484396 0.0024723800
0.0101813402 -0.1189557217 0.0333262254
0.0095714560 -0.0876823640 0.0329186571
0.0091994916 -0.0626264714 0.0297896547
-0.0307760300 -0.1710000022 0.0148450294
-0.0125264934 -0.1710000038 -0.0307959160
0.0322733669 -0.1709999971 -0.0205901055
0.0312023726 -0.1710000038 0.0218214363
-0.0128949671 -0.1710000038 0.0349979936
-0.0204181592 -0.0964256587 0.0277567702
-0.0245662580 -0.1670519833 0.0266953588
-0.0206543393 -0.1123033591 0.0280300797
-0.0282869257 -0.0738079467 0.0186142587
-0.0289726350 -0.1298479901 0.0201943617
-0.0263830802 -0.0871034715 0.0218606605
-0.0257845546 -0.1056871337 0.0232936347
-0.0262954481 -0.1488736223 0.0243385643
-0.0260470816 -0.1467935419 0.0245342187
-0.0235045604 -0.0910787153 0.0250804387
-0.0224964595 -0.1157520774 0.0267140968
-0.0296217659 -0.0545264988 0.0039391983
-0.0183338675 -0.0569648322 0.0238366364
-0.0096593302 -0.0572586712 0.0301290174
0.0045520061 -0.0802367094 0.0371702296
0.0181571206 -0.0908606089 0.0328819095
0.0269868646 -0.0808845379 0.0262229282
0.0357561935 -0.0884752149 0.0113033323
0.0100929113 -0.1081237642 0.0363714852
0.0286624133 -0.0984997285 0.0245475818
0.0339454593 -0.1010064654 0.0158851237
0.0293154715 -0.1151178082 0.0238782873
0.0255649523 -0.1007851351 0.0274804750
0.0279291408 -0.1113755676 0.0254469308
0.0356869093 -0.0943746969 0.0131140195
0.0396733326 -0.1622911898 -0.0010265112
0.0368485618 -0.1449474650 -0.0071310137
-0.0362999998 -0.1101581281 -0.0078941289
-0.0054119841 -0.0821003339 -0.0341021834
-0.0344881883 -0.0829161893 0.0145172958
-0.0194387797 -0.0768014883 0.0318858331
-0.0248068661 -0.0760809793 0.0278562726
-0.0103748458 -0.0885287460 0.0360049394
-0.0071565238 -0.1068679324 0.0369009886
-0.0280014107 -0.0991649256 0.0252574769
-0.0371660316 -0.0994997972 0.0061840835
-0.0192949560 -0.1032658985 0.0323203749
-0.0288926026 -0.1139776643 0.0246731246
-0.0350371338 -0.1034480183 0.0136846980
-0.0147204230 -0.0928666532 0.0394658897
0.0390752165 -0.1557699561 -0.0039096739
0.0103712686 -0.1350476351 0.0368995163
0.0162170505 -0.1278594630 0.0344972066
0.0276565995 -0.1300528316 0.0260603048
0.0313372092 -0.1428761833 0.0224581613
0.0367981390 -0.1305529998 0.0102206440
0.0216487288 -0.1299069640 0.0313470780
0.0228965083 -0.1455714016 0.0309897989
0.0340504885 -0.1430962974 0.0181104903
0.0366244362 -0.1501933865 0.0124323390
0.0065113286 -0.1532850342 0.0383155508
0.0131834955 -0.1694609616 0.0371717955
0.0193790839 -0.1666984209 0.0342668628
0.0235718028 -0.1715543821 0.0319455953
0.0309828837 -0.1633307293 0.0240707670
0.0338928868 -0.1662181760 0.0198986784
0.0370472386 -0.1675254736 0.0132786675
0.0392344559 -0.1735733091 0.0063274192
0.0041678502 -0.1729438066 -0.0385138691
-0.0323459749 -0.1739031153 -0.0211177771
-0.0300877084 -0.1736032912 0.0240447535
0.0090335676 -0.1720945166 0.0374784493
0.0376144976 -0.1743971942 0.0096063516
-0.0373074217 -0.1418314795 0.0088624371
-0.0272092486 -0.1267554028 0.0264652182
-0.0206939087 -0.1449242746 0.0324643172
-0.0173494222 -0.1445395123 0.0345108446
-0.0381719058 -0.1580407818 0.0081684185
-0.0344880475 -0.1288747734 0.0161888878
-0.0316189108 -0.1377585363 0.0217603987
-0.0290252597 -0.1482260393 0.0255171582
-0.0109264719 -0.1527898286 0.0372760098
-0.0065593171 -0.1507728886 0.0381269517
-0.0372621810 -0.1646337136 0.0123738588
-0.0319951903 -0.1728607462 0.0233341281
-0.0244644084 -0.1546412736 0.0301176131
-0.0241258326 -0.1560363303 0.0305075533
-0.0227934923 -0.1733832925 0.0324669820
-0.0141714290 -0.1521752389 0.0361714334
-0.0045826734 -0.1663921397 0.0391694752
-0.0041369637 -0.0796812334 0.0337855106
-0.0006242949 -0.0898744380 0.0342628237
-0.0084377278 -0.0895703786 0.0332679413
-0.0064625409 -0.1663168006 0.0356367409
-0.0049183418 -0.1657601314 0.0358421759
-0.0030294465 -0.1086152804 0.0346079027
-0.0016534523 -0.1374400319 0.0354964424
-0.0000664173 -0.1135826332 0.0348660694
0.0051327221 -0.1639699408 0.0357714893
0.0028250601 -0.1072318069 0.0345962000
0.0063424028 -0.1178867930 0.0344497370
0.0074110610 -0.1314305006 0.0345859756
-0.0102578828 -0.1498113833 0.0337333896
-0.0092178429 -0.1027144871 0.0333834869
-0.0146475960 -0.1580971666 0.0305912995
-0.0105801400 -0.1665126607 0.0333695035
-0.0119743128 -0.1709925157 0.0309806298
-0.0175506669 -0.1458812459 0.0309578258
-0.0201353246 -0.1695463147 0.0300086414
-0.0157218144 -0.1630919007 0.0308916360
-0.0277446842 -0.0650297260 0.0252662732
-0.0248599510 -0.0620897109 0.0279423031
-0.0350381085 -0.0545169243 0.0130561232
-0.0345600031 -0.0504996741 -0.0176200902
-0.0408017464 -0.0924342721 -0.0014510175
-0.0371822544 -0.1130870135 -0.0053151930
0.0036210160 -0.0683083101 0.0389391004
0.0055804145 -0.0603004105 0.0385441203
-0.0025461016 -0.0688890368 0.0385070285
0.0028663720 -0.0852931064 0.0375807747
0.0177769565 -0.0885641149 0.0333570512
0.0363904799 -0.0853532195 0.0088847501
0.0056819791 -0.1166069165 0.0375907608
0.0248025651 -0.0979311407 0.0317905112
0.0385707103 -0.1520616832 0.0051274449
0.0273698000 -0.0959184788 0.0286153791
0.0035817139 -0.1401279066 0.0384303679
0.0385810198 -0.1416265866 0.0036884082
0.0397332355 -0.1541290693 0.0008805725
0.0201936116 -0.0582079284 0.0346956765
0.0228673844 -0.0706283944 0.0308191145
0.0361158825 -0.0794265508 0.0148249005
0.0375991221 -0.1279696139 -0.0064918525
0.0368893181 -0.1241313453 -0.0092332645
0.0357728955 -0.0977447558 -0.0115284289
0.0355507638 -0.1011673196 -0.0123709261
0.0188617010 -0.0898550780 -0.0325385304
0.0051714670 -0.1573594350 -0.0387502764
0.0157115842 -0.0727216355 -0.0340073306
0.0094267359 -0.0766327857 -0.0362614896
0.0075970495 -0.0807932123 -0.0367494996
0.0327123008 -0.0802791189 -0.0179856562
0.0301368104 -0.0821599931 -0.0220653049
0.0266068003 -0.1115244179 -0.0267227609
0.0255734241 -0.0764509341 -0.0273219435
0.0228322999 -0.0881088729 -0.0297928852
0.0356364338 -0.1127063698 -0.0124580867
0.0336566927 -0.1163091471 -0.0172666814
0.0334402235 -0.1347351035 -0.0186014651
0.0282381867 -0.1124699012 -0.0248089278
0.0278221553 -0.1250057842 -0.0259001920
0.0226388001 -0.1073301467 -0.0302498225
0.0220482720 -0.1345632100 -0.0314952946
0.0201211804 -0.1145310198 -0.0321991630
0.0185992725 -0.1460928079 -0.0339356778
0.0158630367 -0.1209477702 -0.0346548214
0.0144385365 -0.1285822232 -0.0354821000
0.0082235073 -0.1112884375 -0.0370019723
0.0102119972 -0.1442893960 -0.0372506805
0.0381730589 -0.1515008487 -0.0064324424
0.0371448935 -0.1623993206 -0.0126555265
0.0343089485 -0.1555778792 -0.0183898279
0.0325570034 -0.1713640433 -0.0226270250
0.0276137395 -0.1513211246 -0.0272223490
0.0221437490 -0.1705480047 -0.0328641387
0.0162970938 -0.1545565595 -0.0353123750
0.0102141076 -0.1654637305 -0.0380906845
0.0075934954 -0.1670466651 -0.0387451395
-0.0145075116 -0.0768030976 -0.0345141489
-0.0044523253 -0.0620359146 -0.0372474906
-0.0372025762 -0.0753461262 -0.0056590224
-0.0364084015 -0.1033391920 -0.0097718533
-0.0360790722 -0.1006631882 -0.0107669823
-0.0371556038 -0.1185901154 -0.0072328343
-0.0189133767 -0.0739508348 -0.0324016151
-0.0227500784 -0.0587067255 -0.0296711007
-0.0235072295 -0.0926671756 -0.0292877722
-0.0269048147 -0.0649527328 -0.0262380241
-0.0291087943 -0.0776438097 -0.0238094255
-0.0328086934 -0.0580176574 -0.0182194168
-0.0349285365 -0.0703164493 -0.0135136866
-0.0344524233 -0.0821002104 -0.0147875253
-0.0046941820 -0.0945988355 -0.0374109222
-0.0048781587 -0.1320498353 -0.0381063622
-0.0071094993 -0.1121185384 -0.0373072160
-0.0105135129 -0.1313446740 -0.0368928131
-0.0143688515 -0.1040283252 -0.0349792853
-0.0159634485 -0.1226885405 -0.0346522145
-0.0165851225 -0.1407259604 -0.0347553232
-0.0203310992 -0.1241101828 -0.0323125777
-0.0221117935 -0.1411698480 -0.0315995042
-0.0238790257 -0.1200994612 -0.0296887087
-0.0268183591 -0.1361457466 -0.0275085987
-0.0283769188 -0.1316326169 -0.0258104112
-0.0310131474 -0.1083281514 -0.0217270282
-0.0317359208 -0.1366716266 -0.0216715467
-0.0328306140 -0.1200092922 -0.0194017854
-0.0334596010 -0.1431891959 -0.0191749394
-0.0358328358 -0.1336305058 -0.0133515723
-0.0097767641 -0.1486824847 -0.0374277288
-0.0103344513 -0.1653017458 -0.0379402356
-0.0149150801 -0.1684428827 -0.0365661508
-0.0240426627 -0.1532919181 -0.0305160998
-0.0263124591 -0.1674491498 -0.0295631458
-0.0314189253 -0.1589511421 -0.0232811909
-0.0317891949 -0.1645759220 -0.0231081710
-0.0354673625 -0.1716321750 -0.0177932626
-0.0384249648 -0.1595921314 -0.0075122557
-0.0456629048 -0.0496754792 -0.0012811288
-0.0292277143 -0.0894682441 0.0252533071
-0.0177094123 -0.0776170435 0.0334427659
-0.0035954402 -0.0745966204 0.0381796892
-0.0386663102 -0.1131372780 0.0020949277
-0.0379801534 -0.1184997691 0.0052076299
-0.0359345536 -0.1267551271 0.0125235589
-0.0025266725 -0.1583136140 0.0392693761
-0.0404597913 -0.0954316402 0.0012855004
-0.0390471761 -0.1744906604 -0.0013308460
0.0334033971 -0.1744906604 -0.0201361210
-0.0063560720 -0.0711862325 0.0363054276
-0.0141921805 -0.0706915020 0.0406254537
-0.0150237765 -0.0571395392 0.0498178016
-0.0266848008 -0.0699238556 0.0273081680
-0.0174256386 -0.0577378833 0.0340459453
-0.0350710274 -0.0502482133 0.0158195521
-0.0432164066 -0.0421516179 -0.0214255286
-0.0440664195 -0.0429179443 -0.0079714290
-0.0368135391 -0.0458760641 -0.0274604752
-0.0298032884 -0.0512260533 -0.0264898804
-0.0398013284 -0.0723254281 -0.0030017978
-0.0438445952 -0.0675201193 -0.0030030317
-0.0412132056 -0.0902394000 -0.0019487282
-0.0397102963 -0.1532837067 0.0016507793
-0.0302198750 -0.0444085815 0.0357612185
0.0015731087 -0.0517491378 0.0410195855
-0.0021267160 -0.0509040760 0.0483385977
-0.0018566994 -0.0689791524 0.0414328696
0.0149450660 -0.0554169366 0.0511283877
0.0074710777 -0.0498262881 0.0436645141
0.0208951049 -0.0607793959 -0.0331688227
0.0170496408 -0.0563593867 -0.0349904564
0.0017765351 -0.0749316418 0.0457588246
0.0149738496 -0.0898579774 0.0399633499
0.0172187482 -0.0799860465 0.0426657249
0.0236156133 -0.0736681873 0.0337570453
0.0322787598 -0.0913342523 0.0202932274
0.0364314030 -0.0834621181 0.0206649217
0.0134530102 -0.0972022518 0.0390142096
0.0318626390 -0.1225635191 0.0207434000
0.0008866839 -0.1319762295 0.0388779703
0.0150394023 -0.0919755551 0.0399723613
0.0401566893 -0.0968938878 0.0038447196
0.0380847904 -0.0816643630 0.0193374081
0.0319964297 -0.0694154742 0.0320882438
0.0220806208 -0.0710822999 0.0381138205
0.0171999987 -0.0597722563 0.0417657699
0.0178906001 -0.0510137568 0.0494750067
0.0264109160 -0.0508212415 0.0449929098
0.0286066689 -0.0662492371 0.0395493480
0.0294568788 -0.0519407099 -0.0345283972
0.0062043558 -0.0620482389 -0.0369781580
-0.0019096069 -0.1453850104 -0.0392836598
0.0010716068 -0.1464086763 -0.0394510894
-0.0019623769 -0.0768960606 -0.0384527587
-0.0128864758 -0.0515642898 -0.0364715288
0.0233285875 -0.0552892535 -0.0368617601
-0.0007867289 -0.0570374462 -0.0167585590
-0.0119082785 -0.0490590536 -0.0331498792
-0.0012167112 -0.0572804581 -0.0153507478
-0.0003122441 -0.0576432009 -0.0085059877
-0.0066746664 -0.0568180502 -0.0154594222
-0.0448412944 -0.0360493406 -0.0005224953
-0.0363585083 -0.0443722833 -0.0101957668
-0.0408119657 -0.0368226324 -0.0258040748
-0.0394372737 -0.0377322856 -0.0268589952
-0.0274672675 -0.0491535673 -0.0204520058
-0.0119612016 -0.0560889766 -0.0103227580
0.0262539699 -0.0493684179 -0.0349349657
0.0299293698 -0.0760130769 -0.0085010395
0.0159429607 -0.0671842636 -0.0110650787
0.0029942592 -0.0578285837 -0.0216267243
0.0238617844 -0.0563921472 -0.0325839172
0.0220553305 -0.0584262826 -0.0310654635
0.0197234656 -0.0701269360 -0.0038819863
0.0213864297 -0.0700238653 -0.0137481457
0.0048702305 -0.0576219813 -0.0253652177
0.0202727059 -0.0673626411 -0.0205786483
-0.0393536106 -0.0308005437 -0.0333669806
-0.0325426166 -0.0370406093 -0.0388000011
0.0017108257 -0.0828852448 -0.0384774024
0.0219076678 -0.0547366294 -0.0388000011
0.0010801915 -0.0513031327 -0.0387999364
-0.0450809032 -0.0614477733 -0.0011473146
-0.0471686551 -0.0343414992 -0.0184143235
-0.0449834413 -0.0241346305 -0.0334402991
-0.0339335748 -0.0744299232 0.0308287294
-0.0332097515 -0.0884893050 0.0266249334
-0.0309883086 -0.0799309712 0.0341601543
-0.0210772395 -0.0735097260 0.0394045667
-0.0172131990 -0.0812277950 0.0406601311
-0.0078592909 -0.0735402667 0.0419258044
-0.0015066250 -0.0809837964 0.0439712922
-0.0103077693 -0.1204862698 0.0367637878
-0.0300581273 -0.1194681690 0.0235468415
-0.0396074585 -0.1025340189 0.0033351463
-0.0342250855 -0.0950296274 0.0228558711
-0.0028581463 -0.0966204500 0.0413459781
-0.0173505364 -0.0694199634 0.0371855156
-0.0290651908 -0.0708670088 0.0333231076
-0.0309834035 -0.0618763958 0.0334161838
-0.0309744637 -0.0651159601 0.0382951514
-0.0252765740 -0.0498980619 0.0307974880
-0.0217442281 -0.0499426823 0.0505843332
-0.0172940945 -0.0546724898 0.0433307719
-0.0172005553 -0.0678193115 0.0352485375
-0.0402118543 -0.0710705908 0.0152828772
-0.0402941247 -0.0502095268 0.0043832776
-0.0355377931 -0.0499802392 0.0360416659
-0.0444472418 -0.0499067250 0.0186464873
-0.0332627523 -0.0688796982 0.0190820784
-0.0332737592 -0.0587247706 0.0339558176
-0.0332591448 -0.0556780045 0.0412876145
-0.0005716879 -0.0576997745 0.0031592121
-0.0435009280 -0.0331690413 0.0260444712
-0.0445904176 -0.0356374281 0.0157573600
-0.0106366702 -0.0515299717 0.0305473276
-0.0016013881 -0.0572735781 0.0143680503
-0.0102765153 -0.0544488531 0.0241546953
-0.0087928561 -0.0568832271 -0.0001874138
-0.0170164026 -0.0549741493 0.0078217153
-0.0217041915 -0.0475956514 0.0311197617
-0.0231125151 -0.0527155067 0.0038717875
-0.0279624043 -0.0488547697 0.0212544351
-0.0348372232 -0.0458367042 0.0027013982
-0.0353764269 -0.0401769608 0.0289296683
-0.0402121640 -0.0411656524 0.0050365861
-0.0475901491 -0.0345238577 0.0003336412
-0.0303572956 -0.0473616067 0.0450752520
-0.0297164828 -0.0403964530 0.0374875680
0.0095946612 -0.0711426404 0.0461274492
-0.0405484656 -0.0369075859 0.0411170046
-0.0206005595 -0.0444246793 -0.0388000011
-0.0120656168 -0.0523842432 -0.0388000011
-0.0287874738 -0.0498655133 -0.0388999073
0.0211633790 -0.0526981637 -0.0388000011
-0.0133790454 -0.0538116394 -0.0388058061
-0.0342707023 -0.0432095674 -0.0404851584
-0.0308192477 -0.0256282731 -0.0405000001
-0.0427636199 -0.0141588068 -0.0405000001
-0.0393658723 -0.0154393016 -0.0405000001
-0.0366779205 0.0196222325 -0.0405000001
-0.0148307475 -0.0411417640 -0.0405000001
-0.0244963638 -0.0448473212 -0.0405000001
-0.0259113411 -0.0441201844 -0.0405000001
0.0283376608 0.0321398353 -0.0404593881
-0.0094756573 -0.0390920532 -0.0405000001
0.0120919881 -0.0363988809 -0.0405000001
-0.0056214796 -0.0453200743 -0.0405000001
0.0349608917 -0.0309303109 -0.0405000749
0.0286709360 -0.0218785301 -0.0405000001
0.0372641793 0.0019859711 -0.0405000001
0.0079035733 -0.0500346928 -0.0404717404
0.0049384346 -0.0499477651 -0.0404771702
0.0039821813 -0.0554571234 -0.0405000001
0.0099135092 -0.0575520110 -0.0404164525
0.0051586905 -0.0587498837 -0.0397214075
-0.0430120635 0.0078541323 -0.0395640958
-0.0379153261 -0.0047856811 -0.0363834757
-0.0284785644 -0.0260880196 -0.0364470824
-0.0000224386 0.0435702072 -0.0381140237
-0.0214262459 0.0380745561 -0.0393211304
0.0183291713 0.0392814560 -0.0402251182
0.0119234851 0.0423222923 -0.0365394108
-0.0162210783 0.0376711298 -0.0362863679
-0.0248916435 0.0300624259 -0.0390428865
0.0298955431 0.0237609544 -0.0374182738
0.0194932155 -0.0285634214 -0.0393929982
-0.0290683263 -0.0196720622 -0.0384018477
0.0150286235 -0.0319777966 -0.0360426671
0.0403364296 0.0140386609 -0.0364284187
0.0407577150 0.0010270851 -0.0362002830
0.0324781340 -0.0174318988 -0.0361096270
0.0427762526 -0.0127553127 -0.0397811713
0.0312351047 0.0290319722 -0.0364767084
0.0349594289 0.0071349023 -0.0379042904
-0.0187150717 0.0370321282 -0.0403267962
0.0223874053 0.0329476711 -0.0365051830
-0.0104011409 0.0398132455 -0.0362950807
0.0046479853 -0.0350007994 -0.0362831365
0.0184776676 -0.0353790062 -0.0361315949
0.0087189258 -0.0422947279 -0.0356844976
0.0164166217 -0.0421286393 -0.0357728651
-0.0356229569 -0.0226404418 -0.0365323732
-0.0218872850 -0.0401411898 -0.0356116568
-0.0444618109 -0.0160879566 -0.0360006284
-0.0413668582 -0.0237511034 -0.0364638875
-0.0372625173 -0.0290067698 -0.0376433454
0.0316016698 -0.0416283875 -0.0393459464
