0.0241674566 -0.0158493953 0.0013802158
0.0245528696 -0.0152938401 0.0004424788
0.0245668612 -0.0152736719 0.0030832234
0.0252338105 -0.0142653279 0.0027271961
0.0256941647 -0.0132700328 0.0028670100
0.0270674931 -0.0103008694 0.0031881200
0.0279516101 -0.0073091801 0.0022396473
0.0277613399 -0.0080246114 0.0025148513
0.0280584704 -0.0069073769 0.0058440031
0.0277589383 -0.0080336416 0.0057079815
0.0288050601 -0.0022442313 0.0018708488
0.0288790107 -0.0013928761 0.0046099827
0.0289343712 -0.0007555404 0.0038710575
0.0287584604 0.0027807085 0.0016016553
0.0289330566 0.0007706751 0.0040473931
0.0288125122 0.0021584391 0.0053186250
0.0284844902 0.0053055081 0.0032079017
0.0284557344 0.0054136320 0.0025839971
0.0279574131 0.0072873603 0.0042643417
0.0263749549 0.0117981509 0.0002996890
0.0257869916 0.0130693393 0.0013020979
0.0266117597 0.0112861742 0.0059429233
0.0255728192 0.0135323843 0.0019797201
0.0238833411 0.0162589346 0.0024092511
0.0229381427 0.0176213947 0.0028426994
0.0246078169 0.0152146362 0.0055698536
-0.0241365495 0.0158939463 0.0001244427
-0.0245768731 0.0152592402 0.0012185651
-0.0244899897 0.0153844786 0.0033197133
-0.0260737837 0.0124492890 0.0018661023
-0.0259951968 0.0126191954 0.0025116947
-0.0263553226 0.0118405963 0.0052509762
-0.0281084921 0.0067192913 0.0001532438
-0.0273692617 0.0094988572 0.0053010157
-0.0283344518 0.0058696644 0.0058618402
-0.0284845463 0.0053052970 0.0032427558
-0.0288336521 0.0028535715 0.0045837624
-0.0288419978 0.0028737824 0.0051517335
-0.0289985209 0.0000296217 0.0021960966
-0.0289311870 -0.0013788718 0.0047045848
-0.0286168830 -0.0044863662 0.0003699794
-0.0288086963 -0.0028588147 0.0032061502
-0.0279549791 -0.0072965126 0.0004193466
-0.0274279203 -0.0092782960 0.0002552610
-0.0281937640 -0.0063986619 0.0047506307
-0.0271039788 -0.0102219866 0.0054196198
-0.0258494717 -0.0129342560 0.0011731720
-0.0261915515 -0.0121946726 0.0041410028
-0.0257090411 -0.0132378699 0.0022747009
-0.0249138516 -0.0147735012 0.0023512891
-0.0230093922 -0.0175186917 0.0046584087
-0.0236320199 -0.0166212026 0.0041737141
-0.0092711510 0.0066014597 0.0060000001
0.0117461259 -0.0065748649 0.0060000001
-0.0049513909 -0.0114556068 0.0060000001
-0.0149558225 -0.0321304254 0.0060000001
0.0175421742 0.0350091140 0.0060000001
0.0178324790 0.0313570072 0.0060000001
0.0178313439 0.0206522058 0.0060000001
0.0173674607 0.0232461951 0.0060000001
0.0204523808 -0.0062897263 0.0060000001
0.0239427627 -0.0075629887 0.0060000001
0.0211512339 -0.0062755734 0.0060000001
0.0203316107 -0.0046699387 0.0060000001
0.0204900940 -0.0038840672 0.0060000001
0.0146496447 0.0041310941 0.0060000001
0.0158858772 -0.0046442406 0.0060000001
0.0157234821 -0.0007546926 0.0060000001
0.0139878499 -0.0043179691 0.0060000001
0.0168841488 -0.0024722091 0.0060000001
0.0164495169 0.0039435422 0.0060000001
0.0207464864 0.0013512367 0.0060000001
0.0218901927 0.0064950094 0.0060000001
0.0172328775 0.0064517285 0.0060000001
0.0225873951 0.0081943070 0.0060000001
0.0224948567 0.0039807919 0.0060000001
0.0220353161 0.0100162405 0.0060000001
0.0166282740 0.0162606399 0.0060000001
0.0214288893 0.0095354598 0.0060000001
0.0142479484 0.0089042600 0.0060000001
0.0190378733 0.0109217862 0.0060000001
0.0159690583 0.0081768358 0.0060000001
0.0153143123 0.0074138518 0.0060000001
0.0157797895 0.0167884648 0.0060000001
0.0219930505 0.0120433961 0.0060000001
0.0232025788 0.0135959864 0.0060000001
0.0188722015 0.0173234776 0.0060000001
0.0166732449 0.0193099344 0.0060000001
0.0232221637 0.0170113583 0.0060000001
0.0257851978 0.0074514334 0.0060000001
0.0266231558 0.0054831817 0.0060000001
0.0289250040 0.0008251029 0.0060000001
0.0269688428 -0.0064371676 0.0060000001
0.0163476974 -0.0247902681 0.0060000001
0.0173754295 -0.0253394006 0.0060000001
0.0171130124 -0.0239801429 0.0060000001
0.0169783227 -0.0217385940 0.0060000001
0.0140110380 -0.0321509689 0.0060000001
0.0166771962 -0.0347561174 0.0060000001
0.0153870285 -0.0304527888 0.0060000001
-0.0168432395 -0.0355071783 0.0060000001
-0.0187734583 -0.0313631173 0.0060000001
-0.0193053043 -0.0154315047 0.0060000001
-0.0275636609 -0.0036949916 0.0060000001
-0.0255003227 -0.0052130760 0.0060000001
-0.0283072787 0.0034009187 0.0060000001
-0.0214107917 -0.0028429959 0.0060000001
-0.0232922664 -0.0164963794 0.0060000001
-0.0227399550 -0.0142554263 0.0060000001
-0.0212975542 -0.0118522999 0.0060000001
-0.0251180862 -0.0143831245 0.0060000001
-0.0258772904 -0.0112029789 0.0060000001
-0.0229145016 -0.0092595219 0.0060000001
-0.0253262285 -0.0107835020 0.0060000001
-0.0248631120 -0.0070389142 0.0060000001
-0.0246444127 -0.0064269868 0.0060000001
-0.0250254172 -0.0057537589 0.0060000001
-0.0193290227 0.0046221793 0.0060000001
-0.0197795177 0.0007194022 0.0060000001
-0.0196052436 -0.0047789438 0.0060000001
-0.0189063776 0.0139985637 0.0060000001
-0.0191959015 0.0233733076 0.0060000001
-0.0202663774 0.0192355197 0.0060000001
-0.0210626710 0.0189572941 0.0060000001
-0.0256713744 0.0040614046 0.0060000001
-0.0247585334 0.0049502283 0.0060000001
-0.0243865066 0.0050141055 0.0060000001
-0.0254987614 0.0110798648 0.0060000001
-0.0199271916 0.0074971395 0.0060000001
-0.0240964979 0.0094373244 0.0060000001
-0.0197817637 0.0087165932 0.0060000001
-0.0201316174 0.0087802759 0.0060000001
-0.0198581521 0.0304295365 0.0060000001
-0.0194904054 0.0277379335 0.0060000001
-0.0132543324 -0.0162399777 0.0060000001
-0.0065202261 -0.0246931441 0.0060000001
-0.0071960977 -0.0258504779 0.0060000001
-0.0117520490 -0.0261117782 0.0060000001
-0.0157852114 -0.0262135375 0.0060000001
-0.0161755683 -0.0236043529 0.0060000001
-0.0199914938 -0.0207983954 0.0060000001
-0.0184178001 -0.0254989612 0.0060000001
-0.0167623126 -0.0212483803 0.0060000001
-0.0167106868 -0.0219765484 0.0060000001
0.0139225038 -0.0271339396 0.0060000001
0.0093369464 -0.0254016970 0.0060000001
0.0090536609 -0.0160436926 0.0060000001
0.0102395355 -0.0133873365 0.0060000001
0.0189876630 -0.0211994228 0.0060000001
0.0165546455 -0.0193634331 0.0060000001
0.0204815940 -0.0176492784 0.0060000001
0.0194325552 -0.0166067125 0.0060000001
0.0146830878 -0.0139354708 0.0060000001
0.0142668314 -0.0152150580 0.0060000001
0.0145994765 -0.0171689373 0.0060000001
0.0088118104 0.0255238731 0.0060000001
0.0107454079 0.0157249710 0.0060000001
0.0108921172 0.0077942965 0.0060000001
0.0128893871 0.0081395050 0.0060000001
0.0101539982 0.0107731558 0.0060000001
0.0131210193 0.0151744932 0.0060000001
0.0144417411 0.0141476204 0.0060000001
0.0110198706 0.0264911537 0.0060000001
0.0184506750 0.0258549453 0.0060000001
0.0146517296 0.0264425889 0.0060000001
0.0132514732 0.0265404337 0.0060000001
0.0088387242 0.0167469433 0.0060000001
-0.0128942257 0.0252657511 0.0060000001
-0.0066894805 0.0257278109 0.0060000001
-0.0046059078 0.0095767190 0.0060000001
-0.0051913311 0.0089250515 0.0060000001
-0.0071013967 0.0102464817 0.0060000001
-0.0087837119 0.0148375579 0.0060000001
-0.0118458525 0.0119846235 0.0060000001
-0.0094562710 0.0126031569 0.0060000001
-0.0111117784 0.0084368541 0.0060000001
-0.0098945055 0.0136125722 0.0060000001
-0.0130745543 0.0107724905 0.0060000001
-0.0131167226 0.0145313042 0.0060000001
-0.0147029324 0.0173053532 0.0060000001
-0.0174574767 0.0113914217 0.0060000001
-0.0183145356 0.0127980018 0.0060000001
-0.0182470445 0.0122647369 0.0060000001
-0.0162232928 0.0225765022 0.0060000001
-0.0001730994 -0.0120194987 0.0060000001
0.0016306749 -0.0124392821 0.0060000001
0.0003769030 -0.0101348766 0.0060000001
0.0046863497 -0.0127798515 0.0060000001
0.0055617297 -0.0109083606 0.0060000001
0.0068530692 -0.0067267955 0.0060000001
-0.0052525213 0.0133518488 0.0060000001
-0.0055798400 0.0241665940 0.0060000001
-0.0069977853 0.0241064909 0.0060000001
-0.0071403082 0.0186733076 0.0060000001
-0.0022460867 0.0130098406 0.0060000001
-0.0029768234 0.0095224949 0.0060000001
0.0020954456 0.0233501015 0.0060000001
-0.0025694391 0.0185588570 0.0060000001
-0.0009338285 0.0200343586 0.0060000001
0.0015519404 0.0252662310 0.0060000001
0.0008093299 0.0230950553 0.0060000001
-0.0017023469 0.0146958144 0.0060000001
-0.0037698150 0.0221604494 0.0060000001
-0.0034662600 0.0232693822 0.0060000001
0.0013349741 0.0194546877 0.0060000001
0.0005445825 0.0227966140 0.0060000001
0.0007585379 0.0098225038 0.0060000001
0.0028166668 0.0199010133 0.0060000001
0.0013854550 0.0147820035 0.0060000001
0.0021044150 0.0093565620 0.0060000001
0.0028633626 0.0163150920 0.0060000001
0.0064234303 0.0255271393 0.0060000001
0.0066083288 0.0212286050 0.0060000001
0.0052403804 0.0194763529 0.0060000001
0.0044720350 0.0116979939 0.0060000001
0.0055821147 0.0113004503 0.0060000001
0.0067000855 0.0111980877 0.0060000001
0.0074466517 0.0084080798 0.0060000001
0.0080866359 0.0138776772 0.0060000001
0.0074267524 0.0097427874 0.0060000001
0.0086867533 0.0038390331 0.0060000001
0.0131775684 -0.0003013494 0.0060000001
0.0137529643 -0.0019243132 0.0060000001
0.0124799713 0.0026824263 0.0060000001
0.0135470908 -0.0037600465 0.0060000001
0.0123394812 -0.0048804659 0.0060000001
-0.0092981904 -0.0055183940 0.0060000001
-0.0093412959 -0.0027202051 0.0060000001
-0.0137186264 0.0012435420 0.0060000001
-0.0133929086 -0.0031239029 0.0060000001
-0.0129291238 -0.0035313191 0.0060000001
-0.0113183277 0.0035949671 0.0060000001
-0.0093034663 0.0037998101 0.0060000001
-0.0068312422 -0.0069032720 0.0060000001
-0.0104520329 -0.0100918786 0.0060000001
-0.0117593327 -0.0080225515 0.0060000001
-0.0117197378 -0.0095785830 0.0060000001
-0.0102987433 -0.0111030844 0.0060000001
-0.0082108909 -0.0099747619 0.0060000001
-0.0115081881 -0.0156609702 0.0060000001
-0.0110958939 -0.0153867236 0.0060000001
-0.0090252982 -0.0161246817 0.0060000001
0.0016007797 -0.0341455932 0.0060000001
-0.0002519916 -0.0329550304 0.0060000001
-0.0044591174 -0.0354216937 0.0060000001
-0.0039442339 -0.0342192946 0.0060000001
-0.0013192957 -0.0276867723 0.0060000001
-0.0037946240 0.0299582700 0.0060000001
-0.0046267550 0.0273149620 0.0060000001
0.0019101543 0.0289302488 0.0060000001
-0.0000065676 0.0333584406 0.0060000001
0.0190147119 0.0327289071 0.0060000001
0.0128171931 0.0307891860 0.0060000001
0.0104600058 0.0359251676 0.0060000001
0.0126148144 0.0329355290 0.0060000001
-0.0061410875 0.0318784377 0.0060000001
-0.0038620194 0.0316442721 0.0060000001
-0.0136874726 0.0356485389 0.0060000001
-0.0080441920 0.0354504873 0.0060000001
0.0111260303 -0.0348845512 0.0060000001
0.0125356300 -0.0319023187 0.0060000001
0.0116038868 -0.0310180537 0.0060000001
0.0263762986 -0.0113742335 0.0060000001
0.0231474801 -0.0119496023 0.0060000001
0.0219466627 -0.0105338120 0.0060000001
0.0147655965 -0.0092376062 0.0060000001
0.0139882781 -0.0127580007 0.0060000001
0.0239251253 -0.0101867250 0.0060000001
0.0172563697 -0.0105706077 0.0060000001
0.0120803353 -0.0099218676 0.0060000001
0.0127253290 -0.0116419912 0.0060000001
0.0092257278 -0.0068429039 0.0060000001
0.0100979675 -0.0070378344 0.0060000001
0.0082537387 -0.0049806862 0.0060000001
0.0082214897 -0.0313866701 0.0060000001
0.0064198059 -0.0303423592 0.0060000001
0.0036913724 -0.0304694516 0.0060000001
0.0174949836 -0.0287366956 0.0060000001
0.0164854288 -0.0275392436 0.0060000001
0.0092660688 -0.0297819586 0.0060000001
0.0102280688 -0.0284863870 0.0060000001
0.0058852915 -0.0280216466 0.0060000001
0.0179798575 0.0280780080 0.0060000001
0.0146217470 0.0282630977 0.0060000001
0.0138198899 0.0287279720 0.0060000001
0.0100202449 0.0282433772 0.0060000001
0.0063699942 0.0288681217 0.0060000001
0.0025559033 0.0294474800 0.0060000001
0.0059758721 0.0326134359 0.0060000001
0.0039520857 0.0312636835 0.0060000001
0.0078705722 -0.0237504524 0.0060000001
0.0073427111 -0.0202496614 0.0060000001
0.0053385126 -0.0139929547 0.0060000001
0.0060147898 -0.0181085615 0.0060000001
0.0068325083 -0.0176900220 0.0060000001
0.0037257169 -0.0198242048 0.0060000001
0.0005711676 -0.0216665597 0.0060000001
0.0049326263 -0.0194241241 0.0060000001
-0.0000162621 -0.0235071967 0.0060000001
0.0042580511 -0.0272539401 0.0060000001
0.0025854035 -0.0192639633 0.0060000001
0.0008478016 -0.0268207046 0.0060000001
-0.0016644609 -0.0195400678 0.0060000001
-0.0040886772 -0.0162043579 0.0060000001
-0.0044825955 -0.0181249464 0.0060000001
-0.0006214904 -0.0165689723 0.0060000001
-0.0000298965 -0.0165626438 0.0060000001
-0.0021599119 -0.0159966578 0.0060000001
0.0004097029 -0.0146609804 0.0060000001
-0.0049205113 -0.0245849093 0.0060000001
-0.0070843120 -0.0223361025 0.0060000001
-0.0056934155 -0.0173919534 0.0060000001
-0.0087954171 -0.0189494333 0.0060000001
0.0057713160 0.0342758784 0.0060000001
0.0027797488 0.0335748229 0.0060000001
-0.0036921279 0.0337829034 0.0060000001
-0.0042984347 0.0347273457 0.0060000001
-0.0068909823 -0.0351633340 0.0060000001
-0.0091434399 -0.0355605514 0.0060000001
-0.0050597764 -0.0305155958 0.0060000001
-0.0137167341 -0.0349464330 0.0060000001
-0.0064955653 -0.0302551581 0.0060000001
-0.0090893532 0.0291091449 0.0060000001
-0.0088633200 0.0289994538 0.0060000001
-0.0057238007 0.0298338543 0.0060000001
-0.0115203452 0.0266620230 0.0060000001
-0.0066872592 0.0265205130 0.0060000001
-0.0072604059 -0.0281563570 0.0060000001
-0.0079201527 -0.0290921671 0.0060000001
-0.0137398981 -0.0280920154 0.0060000001
-0.0140054713 -0.0292449310 0.0060000001
-0.0188929111 -0.0290389288 0.0060000001
-0.0159882437 0.0123444055 0.0060000001
-0.0141960940 0.0137906271 0.0060000001
-0.0167474517 0.0034949284 0.0060000001
-0.0146059398 0.0060000550 0.0060000001
-0.0175492615 -0.0001169322 0.0060000001
-0.0181804278 -0.0019204392 0.0060000001
-0.0156724933 -0.0009353153 0.0060000001
-0.0148556227 -0.0055736281 0.0060000001
-0.0146212139 -0.0004082210 0.0060000001
-0.0172660267 -0.0087293328 0.0060000001
-0.0168992648 -0.0115651895 0.0060000001
-0.0174533255 -0.0121420678 0.0060000001
-0.0161946049 -0.0168097629 0.0060000001
-0.0152959438 -0.0184224726 0.0060000001
-0.0182338453 0.0303384639 0.0060000001
-0.0139812978 0.0304551870 0.0060000001
-0.0143499773 0.0284215298 0.0060000001
-0.0159384816 0.0250242429 0.0060000001
-0.0025536745 0.0354692700 0.0000000000
-0.0029873835 0.0353057810 0.0000000000
0.0076462749 0.0046931475 0.0000000000
0.0180847216 -0.0341395496 0.0000000000
-0.0250969547 0.0104606431 0.0000000000
-0.0253278576 0.0090311663 0.0000000000
-0.0195591330 0.0066818686 0.0000000000
-0.0211150100 0.0123595048 0.0000000000
-0.0222500465 0.0121583598 0.0000000000
-0.0192776306 0.0092288470 0.0000000000
-0.0206998475 0.0138410855 0.0000000000
-0.0284538558 -0.0019603408 0.0000000000
-0.0189684182 -0.0111306237 0.0000000000
-0.0233683005 -0.0113829768 0.0000000000
-0.0204989841 -0.0095314534 0.0000000000
-0.0201420612 -0.0081460395 0.0000000000
-0.0200121358 -0.0223781688 0.0000000000
-0.0207072851 -0.0185616703 0.0000000000
-0.0203638995 -0.0143408615 0.0000000000
-0.0229565333 -0.0136002742 0.0000000000
-0.0247770678 -0.0117156584 0.0000000000
-0.0193411315 -0.0323485108 0.0000000000
0.0180255358 -0.0279017945 0.0000000000
0.0173364638 -0.0250902723 0.0000000000
0.0165369154 -0.0241176861 0.0000000000
0.0231370657 -0.0164627438 0.0000000000
0.0146207707 -0.0207258360 0.0000000000
0.0200283888 -0.0206357054 0.0000000000
0.0181119114 -0.0226530401 0.0000000000
0.0199365007 -0.0257103080 0.0000000000
0.0167907752 -0.0153504544 0.0000000000
0.0188981804 -0.0153249110 0.0000000000
0.0227758657 -0.0150609443 0.0000000000
0.0203342558 -0.0164703606 0.0000000000
0.0220706355 -0.0128320108 0.0000000000
0.0193312174 -0.0120361111 0.0000000000
0.0144916578 -0.0085263033 0.0000000000
0.0148541896 -0.0106204975 0.0000000000
0.0198196009 -0.0134762710 0.0000000000
0.0208479793 -0.0093137783 0.0000000000
0.0174108098 -0.0069562141 0.0000000000
0.0246669769 -0.0127979245 0.0000000000
0.0241826329 -0.0089869113 0.0000000000
0.0278624908 0.0073828974 0.0000000000
0.0179910738 0.0040452667 0.0000000000
0.0205795199 -0.0046262271 0.0000000000
0.0259588704 -0.0079506796 0.0000000000
0.0211622826 -0.0026893918 0.0000000000
0.0255667881 -0.0071869312 0.0000000000
0.0179974643 -0.0039095247 0.0000000000
0.0273616332 -0.0094137493 0.0000000000
0.0171262241 0.0038486121 0.0000000000
0.0203273015 0.0016548818 0.0000000000
0.0155414055 -0.0004464202 0.0000000000
0.0177532987 -0.0006157614 0.0000000000
0.0171650463 -0.0010644838 0.0000000000
0.0151105751 0.0035698391 0.0000000000
0.0148284502 0.0034725833 0.0000000000
0.0203987729 -0.0015250460 0.0000000000
0.0216718676 -0.0021948767 0.0000000000
0.0278960347 -0.0034384658 0.0000000000
0.0280600604 0.0038031446 0.0000000000
0.0203816355 0.0213894445 0.0000000000
0.0262795333 0.0063546633 0.0000000000
0.0246183568 0.0072619849 0.0000000000
0.0184175363 0.0052210618 0.0000000000
0.0188271631 0.0044882680 0.0000000000
0.0267246368 0.0086464287 0.0000000000
0.0248112124 0.0081730216 0.0000000000
0.0152328473 0.0063829336 0.0000000000
0.0244139585 0.0118837016 0.0000000000
0.0210439005 0.0102967133 0.0000000000
0.0246942189 0.0126448737 0.0000000000
0.0163073404 0.0123690889 0.0000000000
0.0153126741 0.0113648005 0.0000000000
0.0141258273 0.0182295144 0.0000000000
0.0206565629 0.0148554123 0.0000000000
0.0231047275 0.0151564159 0.0000000000
0.0145163619 0.0131195210 0.0000000000
0.0210706645 0.0144856270 0.0000000000
0.0195631856 0.0145819009 0.0000000000
0.0151502272 0.0083398304 0.0000000000
0.0208472551 0.0177157527 0.0000000000
0.0188824459 0.0193744993 0.0000000000
0.0189834330 0.0237513524 0.0000000000
0.0189728561 0.0250728396 0.0000000000
0.0148129484 0.0257654388 0.0000000000
0.0193584641 0.0277047670 0.0000000000
0.0174736627 0.0269347609 0.0000000000
0.0133424224 0.0358349399 0.0000000000
-0.0139269148 0.0354573516 0.0000000000
-0.0153568110 0.0344057212 0.0000000000
0.0038097309 0.0184304047 0.0000000000
0.0045439356 0.0239441159 0.0000000000
0.0008599271 0.0089583050 0.0000000000
0.0041290660 0.0226524447 0.0000000000
0.0008684684 0.0162292973 0.0000000000
0.0028813544 0.0235878766 0.0000000000
-0.0035138486 0.0223884609 0.0000000000
-0.0002702700 0.0252797052 0.0000000000
-0.0011096772 0.0185799184 0.0000000000
0.0009476336 0.0225685079 0.0000000000
0.0011564406 0.0243757407 0.0000000000
-0.0030304445 0.0206336705 0.0000000000
0.0000423894 0.0140095862 0.0000000000
0.0089662315 0.0013217872 0.0000000000
-0.0015329471 -0.0102063743 0.0000000000
-0.0010550800 -0.0132409176 0.0000000000
-0.0038897406 -0.0116077838 0.0000000000
-0.0044811831 -0.0079934301 0.0000000000
0.0029764000 -0.0109964142 0.0000000000
0.0045259485 -0.0127772653 0.0000000000
0.0076241210 -0.0126459146 0.0000000000
0.0071679557 -0.0139164001 0.0000000000
0.0060958218 -0.0079796226 0.0000000000
0.0082177963 -0.0072627303 0.0000000000
-0.0060256958 -0.0088639348 0.0000000000
-0.0062602884 -0.0129377065 0.0000000000
-0.0094326729 -0.0137436965 0.0000000000
-0.0080560317 -0.0072679185 0.0000000000
-0.0095092976 -0.0016255902 0.0000000000
-0.0019782449 0.0152377611 0.0000000000
-0.0026595363 0.0087030160 0.0000000000
-0.0033375016 0.0152273879 0.0000000000
-0.0033522660 0.0102987564 0.0000000000
-0.0074885014 0.0260969135 0.0000000000
-0.0077021418 0.0212050894 0.0000000000
-0.0050498921 0.0167540703 0.0000000000
-0.0075774025 0.0226961776 0.0000000000
-0.0060163795 0.0115922548 0.0000000000
-0.0082081417 0.0196811441 0.0000000000
-0.0069194683 0.0126580039 0.0000000000
-0.0095060526 0.0187405887 0.0000000000
-0.0073209957 0.0124570809 0.0000000000
-0.0093732284 0.0154115370 0.0000000000
-0.0094907110 0.0143646374 0.0000000000
-0.0116762527 -0.0256271409 0.0000000000
-0.0124520626 -0.0170100277 0.0000000000
-0.0181744213 -0.0171294012 0.0000000000
-0.0165367329 -0.0223112337 0.0000000000
-0.0180127017 -0.0147183509 0.0000000000
-0.0191851644 -0.0237161868 0.0000000000
-0.0149621840 -0.0223818855 0.0000000000
-0.0146180286 -0.0245356525 0.0000000000
0.0110892317 -0.0251248550 0.0000000000
0.0120397849 -0.0190610767 0.0000000000
0.0126624679 0.0104416274 0.0000000000
0.0127139452 0.0120679562 0.0000000000
0.0139241357 0.0227688007 0.0000000000
0.0108801488 0.0238668659 0.0000000000
0.0053494884 0.0186732054 0.0000000000
0.0055520292 0.0153107198 0.0000000000
0.0058876087 0.0215704106 0.0000000000
0.0061182719 0.0133239178 0.0000000000
0.0060843335 0.0135642556 0.0000000000
0.0082000811 0.0211165204 0.0000000000
0.0052528182 0.0242170940 0.0000000000
0.0089870402 0.0223011256 0.0000000000
0.0095466132 0.0100585045 0.0000000000
0.0077707106 0.0112032414 0.0000000000
0.0090789759 0.0085874840 0.0000000000
0.0098315723 0.0129893944 0.0000000000
-0.0101609531 0.0104262552 0.0000000000
-0.0102560277 0.0169233823 0.0000000000
-0.0096781861 0.0118328106 0.0000000000
-0.0133605011 0.0248302958 0.0000000000
-0.0144795940 0.0235675541 0.0000000000
-0.0164767722 0.0198831319 0.0000000000
-0.0162774623 0.0146651037 0.0000000000
-0.0148105413 0.0208904938 0.0000000000
-0.0167826426 0.0174117000 0.0000000000
-0.0186991269 0.0174135425 0.0000000000
-0.0185698601 0.0173813259 0.0000000000
-0.0195863975 0.0142656063 0.0000000000
-0.0029551328 -0.0301745291 0.0000000000
-0.0049651518 -0.0307427117 0.0000000000
-0.0014331488 -0.0347259906 0.0000000000
0.0017434293 -0.0348308566 0.0000000000
0.0010463327 -0.0324857478 0.0000000000
0.0027496262 -0.0329935505 0.0000000000
0.0008878183 -0.0279177353 0.0000000000
0.0003631669 -0.0271797640 0.0000000000
0.0040068946 0.0266212243 0.0000000000
-0.0014385125 0.0265047100 0.0000000000
0.0021464752 0.0301799942 0.0000000000
0.0015771701 0.0319136062 0.0000000000
-0.0034720801 0.0301692776 0.0000000000
-0.0192267100 -0.0309359059 0.0000000000
-0.0155730518 -0.0308563318 0.0000000000
-0.0136026466 -0.0319298346 0.0000000000
-0.0144483956 -0.0341002503 0.0000000000
-0.0113111116 -0.0359978697 0.0000000000
-0.0062200659 -0.0358028136 0.0000000000
-0.0051682529 -0.0324534105 0.0000000000
0.0100153056 -0.0352185117 0.0000000000
0.0139797679 -0.0301694125 0.0000000000
0.0145885314 -0.0308970250 0.0000000000
0.0148892804 -0.0326247215 0.0000000000
0.0119223785 -0.0322446581 0.0000000000
0.0085309405 -0.0310857300 0.0000000000
0.0053329137 -0.0327967384 0.0000000000
0.0067913690 -0.0358667594 0.0000000000
0.0184474624 0.0304372396 0.0000000000
0.0169626274 0.0314857640 0.0000000000
0.0175680539 0.0322029445 0.0000000000
0.0075085977 0.0320743624 0.0000000000
0.0126740858 0.0344047781 0.0000000000
-0.0111025688 0.0308753754 0.0000000000
-0.0073612021 0.0322231753 0.0000000000
-0.0067052670 0.0348699172 0.0000000000
-0.0120035488 0.0353915531 0.0000000000
-0.0266036120 -0.0037647816 0.0000000000
-0.0257791541 0.0086806501 0.0000000000
-0.0215596403 0.0059700484 0.0000000000
-0.0244227261 0.0038587620 0.0000000000
-0.0216790201 0.0042974664 0.0000000000
-0.0240745824 -0.0081175541 0.0000000000
-0.0258521897 -0.0066083425 0.0000000000
-0.0222479921 -0.0048277016 0.0000000000
-0.0242297523 -0.0054252079 0.0000000000
-0.0222949389 -0.0003832279 0.0000000000
-0.0202603660 -0.0003622772 0.0000000000
-0.0197867649 -0.0028051180 0.0000000000
-0.0205506962 0.0034533145 0.0000000000
-0.0275969687 -0.0027362402 0.0000000000
-0.0146360074 0.0191695972 0.0000000000
-0.0146614865 0.0133789583 0.0000000000
-0.0134312093 0.0085475857 0.0000000000
-0.0131795265 0.0072057779 0.0000000000
-0.0180594244 0.0065729638 0.0000000000
-0.0139076729 0.0043182200 0.0000000000
-0.0157111773 0.0025217966 0.0000000000
-0.0174733096 0.0054051832 0.0000000000
-0.0136931155 -0.0040372243 0.0000000000
-0.0151506584 -0.0005133941 0.0000000000
-0.0146163036 0.0010656279 0.0000000000
-0.0172803627 -0.0104883048 0.0000000000
-0.0180701196 -0.0121901250 0.0000000000
-0.0166950670 -0.0094803976 0.0000000000
-0.0137821401 -0.0120425328 0.0000000000
-0.0155482361 -0.0131276666 0.0000000000
-0.0135094111 -0.0179785500 0.0000000000
-0.0136789940 -0.0181965595 0.0000000000
-0.0152267955 0.0317578792 0.0000000000
-0.0175614122 0.0315066669 0.0000000000
-0.0192735476 0.0322929722 0.0000000000
-0.0123621179 0.0190969213 0.0000000000
-0.0109399127 0.0091256990 0.0000000000
-0.0108411735 0.0078574856 0.0000000000
-0.0121051663 0.0043022120 0.0000000000
-0.0110398403 0.0022507663 0.0000000000
-0.0103251026 -0.0022951319 0.0000000000
-0.0111260666 -0.0022903320 0.0000000000
-0.0123741218 -0.0109905247 0.0000000000
-0.0113077518 -0.0081999934 0.0000000000
-0.0124075186 -0.0138850195 0.0000000000
-0.0127046412 -0.0140865718 0.0000000000
-0.0097819929 -0.0149748887 0.0000000000
-0.0047543744 -0.0269065555 0.0000000000
-0.0060237495 -0.0272439911 0.0000000000
-0.0095517233 -0.0290422171 0.0000000000
-0.0120639519 -0.0280352441 0.0000000000
-0.0144089041 -0.0300725124 0.0000000000
-0.0166000921 -0.0286220836 0.0000000000
-0.0198964790 -0.0297301895 0.0000000000
-0.0061121531 0.0268144752 0.0000000000
-0.0066971759 0.0296833643 0.0000000000
-0.0096477117 0.0271435197 0.0000000000
-0.0117150365 0.0290643401 0.0000000000
-0.0150427647 0.0278664131 0.0000000000
-0.0166637187 0.0292000801 0.0000000000
0.0097718951 0.0345209714 0.0000000000
0.0066907825 0.0347029829 0.0000000000
0.0025849708 0.0334255924 0.0000000000
-0.0026232454 0.0330339771 0.0000000000
0.0074407555 -0.0260368876 0.0000000000
0.0061576163 -0.0262910353 0.0000000000
0.0088801447 -0.0163146327 0.0000000000
0.0052125981 -0.0171386315 0.0000000000
0.0072036353 -0.0194652612 0.0000000000
0.0075456326 -0.0140724323 0.0000000000
-0.0020467588 -0.0227490888 0.0000000000
-0.0025508380 -0.0240360941 0.0000000000
0.0030221213 -0.0239201140 0.0000000000
-0.0000681340 -0.0209514429 0.0000000000
-0.0011249073 -0.0258689812 0.0000000000
0.0041836526 -0.0178900987 0.0000000000
0.0023845078 -0.0192327072 0.0000000000
0.0010707557 -0.0167416713 0.0000000000
-0.0024326331 -0.0211070717 0.0000000000
0.0002339053 -0.0183399267 0.0000000000
-0.0044713118 -0.0191160883 0.0000000000
0.0014530131 -0.0175092320 0.0000000000
-0.0046790737 -0.0215123184 0.0000000000
-0.0062658358 -0.0213294098 0.0000000000
-0.0059663316 -0.0217717213 0.0000000000
-0.0073866257 -0.0214950687 0.0000000000
-0.0087924406 -0.0241242056 0.0000000000
-0.0094537634 -0.0161622951 0.0000000000
-0.0093667188 -0.0230152620 0.0000000000
-0.0099957500 -0.0200936119 0.0000000000
0.0175134625 -0.0266966549 0.0000000000
0.0121521770 -0.0282012513 0.0000000000
0.0112789265 -0.0270185700 0.0000000000
0.0093892137 -0.0294610418 0.0000000000
0.0032977548 -0.0291671774 0.0000000000
0.0106465183 0.0166998173 0.0000000000
0.0104471360 0.0110562334 0.0000000000
0.0122449075 0.0080650132 0.0000000000
0.0114860752 0.0103561071 0.0000000000
0.0114798111 0.0050667835 0.0000000000
0.0099986517 -0.0040460507 0.0000000000
0.0111252871 -0.0026679065 0.0000000000
0.0123570477 -0.0015457766 0.0000000000
0.0107272743 -0.0069488342 0.0000000000
0.0126350573 -0.0077441367 0.0000000000
0.0105425433 -0.0128576459 0.0000000000
0.0111001341 -0.0145839812 0.0000000000
0.0149417220 0.0287394637 0.0000000000
0.0132809407 0.0283104757 0.0000000000
0.0114850839 0.0284870168 0.0000000000
0.0089957404 0.0290145511 0.0000000000
0.0062780424 0.0291489417 0.0000000000
0.0031136615 0.0289832290 0.0000000000
-0.0014100230 0.0088783039 -0.0000395705
-0.0083331481 0.0031268558 -0.0013439311
-0.0087784561 -0.0015329603 -0.0013039979
-0.0055119747 -0.0070259455 -0.0006172486
-0.0003935291 -0.0089406846 -0.0011527240
0.0056180693 -0.0069275041 -0.0005141557
0.0085716473 -0.0024390489 -0.0000172803
0.0079469518 0.0041108681 -0.0006027513
0.0018215741 0.0087513573 -0.0014120076
0.0002261350 0.0025153504 -0.0020000001
-0.0020734139 0.0036357703 -0.0020000001
-0.0022006018 0.0068201437 -0.0020000001
-0.0027879494 0.0003682059 -0.0020000001
-0.0011462686 0.0000836607 -0.0020000001
-0.0009158152 0.0003532077 -0.0020000001
-0.0067925996 0.0043925275 -0.0020000001
-0.0045899337 -0.0062302518 -0.0020000001
-0.0048060616 -0.0027148458 -0.0020000001
-0.0056981992 -0.0009475681 -0.0020000001
0.0006612155 -0.0050070602 -0.0020000001
-0.0010690738 -0.0067819286 -0.0020000001
-0.0005066329 -0.0020423518 -0.0020000001
-0.0024425583 -0.0038166876 -0.0020000001
0.0028290187 -0.0016196267 -0.0020000001
0.0035529727 -0.0031130402 -0.0020000001
0.0032436591 -0.0059676307 -0.0020000001
0.0033517642 0.0016492439 -0.0020000001
0.0012608467 -0.0000172588 -0.0020000001
0.0078746497 -0.0018129539 -0.0020000001
0.0031336764 -0.0006128435 -0.0020000001
0.0020266341 0.0077539899 -0.0020000001
0.0042444884 0.0070935987 -0.0020000001
0.0036146690 0.0024289146 -0.0020000001
-0.0223765918 -0.0000992414 0.0010175987
-0.0263851003 0.0009886216 0.0013998976
-0.0258548065 -0.0024969612 0.0014000000
-0.0226674124 -0.0022145388 0.0014000000
-0.0216163320 0.0025239200 0.0014000000
-0.0281844136 0.0012500117 0.0014000000
-0.0237962930 -0.0038393837 0.0043253335
-0.0218777215 -0.0028967211 0.0052804333
-0.0206002891 -0.0004555666 0.0020669783
-0.0211923144 0.0021194381 0.0016035550
-0.0218553021 0.0028788422 0.0029173906
-0.0231720794 0.0036969108 0.0047042204
-0.0261732903 0.0036180825 0.0037605958
-0.0274330929 0.0026488554 0.0042110814
-0.0280476580 0.0016211310 0.0040816187
-0.0283997115 -0.0004023418 0.0039562888
-0.0271488501 -0.0028755314 0.0019848975
-0.0259726849 -0.0036638694 0.0019624216
-0.0107969985 -0.0227015762 0.0010631308
-0.0140310234 -0.0200616910 0.0002952236
-0.0139919193 -0.0225156963 0.0014000000
-0.0101519136 -0.0244701073 0.0014000000
-0.0106486128 -0.0190531160 0.0014000000
-0.0146692223 -0.0195232347 0.0014000000
-0.0108601628 -0.0249004009 0.0057428030
-0.0093947239 -0.0239285331 0.0039315810
-0.0085134538 -0.0224465217 0.0059314327
-0.0087564534 -0.0194841284 0.0029620439
-0.0096175868 -0.0183289832 0.0025621141
-0.0105404578 -0.0176078136 0.0031554081
-0.0124176405 -0.0172558858 0.0038384903
-0.0150943830 -0.0184980234 0.0031977842
-0.0158897566 -0.0197877372 0.0033349302
-0.0161497109 -0.0213747176 0.0048885441
-0.0157287778 -0.0229817828 0.0052981276
-0.0133737679 -0.0249611295 0.0023285447
0.0138594531 -0.0225451249 0.0000218028
0.0109105689 -0.0196200989 0.0002264415
0.0090738907 -0.0235846464 0.0014000000
0.0137026693 -0.0230406157 0.0014000000
0.0139295726 -0.0195588513 0.0014000000
0.0099526816 -0.0196289396 0.0014000000
0.0137839101 -0.0248675171 0.0031785919
0.0147121585 -0.0242420344 0.0041039010
0.0161358810 -0.0221364235 0.0042758440
0.0161497109 -0.0209106535 0.0029583572
0.0143590300 -0.0179115986 0.0021388039
0.0128231431 -0.0173484388 0.0015252578
0.0114373544 -0.0174031035 0.0028906147
0.0105130474 -0.0176148769 0.0055935378
0.0085944851 -0.0198204589 0.0034401394
0.0083502885 -0.0210651672 0.0044745650
0.0089190125 -0.0232886727 0.0056651813
0.0094037401 -0.0239357234 0.0054390952
0.0249048905 -0.0020415099 0.0009913959
0.0239819609 0.0020111920 0.0000582294
0.0221949041 -0.0009078670 0.0014000000
0.0252515452 -0.0035782623 0.0014000000
0.0267508340 0.0014607334 0.0014000000
0.0227925895 0.0016734985 0.0014000000
0.0257713642 -0.0037098195 0.0021230213
0.0275711994 -0.0025387190 0.0042443545
0.0279847280 -0.0017518067 0.0045522191
0.0283997115 0.0004354518 0.0046999186
0.0280172328 0.0016843096 0.0039997923
0.0256633081 0.0037344826 0.0029925459
0.0243896041 0.0039748032 0.0051475661
0.0225958164 0.0034693827 0.0046090716
0.0211546779 0.0020412851 0.0038980722
0.0206002891 -0.0000004449 0.0056287138
0.0212840014 -0.0023098284 0.0036237966
0.0222600442 -0.0032016133 0.0059506405
0.0239937234 -0.0038844459 0.0030865639
0.0125834562 0.0232782736 0.0008626334
0.0121709265 0.0190888103 0.0001986878
0.0131055089 0.0180012863 0.0014000000
0.0142887177 0.0218104366 0.0014000000
0.0109367367 0.0245697978 0.0014000000
0.0127062920 0.0173217684 0.0034936350
0.0142173587 0.0177986195 0.0034364546
0.0160663892 0.0201545189 0.0048020204
0.0161497109 0.0220200466 0.0023107802
0.0157912111 0.0228521386 0.0054724003
0.0147185917 0.0242369041 0.0053672015
0.0120204832 0.0251652368 0.0033750010
0.0104781780 0.0247925594 0.0054041714
0.0090088570 0.0234752367 0.0029714430
0.0083502885 0.0215168188 0.0034588638
0.0085837089 0.0198428359 0.0051457152
0.0101305432 0.0179199139 0.0040958269
0.0112498013 0.0174459111 0.0050295298
-0.0112004824 0.0230864058 0.0006822810
-0.0132977508 0.0193483663 0.0012343599
-0.0113952667 0.0242835133 0.0014000000
-0.0156394174 0.0206115277 0.0014000000
-0.0112130359 0.0181189491 0.0014000000
-0.0121739398 0.0172349832 0.0047352362
-0.0095968082 0.0183455536 0.0022733691
-0.0090255856 0.0189252698 0.0047621383
-0.0083502885 0.0213847131 0.0044990492
-0.0086757107 0.0227834515 0.0042570395
-0.0092832746 0.0238396553 0.0054893579
-0.0120373973 0.0251690973 0.0032586713
-0.0145477359 0.0243731571 0.0017356025
-0.0158286019 0.0227744956 0.0022803582
-0.0161497109 0.0214720944 0.0019434538
-0.0157669179 0.0195326598 0.0033262994
-0.0141398996 0.0177368479 0.0021614456
-0.0123326066 0.0172364775 0.0049367462
-0.0076111556 0.0043353205 -0.0017331868
-0.0038990049 -0.0075763698 -0.0018860006
0.0075574500 -0.0040786204 -0.0018187843
0.0054447572 0.0068851714 -0.0016451621
0.0024240130 -0.0086346385 0.0034676359
0.0059529387 -0.0066167907 0.0043085276
0.0083639181 -0.0033122243 0.0038300887
0.0089008637 -0.0009966577 0.0046800098
0.0084460004 0.0028393129 0.0042264183
0.0066899790 0.0058846850 0.0054779127
0.0038566070 0.0081236331 0.0051286723
-0.0012266147 0.0088994773 0.0049512372
-0.0029594700 0.0084003631 0.0042298709
-0.0075795276 0.0047692266 0.0031260459
-0.0085807034 0.0024960952 0.0045233490
-0.0089204963 -0.0009106416 0.0051646784
-0.0076485235 -0.0045513238 0.0033816350
-0.0064532161 -0.0061526011 0.0050132326
-0.0011322500 -0.0088293404 0.0038854748
-0.0011566032 -0.0035247770 0.0030000000
-0.0000302076 -0.0081183399 0.0030000000
-0.0011973173 -0.0078059954 0.0030000000
0.0011665642 -0.0067282450 0.0030000000
-0.0081242225 -0.0009724914 0.0030000000
-0.0053311733 -0.0023323927 0.0030000000
-0.0017014198 -0.0006705078 0.0030000000
-0.0039182084 -0.0036162255 0.0030000000
-0.0020013475 0.0019358499 0.0030000000
-0.0016244697 0.0006744227 0.0030000000
-0.0071832809 0.0014523156 0.0030000000
-0.0069219307 0.0007942172 0.0030000000
-0.0007149311 0.0069717347 0.0030000000
-0.0005678198 0.0030976985 0.0030000000
-0.0036230674 0.0051061542 0.0030000000
-0.0023975820 0.0034034475 0.0030000000
0.0050814177 0.0048807595 0.0030000000
0.0004314560 0.0007917922 0.0030000000
0.0026974547 0.0077223372 0.0030000000
0.0017685227 -0.0002159845 0.0030000000
0.0056896775 -0.0015879492 0.0030000000
0.0056904575 -0.0002288037 0.0030000000
0.0051042359 0.0026393573 0.0030000000
0.0021700625 -0.0044861132 0.0030000000
0.0035681067 -0.0071176323 0.0030000000
0.0046470885 -0.0048541793 0.0030000000
0.0068926808 -0.0054656795 0.0030000000
0.0072610762 -0.0060422106 0.0059738552
0.0071149055 0.0057408281 0.0057452671
-0.0044161442 0.0082183571 0.0058828261
-0.0081552204 -0.0040143299 0.0056722391
-0.0199999996 0.0322948423 0.0040384256
-0.0199999996 0.0308681384 0.0026526302
-0.0199999996 0.0297670722 0.0055090582
-0.0199999996 0.0269566486 0.0036539539
-0.0199999996 0.0265314195 0.0012171933
-0.0199999996 0.0251275742 0.0048140441
0.0167540420 0.0359999985 0.0012396461
0.0146477161 0.0359999985 0.0011179485
0.0127852292 0.0359999985 0.0027387704
0.0133447677 0.0359999985 0.0054707699
0.0116523955 0.0359999985 0.0016958235
0.0079694905 0.0359999985 0.0029284199
0.0066921477 0.0359999985 0.0018374209
0.0007846472 0.0359999985 0.0035256404
0.0037910648 0.0359999985 0.0030672825
0.0045696177 0.0359999985 0.0051974185
0.0029640386 0.0359999985 0.0024900444
-0.0044770446 0.0359999985 0.0010570245
-0.0038297329 0.0359999985 0.0029608506
-0.0001269266 0.0359999985 0.0011397836
-0.0070956906 0.0359999985 0.0023676833
-0.0069385830 0.0359999985 0.0040318560
-0.0082000424 0.0359999985 0.0042514404
-0.0148944558 0.0359999985 0.0005368877
-0.0139698060 0.0359999985 0.0047734472
-0.0109627336 0.0359999985 0.0000556727
-0.0074619501 0.0359999985 0.0011727702
-0.0069126355 0.0359999985 0.0005511111
0.0199999996 0.0322923237 0.0004133939
0.0199999996 0.0304723675 0.0048451320
0.0199999996 0.0284692223 0.0030105746
0.0199999996 0.0277801993 0.0058861437
0.0199999996 0.0270952728 0.0055934911
0.0199999996 -0.0322811597 0.0016468341
0.0199999996 -0.0313510366 0.0012367526
0.0199999996 -0.0288201662 0.0040337093
0.0199999996 -0.0279448917 0.0007306165
0.0199999996 -0.0259544545 0.0041671730
-0.0153754091 -0.0359999985 0.0040834389
0.0133499944 -0.0359999985 0.0004395200
0.0135064319 -0.0359999985 0.0029083844
0.0099925331 -0.0359999985 0.0001823069
0.0119150915 -0.0359999985 0.0031648048
0.0118421304 -0.0359999985 0.0047497702
0.0083031332 -0.0359999985 0.0015117098
0.0075156706 -0.0359999985 0.0004427212
0.0055637008 -0.0359999985 0.0014507583
0.0045655094 -0.0359999985 0.0022796291
-0.0011084660 -0.0359999985 0.0006220415
0.0032245267 -0.0359999985 0.0029097770
-0.0042196431 -0.0359999985 0.0056353918
-0.0025573567 -0.0359999985 0.0042671713
-0.0033706892 -0.0359999985 0.0014879352
-0.0064201722 -0.0359999985 0.0018521123
-0.0083845711 -0.0359999985 0.0010525889
-0.0092334152 -0.0359999985 0.0005932881
-0.0095550091 -0.0359999985 0.0036848060
-0.0069786591 -0.0359999985 0.0046745706
-0.0125339831 -0.0359999985 0.0005468295
-0.0142413603 -0.0359999985 0.0013057722
-0.0199999996 -0.0311416103 0.0021242727
-0.0199999996 -0.0303007133 0.0018322510
-0.0199999996 -0.0298013492 0.0037969500
-0.0199999996 -0.0275174555 0.0043064494
-0.0199999996 -0.0263871615 0.0013219669
0.0222529489 0.0186141492 0.0045386354
0.0212720510 0.0201190774 0.0046252642
0.0206311459 0.0216180876 0.0051565469
0.0201363961 0.0237444820 0.0039498200
0.0201415607 0.0236999767 0.0000403544
0.0200855798 -0.0241823886 0.0021924523
0.0204689102 -0.0220672980 0.0036382963
0.0210077432 -0.0205753367 0.0013647543
0.0219687199 -0.0190502234 0.0051269898
-0.0212412064 -0.0201664003 0.0057431472
-0.0211278086 -0.0203403791 0.0039722800
-0.0210278271 -0.0205197271 0.0012415205
-0.0202122980 -0.0230904023 0.0034174300
-0.0200589151 -0.0244121699 0.0040725788
-0.0200003434 0.0249169078 0.0039962776
-0.0203814591 0.0223094390 0.0012338440
-0.0205321908 0.0218920819 0.0018092737
-0.0219064545 0.0191457530 0.0046812516
-0.0192254313 0.0337745681 0.0021167112
-0.0180560346 0.0349439648 0.0043548868
-0.0184335651 0.0345664343 0.0030008167
-0.0190520285 -0.0339479709 0.0041902359
-0.0184306697 -0.0345693297 0.0026660433
-0.0189668276 -0.0340331717 0.0007528696
0.0196275126 -0.0333724868 0.0033530230
0.0173608729 -0.0356391265 0.0003350787
0.0176308561 0.0353691433 0.0042211075
0.0192130006 0.0337869988 0.0046415459
0.0181015848 0.0348984146 0.0013649739
0.0005900181 -0.0324919060 0.0014338824
0.0014620337 -0.0317014987 0.0002633673
0.0011584424 -0.0299045008 0.0013457646
0.0003108519 -0.0294332923 0.0050574099
-0.0012451060 -0.0299911644 0.0050080353
-0.0015924513 -0.0312147738 0.0049525836
-0.0004724912 -0.0325233973 0.0026581531
0.0009067524 0.0296528107 0.0017947541
0.0016437151 0.0309765438 0.0047264372
0.0008524249 0.0324015176 0.0026020985
-0.0004915857 0.0325182810 0.0048253411
-0.0014496472 0.0317477255 0.0030886336
-0.0014014752 0.0301475337 0.0018111757
-0.0096640220 -0.0340599754 0.0004223209
-0.0087634737 -0.0335174165 0.0029705517
-0.0084601510 -0.0320889107 0.0057922625
-0.0097010927 -0.0309300921 0.0007907056
-0.0109468316 -0.0311928894 0.0010574125
-0.0116122840 -0.0326407567 0.0008623136
-0.0110363474 -0.0337175950 0.0046257575
0.0107495317 -0.0339491636 0.0036213595
0.0116209612 -0.0326083728 0.0033386852
0.0111031871 -0.0313492448 0.0007818428
0.0093974680 -0.0310114477 0.0009560544
0.0086925587 -0.0315534993 0.0049871182
0.0085225208 -0.0331438562 0.0052982011
0.0095854105 -0.0340389115 0.0037569773
0.0109774669 0.0312235247 0.0043949939
0.0116276339 0.0325834698 0.0053337742
0.0112580450 0.0334958981 0.0054562882
0.0098750100 0.0341165097 0.0054693815
0.0084696999 0.0329467259 0.0055858131
0.0089440925 0.0313019652 0.0020640729
-0.0096637215 0.0309401057 0.0018658444
-0.0085489140 0.0317576437 0.0037935404
-0.0084222782 0.0327697456 0.0049169564
-0.0092922102 0.0339603485 0.0054931155
-0.0109128872 0.0338410548 0.0049884696
-0.0116438906 0.0324771991 0.0021999892
-0.0106417095 0.0310219453 0.0009893402
