-0.0232026690 -0.1158651997 -0.0164811731
-0.0032138871 -0.1164476048 -0.0282233635
-0.0277913027 -0.1177688034 -0.0056429732
-0.0246132653 -0.1175357869 0.0142438644
0.0174641028 -0.1164341080 0.0223178595
0.0278665924 -0.1155597554 0.0048415506
0.0187390854 -0.1198854595 -0.0213162755
-0.0011297361 -0.1201722980 0.0275151388
0.0025179365 -0.1202508913 0.0251893660
-0.0246133355 -0.1203185066 -0.0032110786
0.0263038185 -0.1203588935 0.0011588853
0.0214784099 -0.1202079165 -0.0130140829
-0.0232060857 -0.1203622223 -0.0136203634
0.0168061693 -0.1184237356 -0.0185066870
0.0013915663 -0.1127700298 0.0247599181
-0.0054679717 -0.1166467263 -0.0244166694
-0.0124882357 -0.1167768090 -0.0214676786
-0.0214678493 -0.1161451768 -0.0126340519
-0.0247898287 -0.1164409076 0.0028073328
-0.0201113248 -0.1159432618 0.0147310341
-0.0084700162 -0.1138469794 0.0234594274
0.0060165874 -0.1198998178 0.0241348038
0.0158619416 -0.1139530193 0.0195533259
0.0244811137 -0.1152951088 0.0047432543
0.0244010004 -0.1157361826 -0.0044884190
0.0200018427 -0.1190893418 -0.0149425248
0.0070940710 -0.1121071429 -0.0239830947
-0.0247546449 -0.1115999967 -0.0131550591
-0.0221654766 -0.1115999967 0.0170408637
-0.0169288062 -0.1115999967 0.0222578031
0.0263543735 -0.1117176858 0.0150203772
0.0263940984 -0.1115999967 -0.0039684509
0.0075302308 -0.1117613960 -0.0247245346
-0.0004416289 -0.1117325243 -0.0312795550
-0.0284888934 -0.1115999967 0.0094929357
0.0027189205 -0.1116810670 0.0298391362
0.0261761260 -0.1115999967 0.0013564013
0.0252080520 -0.1117287922 -0.0178646963
0.0154124599 -0.1115999967 0.0227201659
-0.0219122058 -0.1115999967 -0.0197223344
0.0224695234 -0.1120457343 -0.0226228234
0.0299043040 -0.1131824597 0.0110167225
0.0042267451 -0.1132063926 0.0314850567
-0.0271452213 -0.1141490197 0.0165512437
-0.0278209388 -0.1138122606 -0.0155972944
0.0136017256 -0.1145977152 -0.0250709121
0.0277009041 -0.1145808624 -0.0088146884
0.0288881560 -0.1144543561 0.0100089503
0.0134133351 -0.1145431343 0.0265017849
-0.0234182299 -0.1145412195 0.0176094611
-0.0255973450 -0.1146000028 0.0093305765
-0.0173090445 -0.1144956581 -0.0250444012
0.0052203343 -0.1145212336 -0.0292553182
0.0192766058 -0.1165816473 -0.0174627070
0.0278431867 -0.1161553288 -0.0018593577
0.0016984241 -0.1182553151 0.0265283482
-0.0271368940 -0.1154835813 0.0010083438
0.0243288798 -0.1118124988 0.0043032886
0.0203076930 -0.1143749684 0.0243004659
-0.0130959286 -0.1118947685 -0.0286644832
-0.0277653072 -0.1134626112 -0.0121279996
0.0117609234 -0.1137283613 0.0258538861
0.0248260259 -0.1179400578 -0.0134252660
0.0135209650 -0.1191765713 0.0246720821
-0.0267491899 -0.1176629296 0.0085574113
-0.0089100384 -0.1196201641 -0.0256238133
-0.0032265031 -0.0862596366 -0.0022789683
-0.0010829662 -0.0848872748 -0.0037362874
0.0003598999 -0.0702198624 -0.0038892335
0.0018970302 -0.1017410212 -0.0035059753
0.0032333387 -0.0910228214 -0.0022870900
0.0038916650 -0.1111358354 -0.0007755779
0.0037605569 -0.0926368206 0.0010728401
0.0034671663 -0.0876336682 0.0019642493
0.0022573315 -0.1083979937 0.0032827414
0.0010450664 -0.1213458133 0.0038478559
-0.0008519674 -0.1032831631 0.0038493535
-0.0026666335 -0.1195042963 0.0029549138
-0.0030918888 -0.1059468030 0.0024806732
-0.0035478416 -0.0700784934 0.0016325244
-0.0038048614 -0.0898127617 -0.0008781766
-0.0033748704 -0.0825403921 -0.0021042041
-0.0006106447 -0.1153819042 0.0249876495
0.0028989975 -0.0721859694 0.0248078447
-0.0249464587 -0.0966733075 0.0001411846
-0.0170589179 -0.1059970539 0.0182284954
-0.0182279896 -0.0863746756 0.0170373424
-0.0177689915 -0.0978412076 -0.0175435120
0.0038526815 -0.0902960323 0.0246695159
0.0053385177 -0.0782727453 0.0243869792
0.0053666219 -0.1053269789 0.0243694580
0.0085098506 -0.0702185110 0.0234829171
0.0098801334 -0.0958004156 0.0229236937
0.0113979049 -0.0815047603 0.0222383928
0.0129266813 -0.1191024257 0.0213505536
0.0143549647 -0.0878530127 0.0204334647
0.0164789389 -0.0924875321 0.0187212691
0.0171118569 -0.1015184933 0.0182061140
-0.0149252243 -0.1160352323 0.0199698964
-0.0130240348 -0.0818000228 0.0213057889
-0.0108818376 -0.1169247808 0.0224876344
-0.0095058979 -0.1092741967 0.0230783848
-0.0081757308 -0.0817643275 0.0236131094
-0.0066735889 -0.1045595067 0.0240499586
-0.0058109669 -0.0810366499 0.0242859450
-0.0029218139 -0.1035643447 0.0247572800
-0.0044842676 -0.1173205320 0.0245441922
-0.0249154329 -0.0975587272 0.0016896486
-0.0244750174 -0.0867768500 0.0050584191
-0.0240209320 -0.0836110241 0.0067796924
-0.0236917208 -0.0702727322 0.0079801790
-0.0229939804 -0.0736469973 0.0097158602
-0.0221041549 -0.1112098539 0.0115957968
-0.0216658133 -0.0772589066 0.0124031221
-0.0201458013 -0.0727726098 0.0146198999
-0.0184193909 -0.0962477208 0.0168537297
-0.0190541544 -0.0945516477 -0.0161246149
-0.0196117811 -0.0751944204 -0.0154403219
-0.0209323419 -0.1101756750 -0.0136254613
-0.0213152585 -0.0740627272 -0.0129856550
-0.0231788302 -0.0839801855 -0.0093150692
-0.0234200515 -0.0962629660 -0.0087068348
-0.0240739815 -0.0924747553 -0.0066577981
-0.0243186480 -0.1158291170 -0.0056868038
-0.0244453593 -0.0877080523 -0.0049973921
-0.0247914177 -0.1123872131 -0.0031025638
0.0006239628 -0.1176502238 -0.0212385970
0.0011653896 -0.0753824536 -0.0249373656
-0.0007385074 -0.1080877803 -0.0249822386
0.0180584198 -0.0851972148 -0.0171974797
0.0249664533 -0.1059857863 0.0006128028
0.0249625530 -0.1044624365 0.0008541084
0.0174004288 -0.1120618962 0.0179331597
-0.0039198668 -0.1118318572 -0.0246142522
-0.0049905026 -0.0849461768 -0.0244552572
-0.0071998160 -0.1143605269 -0.0238403675
-0.0074986602 -0.0826564189 -0.0238056286
-0.0101697859 -0.1168677718 -0.0227929104
-0.0111781883 -0.0916765635 -0.0223375988
-0.0126179666 -0.1120718239 -0.0215353157
-0.0138520248 -0.1069937728 -0.0207967463
-0.0165833680 -0.0710340952 -0.0186415907
-0.0165867946 -0.1141255902 -0.0186271543
0.0152529570 -0.0825109102 -0.0197841309
0.0131852514 -0.0730875973 -0.0212324040
0.0129112444 -0.1019988978 -0.0213209763
0.0100598633 -0.0972420160 -0.0228556918
0.0097168653 -0.0702358743 -0.0229935763
0.0069669357 -0.1018275170 -0.0239697081
0.0063466391 -0.0761002887 -0.0241394019
0.0045421977 -0.0904887209 -0.0245540105
0.0033081925 -0.1011606930 -0.0247155577
0.0248724768 -0.0788464635 -0.0023484946
0.0246407383 -0.0712467204 -0.0039754298
0.0244058400 -0.0758169757 -0.0053727036
0.0231711409 -0.0975496623 -0.0092751603
0.0231567758 -0.0779908901 -0.0093108946
0.0220863917 -0.1150017999 -0.0116285126
0.0214296218 -0.0773037078 -0.0128381329
0.0210920383 -0.0977664056 -0.0133777369
0.0190192739 -0.0942990784 -0.0160805821
0.0193287688 -0.1021742485 0.0157671952
0.0201113128 -0.0860279869 0.0147893192
0.0215148870 -0.1032085983 0.0126521005
0.0216501206 -0.0756104850 0.0124261417
0.0230003904 -0.1025670188 0.0097102692
0.0234863860 -0.1106026591 0.0084989811
0.0241449896 -0.0845943854 0.0064352999
0.0242309275 -0.0910590113 0.0061339181
0.0242790337 -0.0704323307 0.0058132824
0.0249036791 -0.0872632790 0.0016598274
0.0071089476 -0.0698999986 0.0065159509
-0.0095233389 -0.0698999986 -0.0160685971
0.0100799004 -0.0698999986 -0.0096843796
0.0067721782 -0.0698999986 0.0161237905
-0.0019111234 -0.0698999986 -0.0183471519
-0.0054708706 -0.0698999986 -0.0188350514
0.0009052979 -0.0698999986 0.0118970676
0.0057505360 -0.0698999986 0.0184887800
-0.0081831553 -0.0698999986 0.0086770410
0.0024835328 -0.0698999986 -0.0066285181
-0.0000808759 -0.0698999986 -0.0103634863
0.0090344618 -0.0698999986 -0.0043310535
-0.0100476517 -0.0698999986 0.0208556171
-0.0043486057 -0.0698999986 0.0170881425
-0.0182846843 -0.0698999986 0.0080055484
-0.0060645489 -0.0698999986 0.0042447048
0.0207031003 -0.0698999986 0.0080170455
-0.0155883963 -0.0698999986 -0.0005298932
-0.0178390038 -0.0698999986 0.0061453280
-0.0191423192 -0.0698999986 -0.0043334206
-0.0168438729 -0.0698999986 -0.0117476624
-0.0249780766 -0.1175554513 -0.0005103466
-0.0052892821 -0.1261000037 0.0020484702
0.0027857945 -0.1261000037 -0.0082639043
0.0063121618 -0.1261000037 0.0072658472
0.0120584072 -0.1199999973 0.0051237746
0.0068165069 -0.1199999973 -0.0169040804
0.0005904270 -0.1199999973 0.0196323354
0.0198166241 -0.1199999973 0.0062245335
0.0207312879 -0.1199999973 0.0004732117
0.0197927054 -0.1199999973 -0.0088506240
-0.0115600567 -0.1199999973 0.0082914946
-0.0060477246 -0.1199999973 0.0129845450
0.0083166247 -0.1199999973 0.0141684177
0.0085649071 -0.1199999973 -0.0105499833
0.0127556295 -0.1199999973 -0.0165734244
0.0055895527 -0.1199999973 -0.0205539157
-0.0117193284 -0.1199999973 -0.0086111265
-0.0120457889 -0.1199999973 0.0175816754
-0.0119353659 -0.1199999973 0.0147765133
-0.0162711938 -0.1199999973 -0.0084107952
-0.0148573512 -0.1199999973 0.0067404399
-0.0188140699 -0.1199999973 0.0015234770
-0.0088510250 -0.1254622666 -0.0041460177
-0.0021879437 -0.1231232225 0.0095757880
0.0096549662 -0.1203551318 0.0012134954
0.0019596943 -0.1228315602 -0.0095817567
0.0000962090 -0.1261000037 -0.0078488646
0.0085712905 -0.1261000037 0.0027992826
-0.0083680409 -0.1261000037 0.0050163255
-0.0094249506 -0.1251114354 -0.0022848045
-0.0021843860 -0.1220791793 0.0097113400
0.0092893358 -0.1242186408 0.0033957508
0.0031909579 -0.1255843554 -0.0093650403
-0.0130271999 -0.1200999990 -0.0146507738
-0.0076716871 -0.1200999990 -0.0199064762
0.0128907484 -0.1200999990 -0.0151567894
0.0149671223 -0.1200999990 -0.0120001410
-0.0007778766 -0.1200999990 -0.0149561622
0.0143561092 -0.1200999990 0.0054867424
0.0101824453 -0.1200999990 0.0153317803
0.0037306286 -0.1200999990 -0.0159123864
0.0102892524 -0.1200999990 -0.0026032179
0.0166482145 -0.1200999990 -0.0087453461
-0.0099605521 -0.1200999990 0.0185830044
-0.0169459795 -0.1200999990 0.0123665982
-0.0128718624 -0.1200999990 0.0134964861
0.0001964541 -0.1200999990 0.0156246169
0.0093518803 -0.1200999990 0.0204621542
-0.0191895535 -0.1200999990 0.0099094020
-0.0192304089 -0.1200999990 0.0052311936
-0.0186369408 -0.1200999990 -0.0041958519
-0.0199986132 -0.1200999990 -0.0144558151
-0.0038790090 -0.1271836310 0.0008971027
0.0035992124 -0.1283280197 -0.0017113997
-0.0020897619 -0.1329749158 -0.0247440817
0.0249394857 -0.1309507364 0.0009612177
-0.0045175462 -0.1333453925 -0.0245523807
-0.0113715129 -0.1238894187 -0.0221964294
0.0165156536 -0.1253389256 -0.0187367794
0.0123031582 -0.1223474323 -0.0216992774
0.0049041570 -0.1203604656 -0.0242891167
0.0243591965 -0.1257660120 -0.0048829202
0.0224651198 -0.1209780160 -0.0106199374
0.0189939613 -0.1281641316 -0.0161683031
0.0227121325 -0.1286829700 0.0100932153
0.0248549213 -0.1215370441 0.0022305488
0.0001106014 -0.1324910543 0.0248811514
-0.0182410542 -0.1305601491 0.0169842442
0.0045202390 -0.1208635738 0.0245119941
0.0106880537 -0.1278020186 0.0224721571
0.0152317901 -0.1293815915 0.0197998402
-0.0117316244 -0.1304091191 0.0219849576
-0.0059727552 -0.1283813131 0.0241785469
-0.0241111799 -0.1291018713 0.0059478027
-0.0234436324 -0.1201396401 0.0084656265
-0.0197066298 -0.1311603249 0.0152908132
-0.0226372498 -0.1275286556 -0.0102788306
-0.0242502666 -0.1318433703 -0.0057130671
0.0168444487 -0.1339000016 0.0118230783
0.0182587958 -0.1339000016 -0.0028758262
0.0219770432 -0.1339000016 -0.0106146694
0.0157498916 -0.1339000016 -0.0155222553
-0.0223514116 -0.1339000016 -0.0023967653
-0.0162642610 -0.1339000016 0.0054834272
0.0076452766 -0.1339000016 0.0204795597
0.0053608097 -0.1339000016 0.0001740804
-0.0080757764 -0.1339000016 0.0015967622
-0.0112756344 -0.1339000016 -0.0002643719
-0.0102973134 -0.1339000016 0.0058343723
-0.0176721288 -0.1339000016 -0.0093188544
-0.0129400511 -0.1339000016 -0.0105652205
0.0090364660 -0.1339000016 0.0133768434
-0.0033332393 -0.1339000016 0.0190546772
0.0020312928 -0.1339000016 0.0188213758
0.0001402865 -0.1339000016 0.0158981889
-0.0214578829 -0.1339000016 -0.0012593884
0.0032390683 -0.1339000016 -0.0193385531
0.0087647904 -0.1339000016 -0.0100589936
0.0122621752 -0.1339000016 -0.0078699786
0.0155679780 -0.1296315874 0.0153911141
-0.0174579895 -0.1297291066 -0.0168968465
0.0086206065 -0.1318534316 0.0198863895
0.0077117562 -0.1320337717 -0.0207890442
-0.0204380342 -0.1318561855 0.0092996381
0.0354112302 -0.0422905967 -0.0341617213
0.0355436487 -0.0831304582 -0.0030417125
0.0323724569 -0.1107384981 -0.0061026064
0.0282361712 -0.1050721421 -0.0176827772
0.0217149453 -0.1123077022 -0.0246807286
0.0113882414 -0.1016337996 -0.0313472580
0.0034080353 -0.1128635437 -0.0325692937
0.0012934671 -0.0795061300 -0.0376031330
0.0366668752 -0.0742047025 -0.0012770826
-0.0352005899 -0.0453639199 -0.0328428796
-0.0359175698 -0.0805338880 -0.0014643175
-0.0327315239 -0.1113796346 -0.0035667570
-0.0228711398 -0.1102480333 -0.0237687858
-0.0149926666 -0.1145644903 -0.0291446156
-0.0351772459 -0.0670732935 -0.0173482300
-0.0348380059 -0.0403015035 -0.0359456391
-0.0192080636 -0.0380961329 -0.0430517576
-0.0028026773 -0.0380848805 -0.0430188110
0.0033870990 -0.0380000100 -0.0403544813
0.0335591997 -0.0520522549 -0.0277166436
0.0105642380 -0.0459947275 -0.0277675729
0.0025299619 -0.0467867613 -0.0229352415
0.0214006957 -0.0560382999 -0.0078508558
0.0049511417 -0.0478824943 -0.0115382838
0.0160783469 -0.0509903726 -0.0193726341
0.0301093142 -0.0651268208 -0.0065364641
0.0206702317 -0.0556295248 0.0014154305
0.0262936386 -0.0451700290 -0.0296151731
0.0136415048 -0.0462996608 -0.0283508793
0.0238321960 -0.0522101122 -0.0257773260
0.0227645564 -0.0567948018 -0.0147485023
0.0337708418 -0.0665360254 -0.0165656644
0.0040178453 -0.0474837507 -0.0157195583
0.0241265192 -0.0454900063 -0.0294732807
0.0336003527 -0.0687508075 -0.0098117171
0.0085649247 -0.0486381811 -0.0111631239
-0.0318039030 -0.0567201401 -0.0252199879
-0.0063646233 -0.0477356313 -0.0157287884
-0.0131877421 -0.0497212914 -0.0176544656
-0.0102738881 -0.0487941197 -0.0150061172
-0.0078102414 -0.0485335650 0.0002650685
-0.0196446578 -0.0546369646 0.0030664064
-0.0258382740 -0.0580525108 -0.0195973842
-0.0307088553 -0.0659537365 -0.0054086646
-0.0161497597 -0.0521549857 -0.0016647664
-0.0265762360 -0.0453396846 -0.0296591277
-0.0317787511 -0.0618587385 -0.0207625672
-0.0271198499 -0.0499671239 -0.0279179909
-0.0046336402 -0.0479540699 -0.0065612862
-0.0042624441 -0.0479456367 -0.0038407824
-0.0212692077 -0.0561208581 -0.0048422438
-0.0139509601 -0.0477059681 -0.0263339898
-0.0024330713 0.0357050369 0.0318743612
-0.0286966944 -0.0165505083 0.0317021619
-0.0353262051 -0.0031699822 0.0319142889
-0.0340527459 0.0092060687 0.0319645144
-0.0018383395 0.0339494907 0.0317489915
-0.0230970899 0.0282586839 0.0319257476
-0.0367315062 -0.0064900201 0.0319369390
0.0216451468 0.0317531877 0.0321023530
0.0032352280 0.0324787406 0.0317456293
0.0270201862 0.0212642993 0.0318584322
0.0346517982 -0.0123479392 0.0317898257
0.0366321311 -0.0019924856 0.0319084027
0.0094971105 0.0345485668 0.0318780056
0.0359414391 -0.0145490576 0.0318443404
0.0171804094 -0.0527345697 0.0061240668
0.0310649593 -0.0213929281 0.0317055647
0.0210530311 -0.0315372377 0.0315257628
0.0286530458 -0.0631836313 0.0100021810
0.0317368770 -0.0605539249 0.0220189105
0.0384880943 -0.0161611816 0.0320971528
-0.0022056925 -0.0368044810 0.0311268770
-0.0041151553 -0.0383984882 0.0308974886
0.0169556262 -0.0509495935 0.0212349356
0.0196689740 -0.0543495258 0.0122521591
0.0085211258 -0.0483171881 0.0155310053
0.0118923417 -0.0499585189 -0.0039434825
0.0273049199 -0.0556945867 0.0238704233
0.0260308530 -0.0581171009 0.0189666090
0.0206528251 -0.0535528196 0.0203444439
0.0080434192 -0.0484761159 0.0096154883
0.0243080437 -0.0355208930 0.0313095587
0.0098985144 -0.0382288039 0.0309147113
0.0298275604 -0.0305378684 0.0315737481
0.0229894157 -0.0434469360 0.0300838262
0.0228456161 -0.0367485433 0.0311611717
0.0011010732 -0.0477856282 0.0080218623
0.0086420904 -0.0479453652 0.0192049305
0.0256510555 -0.0600329335 0.0095116416
-0.0349967478 -0.0320042846 0.0316193259
-0.0349207698 -0.0521121216 0.0276823086
-0.0299750600 -0.0228605826 0.0317066872
-0.0370119123 -0.0179957167 0.0319698172
-0.0178903218 -0.0363395464 0.0311870427
-0.0269880453 -0.0610706461 0.0132127507
-0.0134547151 -0.0504135217 0.0102866720
-0.0093281208 -0.0474781036 0.0242793588
-0.0012386103 -0.0468835035 0.0223150504
-0.0040146974 -0.0478895417 0.0047958843
-0.0205032609 -0.0554433346 0.0068106311
-0.0336699946 -0.0641816589 0.0197156555
-0.0260533556 -0.0553135308 0.0239456158
-0.0199722449 -0.0542845810 0.0132817714
-0.0289544087 -0.0639111348 -0.0056173495
-0.0262463600 -0.0587658837 0.0187371984
-0.0243181990 -0.0373850000 0.0310638656
-0.0155732905 -0.0403009353 0.0306628484
-0.0179470721 -0.0433715080 0.0300075276
-0.0268948483 -0.0292154185 0.0315885364
-0.0275944647 -0.0326855516 0.0315342354
-0.0338804439 -0.0693923044 0.0078173160
-0.0281529131 -0.0631895541 0.0019032594
-0.0299504736 -0.0562768865 0.0246900896
-0.0226841374 0.0196437999 0.0372785054
-0.0291796379 -0.0071201711 0.0368569182
-0.0130352965 -0.0269229920 0.0379989286
0.0161664119 -0.0251294991 0.0369703799
0.0293989566 -0.0053894066 0.0370977679
0.0194986933 0.0225253976 0.0371831395
-0.0072794075 0.0286790650 0.0392541980
0.0381953005 -0.0201258812 0.0347940293
0.0061647654 -0.0242469393 0.0501512528
0.0334412483 -0.0656193060 0.0230295097
0.0359120697 -0.0801349801 0.0028402864
0.0133291250 -0.1080739082 0.0303059263
0.0190962602 -0.1055544382 0.0272172879
0.0119597742 -0.1079804195 0.0308652266
0.0012401672 -0.1054148116 0.0332687084
0.0340605763 -0.0531421284 0.0304616962
0.0125137523 -0.0323000481 0.0493572802
0.0284666826 -0.0301936434 0.0450631899
0.0038084423 -0.0436513778 0.0382010471
0.0131655424 -0.0355216331 0.0363816406
0.0027182888 -0.0393376541 0.0420908247
-0.0021478461 -0.0394009797 0.0376249432
-0.0280042323 -0.0694552262 0.0293277979
-0.0189371430 -0.0361188925 0.0479305453
-0.0260364554 -0.0638006338 0.0345794100
-0.0064658385 -0.0231506921 0.0503454708
-0.0010621361 -0.0731679009 0.0398021880
-0.0291531881 -0.1081370421 0.0155441405
-0.0167809991 -0.1070814744 0.0285359796
-0.0075287963 -0.1140512186 0.0319406848
-0.0162840688 -0.0867641001 0.0319418884
-0.0342184446 -0.0410542807 0.0365750577
-0.0359717166 -0.0720346324 0.0104239901
-0.0329533531 -0.0259230171 0.0421250417
-0.0195571327 -0.0244584646 0.0490027715
-0.0162005327 -0.0599833818 0.0417254954
-0.0339218811 -0.0658563850 0.0216359702
-0.0359395705 -0.0427578591 0.0328738886
-0.0293965519 -0.0405484811 0.0422399210
0.0379045596 -0.0021148376 0.0349613431
0.0222286405 -0.0085523396 0.0489198398
0.0166792184 -0.0076889097 0.0500236864
0.0092191098 -0.0079100357 0.0505158088
0.0140577226 0.0040210059 0.0502312165
0.0287490251 0.0062612196 0.0456096014
0.0268818841 0.0148676016 0.0448076787
-0.0286682915 0.0104608956 0.0449469233
-0.0263369531 -0.0065561106 0.0474833228
-0.0394988647 -0.0120142617 0.0322299130
-0.0316692324 0.0150373949 0.0403805539
-0.0065210386 0.0123863417 0.0503582707
-0.0257439069 -0.0189521043 0.0474587458
-0.0305252174 0.0031914597 0.0447471688
0.0059716129 -0.0405721554 0.0452687800
-0.0091355138 -0.0410099370 0.0449190802
0.0269551783 -0.0703867362 0.0301593231
0.0162441848 -0.0642879099 0.0400013780
0.0252252282 -0.0644579770 0.0349084873
0.0288847833 -0.0623660409 0.0324320864
0.0298150509 -0.0891391293 0.0185194941
0.0046496600 -0.0869820025 0.0355129058
-0.0102237042 0.0062266974 0.0467418407
-0.0045637599 -0.0109642226 0.0405674496
-0.0103690560 -0.0058293954 0.0466584805
-0.0118652225 0.0013384814 0.0490349003
-0.0019570581 0.0117462640 0.0446605615
0.0087092327 0.0084925230 0.0476656921
0.0105796562 0.0052195214 0.0436890290
0.0103226873 -0.0059746944 0.0423259055
-0.0067987046 -0.0460523175 0.0343632588
-0.0056579393 -0.0449969657 0.0354686903
0.0021681509 -0.0428583946 0.0442963213
-0.0057225899 -0.0289960012 0.0430439154
0.0116508720 -0.0640928993 0.0406640738
-0.0264999345 -0.0502156786 0.0363938778
-0.0290005235 -0.0576449166 0.0348679842
-0.0290364157 -0.0506439524 0.0345465018
-0.0139638088 -0.0769764951 0.0336380722
-0.0054235173 -0.0664266255 0.0348353697
-0.0139931866 -0.0557775968 0.0396265846
-0.0139986575 -0.0492565860 0.0448192531
-0.0165513726 -0.0497185182 0.0374493142
-0.0165165283 -0.0479768322 0.0438893824
-0.0235869388 -0.0640489866 0.0304253279
-0.0290547763 -0.0812639434 0.0176983940
-0.0264945535 -0.0685350397 0.0264840626
-0.0236004620 -0.0664235418 0.0285853821
-0.0165054412 -0.0692888996 0.0344359086
-0.0173829106 -0.0699194433 0.0285473344
-0.0015056388 -0.0695875080 0.0394259756
-0.0015375208 -0.0554111478 0.0408830344
-0.0332187394 -0.0725115915 0.0147569625
-0.0318069644 -0.0453331475 0.0332027703
-0.0035793901 -0.0922722956 0.0333650885
-0.0271812026 -0.1104441128 0.0186998206
-0.0323908787 -0.1044077797 0.0075505929
-0.0283357319 -0.1011574896 0.0176855899
-0.0257757376 -0.1008649722 0.0211409240
-0.0165500615 -0.1027997914 0.0289771203
-0.0119827640 -0.0967468866 0.0311488574
-0.0325036541 -0.0783301558 0.0061307640
-0.0305373708 -0.0789545429 0.0128749918
-0.0075248716 -0.0745375414 0.0324586083
0.0264999997 -0.0484010770 0.0358466885
0.0264871105 -0.0599777136 0.0308529869
0.0290719869 -0.0438518556 0.0380480366
0.0256554944 -0.0671380381 0.0269261319
0.0137464482 -0.0676750005 0.0350837383
0.0005957045 -0.0642087040 0.0416976711
0.0139932984 -0.0615630332 0.0403539363
0.0140000004 -0.0514288336 0.0405223953
0.0165086729 -0.0475028367 0.0391747331
0.0165164037 -0.0547126124 0.0382731468
0.0212042676 -0.0640875196 0.0353842455
0.0290389722 -0.0785375770 0.0188602034
0.0264982624 -0.0694324316 0.0256672805
0.0167207004 -0.0678243706 0.0317879528
0.0165791422 -0.0695756138 0.0350554909
0.0233165493 -0.0834298023 0.0238518375
0.0015029060 -0.0817289198 0.0368270389
0.0318114191 -0.0421265402 0.0381758248
0.0220820070 -0.0489669398 0.0321714652
0.0306415150 -0.0549650285 0.0301041734
0.0090466459 -0.0747255602 0.0320398998
0.0040158764 -0.1119373055 0.0327411644
0.0313009254 -0.0979747279 0.0117901564
0.0073053357 -0.1033402052 0.0325178101
0.0280606349 -0.1002242606 0.0180942701
0.0224251427 -0.0982942502 0.0247290946
0.0173127591 -0.0946326415 0.0285515743
0.0101169093 -0.0953004852 0.0317667977
0.0069403297 -0.0399366484 -0.0416785496
-0.0014810327 -0.0474765142 -0.0424542620
-0.0015084617 -0.0735678257 -0.0356496160
-0.0172770003 -0.0420649794 -0.0418450575
-0.0128688624 -0.0439066863 -0.0351325903
-0.0097379467 -0.0441343771 -0.0355325648
0.0288735569 -0.0420816221 -0.0368809805
0.0155636137 -0.0423438087 -0.0384533362
0.0015602711 -0.0633650881 -0.0353594172
0.0015271090 -0.0642407229 -0.0365948095
0.0014745625 -0.0488244317 -0.0426187650
0.0004191787 -0.0454059439 -0.0420411109
0.0222268687 -0.0112528420 0.0430000089
-0.0080638487 0.0247026099 0.0430000089
-0.0076921026 0.0314883555 0.0436609663
-0.0079580586 0.0296886910 0.0449041350
0.0134715819 0.0217940009 0.0478175466
0.0318457774 0.0220391027 0.0340570389
0.0018636078 0.0319782588 0.0438551116
0.0231322631 0.0196649912 0.0452540841
0.0098379249 -0.0167100539 0.0394999944
-0.0055890521 0.0138499986 0.0394999944
-0.0137774107 0.0047281894 0.0394999944
-0.0168968408 -0.0019340704 0.0394999944
-0.0010739591 0.0181113374 0.0394999944
0.0028678910 0.0228523224 0.0394999944
0.0223268673 0.0050852131 0.0394999944
0.0144764991 0.0110740576 0.0394999944
0.0120720803 0.0150418527 0.0394999944
0.0097824943 0.0235536367 0.0394999944
0.0012373559 0.0257915008 0.0394999944
-0.0156320789 0.0185858496 0.0394999944
-0.0242826472 0.0076386565 0.0394999944
-0.0147505436 0.0157964708 0.0394999944
-0.0251786510 -0.0072886765 0.0394999944
-0.0189284546 -0.0159415568 0.0394999944
-0.0141910383 -0.0076914528 0.0394999944
-0.0000495478 -0.0144705408 0.0394999944
-0.0056793468 -0.0124542210 0.0394999944
0.0084123739 -0.0226549344 0.0394999944
0.0041988629 -0.0230080232 0.0394999944
0.0291753445 -0.0037210010 0.0394999944
0.0245745713 -0.0146539227 0.0394999944
0.0174544779 -0.0074622077 0.0394999944
0.0190036337 -0.0079419653 0.0394999944
0.0075465990 0.0240801386 0.0440595479
-0.0075935675 0.0256687981 0.0432837513
-0.0222563221 -0.0108790679 0.0475755464
-0.0236135497 0.0077435032 0.0437245605
0.0221043065 0.0102782390 0.0435345387
0.0232975942 -0.0127900423 0.0482839225
-0.0074150210 -0.0251289661 0.0498371261
0.0082585922 -0.0227928287 0.0467692827
0.0101696952 -0.0278533906 0.0490148499
-0.0246778581 0.0116472450 0.0404395323
0.0114588970 -0.0241159275 0.0426349185
0.0205548621 -0.0390691386 -0.0438767597
-0.0093780149 -0.0417925946 -0.0397271627
0.0108504708 -0.1145068261 0.0303847455
0.0219534440 -0.1145804069 0.0240258095
0.0166136567 -0.1117912704 -0.0283209277
0.0220583106 -0.1111273238 0.0243427476
-0.0056177231 -0.1128737935 0.0322974384
-0.0234032642 -0.1087746016 0.0233401131
0.0245496138 -0.1116488168 -0.0202250226
0.0299967818 -0.1118411836 0.0108465182
0.0062508464 -0.1138440734 0.0313148573
-0.0236957469 -0.1118733035 0.0214878067
-0.0311134663 -0.1116330756 -0.0057961839
-0.0111082421 -0.1143410754 -0.0299155632
0.0119130045 -0.0531323693 -0.0004466436
0.0014745321 -0.0508190779 -0.0076658578
0.0081668547 -0.0504433222 -0.0236892159
0.0078882366 -0.0512173323 -0.0160065786
0.0224851726 -0.0614644697 -0.0016384660
0.0181592978 -0.0573429631 -0.0057678972
0.0152710818 -0.0546950256 -0.0120241628
0.0020119151 -0.0507468709 -0.0106775364
0.0201465358 -0.0582392527 0.0162944532
0.0260442965 -0.0651137506 0.0061915679
0.0077079014 -0.0508257241 0.0202731117
0.0132408272 -0.0536254514 0.0101616922
0.0007995064 -0.0507753097 -0.0039004659
0.0229003678 -0.0615954442 0.0115016791
0.0150623461 -0.0550182067 0.0016094610
-0.0242267805 -0.0633901532 -0.0033462163
-0.0159489764 -0.0548407279 0.0163128302
-0.0096079972 -0.0512575319 0.0208260284
-0.0204390749 -0.0595734276 -0.0003902633
-0.0187603932 -0.0575538393 0.0131755562
-0.0127957451 -0.0533640405 0.0038470827
-0.0094720213 -0.0519494986 0.0090703157
-0.0071244586 -0.0510721891 0.0149711691
-0.0225070736 -0.0607279634 -0.0137308806
-0.0082011280 -0.0504694456 -0.0226017713
-0.0038758215 -0.0503074848 -0.0198958799
-0.0193260874 -0.0582972470 -0.0075166591
-0.0008593915 -0.0504974667 -0.0152641174
-0.0094479932 -0.0520092862 -0.0104901543
-0.0206272743 -0.0595419415 -0.0081990273
0.0173593864 -0.0554473616 -0.0222322736
0.0184233889 -0.0580817907 -0.0223066104
0.0201127865 -0.0579940621 0.0200566253
0.0056425589 -0.0511511767 0.0279432295
-0.0132154811 -0.0541943016 0.0255776340
-0.0203402229 -0.0586469192 0.0198057842
-0.0294323685 -0.0763882394 -0.0006581806
0.0005108224 -0.0494184112 -0.0244363926
0.0288509872 -0.0711574880 0.0051758109
0.0229785295 -0.0744838445 -0.0183584128
-0.0185743312 -0.0699766479 0.0226348247
-0.0214748531 -0.0689708182 0.0198110123
-0.0287465716 -0.0811604964 -0.0068269742
-0.0180343450 -0.0610495509 -0.0228472930
-0.0025638223 -0.0659155178 -0.0291236611
0.0193879831 -0.0637004231 -0.0216822214
0.0289264208 -0.0821013984 -0.0062723082
0.0212537662 -0.0729674640 0.0202817999
0.0124446459 -0.0633759068 0.0263424842
-0.0050432897 -0.0538339020 0.0285638387
-0.0228887700 -0.1050318624 0.0198440045
-0.0244351856 -0.0986396902 0.0175492722
-0.0208050894 -0.0799040267 0.0209679503
-0.0211302888 -0.0968462481 0.0213157799
-0.0189664587 -0.0746455008 0.0224906354
-0.0166417304 -0.0844274048 0.0245949117
-0.0047398336 -0.0893323980 0.0294776053
-0.0025727582 -0.0957846170 0.0299002365
0.0044518381 -0.0870834215 0.0294113836
0.0063193525 -0.0807813472 0.0289393227
0.0155153416 -0.0915538101 0.0255310915
0.0180580337 -0.0806176153 0.0234159338
0.0190056092 -0.1012906293 0.0234243041
0.0200700735 -0.1104007449 0.0229117245
0.0228478400 -0.0728098318 0.0184496921
0.0240051897 -0.0851019291 0.0175632281
0.0291250472 -0.0901027444 0.0067569881
0.0303659314 -0.1052579341 -0.0004828125
0.0294231360 -0.0841433354 0.0038771649
0.0295037478 -0.0982331850 -0.0060228612
0.0297002049 -0.0928346280 -0.0034661014
0.0294076132 -0.0751232468 -0.0008032380
0.0234352098 -0.0873354267 -0.0183264409
0.0206023278 -0.0919055152 -0.0217021967
0.0207835585 -0.0876694664 -0.0213526595
0.0189042236 -0.0768004986 -0.0225972972
0.0194950431 -0.1090642190 -0.0233895552
0.0019103514 -0.1087089361 -0.0303868491
0.0060788118 -0.1034045186 -0.0296168557
-0.0040216167 -0.0819104511 -0.0293074925
-0.0043761179 -0.0996148076 -0.0297535430
-0.0185771714 -0.0949808025 -0.0235437854
-0.0236345260 -0.0895925607 -0.0181384081
-0.0219917799 -0.1035436886 -0.0207306966
-0.0298426049 -0.1095935909 -0.0059041983
-0.0300829437 -0.1093169243 -0.0040483669
-0.0295956337 -0.0829428464 -0.0017902230
-0.0293486480 -0.0928494253 0.0061291292
-0.0299177374 -0.0942171657 0.0014311657
-0.0301839198 -0.0998650500 -0.0006175518
-0.0286554454 -0.0721119551 0.0063345810
-0.0264294195 -0.0671601996 0.0122929435
-0.0253349241 -0.0824394693 0.0153668949
-0.0149421374 -0.0794080660 0.0255244355
-0.0140236863 -0.0587974702 0.0253561172
-0.0098042003 -0.0782969592 0.0278300382
-0.0061399125 -0.0717109304 0.0287063372
0.0082690606 -0.0641684949 0.0279719479
0.0116637288 -0.0930626456 0.0274134080
0.0145229738 -0.0821228479 0.0258275526
0.0256850310 -0.0673423919 0.0139793001
0.0283507054 -0.0873378977 0.0089221059
0.0276521973 -0.0767590074 0.0100382696
0.0261653459 -0.0839326704 -0.0139194005
0.0254058607 -0.0823965096 -0.0152638064
0.0164337394 -0.0888771561 -0.0248780040
0.0147677573 -0.0710207323 -0.0252316755
0.0114686254 -0.0716169845 -0.0270208966
0.0089920535 -0.0784369517 -0.0280484245
0.0085431444 -0.0894762974 -0.0284787307
0.0017173974 -0.0636623592 -0.0290798457
0.0022029169 -0.0732935535 -0.0293221473
-0.0004650955 -0.0919874670 -0.0299136771
-0.0072579133 -0.0854921712 -0.0287497056
-0.0101651568 -0.0704430087 -0.0274899189
-0.0129170733 -0.0860215553 -0.0268136598
-0.0161112453 -0.0885631440 -0.0250500636
-0.0206833422 -0.0738901800 -0.0209846829
-0.0207708774 -0.0959077049 -0.0217517784
-0.0232441186 -0.0664543458 -0.0176645093
-0.0271419069 -0.0688166568 -0.0106628068
-0.0273638991 -0.0884902266 -0.0117007605
0.0009367403 -0.0782832133 0.0295016728
-0.0003813594 -0.0597241630 0.0290783135
-0.0206971098 -0.1115396523 -0.0234740783
0.0214275026 -0.1115057007 -0.0224001266
0.0183489934 -0.1114277645 0.0248947518
-0.0299221909 -0.1116000041 0.0086866448
-0.0085377201 -0.0995551070 0.0270626260
-0.0134910716 -0.0978752430 0.0251974623
-0.0071044127 -0.1044235029 0.0294159165
-0.0116202281 -0.1033120032 0.0264644726
0.0100205884 -0.0938755536 0.0248695692
0.0268785924 -0.0964618992 0.0085990930
0.0280746079 -0.0935999975 -0.0103180797
0.0247289516 -0.1024923160 -0.0100413661
0.0091190892 -0.1046007659 -0.0253915532
-0.0122734968 -0.0937686820 -0.0247807910
-0.0126135960 -0.1004377138 -0.0249233380
-0.0245106919 -0.1020563622 -0.0106500395
-0.0248683021 -0.0939168158 0.0124723900
0.0078471911 -0.0994475232 0.0287258389
0.0152962278 -0.0983503764 0.0258791345
0.0249776860 -0.0994475188 0.0127998921
0.0290242182 -0.1077080675 -0.0075632871
0.0159815108 -0.0951463109 -0.0253988311
0.0076497838 -0.1057878858 -0.0289925431
-0.0136149227 -0.0995174031 -0.0254943221
-0.0242793750 -0.1100444695 -0.0180613485
-0.0285894083 -0.0957580229 0.0081187861
-0.0253869446 -0.1002775913 0.0134770536
0.0274857487 -0.1066518586 0.0105672090
0.0261537995 -0.1103434480 -0.0109879761
-0.0105148614 -0.1065808823 -0.0273721413
-0.0276755856 -0.1042779785 -0.0108052232
-0.0342470738 -0.0752781014 -0.0074675980
-0.0245719984 -0.0643654260 -0.0245075742
-0.0280161309 -0.0561387404 -0.0294720315
-0.0260808700 -0.0554262171 -0.0298167164
-0.0284780732 -0.0512441176 -0.0315094751
-0.0232456621 -0.0447520441 -0.0334588891
-0.0339451918 -0.0819348896 -0.0034021242
-0.0322520371 -0.1114496941 -0.0068495868
-0.0329222825 -0.0800173897 -0.0049055667
-0.0287246339 -0.1038949731 -0.0167623256
-0.0243696650 -0.1059426938 -0.0225263540
-0.0238970774 -0.1055272650 -0.0230544182
-0.0060380490 -0.1051324562 -0.0326790047
-0.0289099369 -0.0928436746 -0.0166161265
-0.0273001184 -0.0839747871 -0.0190460756
-0.0244382751 -0.0960474626 -0.0227602680
-0.0225518233 -0.0852082906 -0.0244166031
-0.0188914860 -0.0885942867 -0.0274291447
-0.0163444084 -0.0814383022 -0.0289353300
-0.0141255501 -0.0844747835 -0.0300780000
-0.0108759282 -0.0872327117 -0.0314243872
-0.0064036271 -0.0831492781 -0.0326369296
-0.0325734456 -0.0899389404 -0.0069330690
-0.0224436952 -0.0677154923 -0.0244953710
-0.0184556718 -0.0642849752 -0.0277322817
-0.0129833519 -0.0698327747 -0.0306557515
-0.0318540485 -0.0771372388 -0.0092815530
-0.0298565536 -0.0422237501 -0.0346639740
0.0035789561 -0.0781289251 -0.0331453312
0.0272144320 -0.0735744888 -0.0190509004
0.0225188707 -0.0718200747 -0.0244428924
0.0176947997 -0.0722725934 -0.0281834650
0.0318250601 -0.0975514742 -0.0101122056
0.0327333243 -0.0783643424 -0.0063394896
0.0323106485 -0.1043910068 -0.0077371312
0.0179507691 -0.1049244206 -0.0280392869
0.0278543169 -0.0927213355 -0.0182535230
0.0288801965 -0.0906833912 -0.0165770624
0.0116177106 -0.0961112660 -0.0312398080
0.0132831247 -0.0822240613 -0.0304512442
0.0171295347 -0.0826705039 -0.0285022604
0.0199881352 -0.0861391315 -0.0265769721
0.0218371603 -0.0792013122 -0.0250341993
0.0056490981 -0.0890114080 -0.0329220018
0.0301453041 -0.0844396905 -0.0141223739
0.0111646915 -0.0742736271 -0.0312438505
0.0214570601 -0.0724394959 -0.0253760183
0.0136513799 -0.0496730204 -0.0320677878
0.0165955292 -0.0520587803 -0.0312794686
0.0213649601 -0.0566722592 -0.0294391648
0.0267131375 -0.0604932202 -0.0272182700
0.0299481986 -0.0693385274 -0.0195116627
0.0301280875 -0.0722114241 -0.0155023588
0.0199627593 -0.0431887048 -0.0344317862
-0.0009388369 -0.0657872542 -0.0402053158
0.0311590768 -0.0398773016 -0.0407806798
-0.0253620044 -0.0510972982 0.0314947691
-0.0244524024 -0.0574101321 0.0289874943
0.0297450573 -0.0834081321 0.0149150648
0.0348850063 -0.0751179066 0.0083735115
0.0323507445 -0.0765607372 0.0080354874
0.0166301573 -0.0593319406 0.0308729021
0.0248000361 -0.0469005903 0.0329857439
0.0126639423 -0.0549811517 0.0314473861
-0.0044566963 -0.0640499460 0.0373526487
-0.0021365778 -0.0517112670 0.0341613798
-0.0027066076 -0.0458236531 0.0355950643
-0.0139016028 -0.0448947152 0.0412285142
-0.0138924355 -0.0557732435 0.0329476219
0.0206246160 -0.0909261096 0.0260919086
-0.0255703288 -0.0905341128 0.0219954376
0.0291441634 -0.0430629251 0.0382046542
-0.0301107271 -0.0558512442 0.0296871865
-0.0165487981 -0.0435199934 0.0448414732
-0.0224100961 -0.0631694231 0.0266744015
-0.0295624716 -0.0718320150 0.0170162367
0.0213953069 -0.0863778856 0.0261581410
0.0252605089 -0.0727059778 0.0237392122
-0.0167894397 -0.0820462045 0.0291363185
-0.0247914782 -0.0726514179 0.0235144770
0.0016013116 -0.0817508489 0.0353502410
0.0069331058 -0.0857429074 0.0326798679
0.0121330113 -0.0737168097 0.0314026858
-0.0026201736 -0.0736256585 0.0334439671
-0.0132034366 -0.0763745709 0.0319304550
-0.0056225687 0.0289237648 0.0433820820
0.0066277788 0.0193400741 0.0492695061
-0.0011141778 0.0210876888 0.0430000089
0.0037211633 0.0285182296 0.0430000089
0.0045964623 0.0153241688 0.0461638969
0.0179330048 0.0243414808 0.0444043774
0.0225284838 0.0146143070 0.0467333680
0.0112846298 0.0116072599 0.0430000089
0.0144295056 0.0091438089 0.0430000089
-0.0162898505 0.0082855800 0.0447375631
-0.0082508477 0.0166314780 0.0432058235
-0.0161259750 0.0234520179 0.0430000089
-0.0172480973 0.0167361020 0.0430000089
-0.0046530593 -0.0143311092 0.0481087070
0.0053625418 -0.0160031777 0.0488764589
-0.0016354059 -0.0186777010 0.0430000089
-0.0027977624 -0.0200952678 0.0430000089
0.0226664747 -0.0201882506 0.0479935903
0.0231650259 -0.0149570463 0.0430559126
0.0154812373 -0.0240802463 0.0443178193
0.0199561597 -0.0153763606 0.0430000089
0.0190214690 -0.0110941849 0.0430000089
-0.0105137511 -0.0098805766 0.0478687275
-0.0203912475 -0.0120274186 0.0451789520
-0.0103351221 -0.0198436860 0.0498298962
-0.0149402023 -0.0226349174 0.0430000089
-0.0228607472 -0.0190393861 0.0430000089
-0.0239408221 -0.0056909841 0.0467316653
-0.0143340742 -0.0008468973 0.0472956708
-0.0290627906 0.0022338508 0.0430000089
-0.0248739709 0.0038972600 0.0430000089
0.0301115889 -0.0018753149 0.0449150816
0.0144497475 0.0008711903 0.0433716082
0.0268221681 -0.0001898686 0.0430000089
0.0259056940 -0.0035485019 0.0430000089
0.0084336692 0.0168686803 0.0441483202
0.0192780370 0.0065498478 0.0457825709
0.0145578627 -0.0076913317 0.0451526299
-0.0123862931 0.0082217109 0.0436517166
-0.0148150911 0.0041981627 0.0444447650
-0.0134955245 -0.0074254174 0.0459089171
-0.0069088431 -0.0641986998 0.0380844620
-0.0036345686 -0.0559173300 0.0292386901
0.0032275832 -0.0605444667 0.0316774515
0.0106728560 -0.0535138683 0.0305873587
0.0111723296 -0.0539884045 -0.0287981485
-0.0032274605 -0.0571061953 -0.0289673151
-0.0053589422 -0.0635759782 -0.0321422019
-0.0047706157 -0.0121987153 0.0503173101
-0.0030281974 -0.0591049965 -0.0329912781
0.0130466729 -0.0553036021 0.0316818570
0.0017447287 -0.0726427730 -0.0342351776
-0.0022615340 -0.0547086820 -0.0337920431
-0.0018856345 -0.0811525281 -0.0340643426
-0.0311886278 0.0147176344 0.0355258077
-0.0190499653 0.0267120188 0.0350886958
-0.0324059521 0.0196501527 0.0349999336
-0.0302384141 0.0233246891 0.0349998990
-0.0131587882 -0.0362989817 0.0430147153
-0.0106649979 -0.0322711382 0.0457025938
-0.0063598865 -0.0323255186 0.0404321981
-0.0014331204 -0.0328668610 0.0440904169
0.0094851863 -0.0319860538 0.0475429512
-0.0006411133 -0.0387317087 0.0349999927
-0.0109800848 0.0322226426 0.0385134131
-0.0046876381 0.0326237711 0.0427142419
-0.0003115038 0.0328869056 0.0408416420
-0.0028623750 0.0372129228 0.0349999154
0.0147445738 0.0312477132 0.0391342205
0.0240772095 0.0224814940 0.0356470703
0.0167751024 0.0284044888 0.0423960582
0.0264835531 0.0253680311 0.0349999092
0.0305740053 -0.0149465958 0.0417218218
0.0304994354 -0.0249981495 0.0363111696
0.0276451720 -0.0280995016 0.0372080192
0.0233578925 -0.0316537971 0.0471150981
0.0153159923 -0.0331728564 0.0480441706
0.0166256708 -0.0285113201 0.0391209742
0.0180544556 -0.0275459303 0.0451809739
0.0231747521 -0.0234467332 0.0395194149
0.0250730852 -0.0280390657 0.0349999927
0.0151390549 -0.0325597036 0.0349999927
-0.0302457148 -0.0154106737 0.0415153754
-0.0152179737 -0.0331525009 0.0466633910
-0.0198442373 -0.0341094952 0.0418065645
-0.0269808629 -0.0287606839 0.0387785289
-0.0306460868 -0.0247566881 0.0389926335
-0.0240586307 -0.0225029748 0.0378148452
-0.0175600752 -0.0278417036 0.0471311692
-0.0169929250 -0.0291694923 0.0349999927
-0.0313710772 -0.0201567242 0.0349999927
-0.0354503914 -0.0133300761 0.0385832503
-0.0324175163 0.0053520015 0.0395332646
-0.0326228184 -0.0034903015 0.0378426214
-0.0365118392 -0.0104314158 0.0349999948
0.0327318108 0.0118534473 0.0358550434
0.0328957493 -0.0013728050 0.0353104361
0.0326530485 0.0029930677 0.0422129697
0.0346439218 0.0008537252 0.0349999927
0.0064942959 -0.0302617929 0.0488336565
-0.0244260949 -0.0341168070 0.0404024856
-0.0341558292 -0.0244094170 0.0348358922
-0.0252209531 -0.0394950643 0.0378701792
-0.0269185427 -0.0394409182 0.0349598727
-0.0353722213 -0.0288168972 0.0347702780
-0.0318375657 -0.0291501306 0.0345835219
0.0277414576 -0.0314086851 0.0420891545
0.0232741251 -0.0348554784 0.0463126394
0.0218088410 -0.0394927604 0.0383468027
0.0290087691 -0.0395000598 0.0420738883
0.0232943889 -0.0353840550 0.0343033613
0.0325295079 -0.0336165485 0.0344065001
0.0271076899 -0.0155942037 0.0360392837
-0.0247811757 -0.0176191611 0.0361739090
-0.0109191111 0.0292307847 0.0360436514
0.0243241457 0.0204671173 0.0336047933
-0.0199847746 0.0245093926 0.0325746843
-0.0280778120 0.0140580160 0.0358849610
-0.0316476316 -0.0021857220 0.0342331266
-0.0220939352 -0.0225682787 0.0327253635
0.0075962178 -0.0307389933 0.0336833399
0.0295192428 -0.0115794968 0.0346780822
0.0315138273 -0.0009190243 0.0357150213
0.0220968737 0.0223284919 0.0340813642
0.0108194968 -0.0060672661 0.0399982920
0.0119301515 -0.0035815885 0.0397305256
-0.0141477353 -0.0475638491 0.0462076237
-0.0010736611 -0.0557592910 0.0416246933
-0.0326901562 -0.1082727142 0.0005870007
-0.0308942719 -0.0942029430 -0.0116562029
-0.0332456687 -0.0905937271 0.0012071716
-0.0308289076 -0.0942828645 0.0045207733
0.0331814472 -0.1048722957 0.0014465270
0.0308237094 -0.0934203072 0.0025382486
0.0308237837 -0.0949485318 -0.0018644095
0.0334641921 -0.0975750069 -0.0023909609
0.0327888351 -0.0975988809 0.0067210099
0.0036087725 0.0374568418 0.0319817664
-0.0374982615 0.0026352799 0.0323882455
-0.0374143380 -0.0270540371 0.0336222593
0.0294625772 -0.0390933214 -0.0371271997
0.0084731352 -0.0399999842 -0.0347881500
0.0153941302 -0.0399999842 -0.0362847656
-0.0094950473 -0.0425859432 -0.0327000059
-0.0170736847 -0.0427999331 -0.0322941524
-0.0312783951 -0.0427999748 -0.0305929697
0.0252771553 -0.0403371617 -0.0343628325
-0.0098600651 -0.0412113848 -0.0334886094
-0.0165249019 -0.1114170644 0.0252354350
