0.0193803942 -0.0165306641 -0.1350272013
0.0211779353 -0.0211312207 -0.1369866472
-0.0089646283 -0.0204715559 -0.1290285135
0.0193564751 -0.0185337258 -0.1747025734
-0.0150093894 -0.0199191970 -0.1781645542
0.0082736226 -0.0206890582 -0.1813399227
0.0254702511 -0.0256601656 -0.1635182306
-0.0128482564 -0.0257822663 -0.1778044210
0.0335735686 -0.0197372875 -0.1624153523
0.0263420911 -0.0160936588 -0.1634130397
0.0261685554 -0.0161237816 -0.1679528850
0.0322156065 -0.0160417848 -0.1426100282
-0.0253350664 -0.0160000008 -0.1407882260
0.0338445680 -0.0171043963 -0.1509448827
-0.0339825825 -0.0174411558 -0.1608265136
0.0286293256 -0.0164968756 -0.1405564315
-0.0243117866 -0.0182862226 -0.1506190086
-0.0248877747 -0.0243234676 -0.1514742355
-0.0101269991 -0.0230018741 -0.1323944051
0.0221723224 -0.0206999878 -0.1431195106
0.0176048584 -0.0183116545 -0.1722333203
-0.0044057752 -0.0227688947 -0.1794166135
-0.0215290763 -0.0180723770 -0.1670977105
-0.0323365860 -0.0165520551 -0.1639296565
0.0269252172 -0.0214525589 -0.1553285748
-0.0118389913 -0.0222815782 -0.1251211484
0.0240918480 -0.0186398597 -0.1360864102
-0.0093821054 -0.0450000018 -0.0976244940
-0.0219292233 -0.0348953042 -0.1865041110
-0.0145295422 -0.0405415094 -0.1903705700
-0.0125486417 -0.0342167126 -0.1913016144
0.0047149722 -0.0357178997 -0.1928536761
0.0045162313 -0.0406082442 -0.1929439103
0.0094586409 -0.0453246698 -0.1925372500
0.0236820098 -0.0138210041 -0.1852490122
0.0338049315 -0.0180420172 -0.1729869136
0.0341528103 -0.0438625562 -0.1724805033
0.0300166519 -0.0422464030 -0.1793673194
0.0375379391 -0.0362874855 -0.1627527662
0.0377846713 -0.0410911195 -0.1606115555
0.0384482594 -0.0175954333 -0.1542436393
0.0369371071 -0.0210616550 -0.1452627779
0.0338350673 -0.0296107375 -0.1375118565
0.0228616434 -0.0246835849 -0.1240234419
0.0158617254 -0.0269685306 -0.1200671328
-0.0007659393 -0.0373789797 -0.1166172680
-0.0043904533 -0.0318757196 -0.1170254796
-0.0148415492 -0.0235038097 -0.1198137186
-0.0235385911 -0.0339863392 -0.1249191834
-0.0285367853 -0.0312029632 -0.1296488535
-0.0326748141 -0.0221317338 -0.1349923936
-0.0369179786 -0.0333904762 -0.1453788032
-0.0384336560 -0.0328364256 -0.1575191593
-0.0379878002 -0.0465026563 -0.1616406265
-0.0367161836 -0.0385575926 -0.1669276209
-0.0323806714 -0.0475404087 -0.1755999546
-0.0267349348 -0.0443726774 -0.1825581626
-0.0111071010 -0.0344372657 -0.1148935599
0.0118850951 -0.0357490829 -0.1158418721
-0.0201094750 -0.0410000011 -0.1042818779
-0.0189523336 -0.0410000011 -0.0744491758
-0.0010747774 -0.0392567214 -0.0444387151
-0.0128536481 -0.0389004887 -0.0379645404
-0.0201273916 -0.0410000011 -0.0330221496
0.0090115127 -0.0410000011 -0.0254420407
0.0075356170 -0.0403277307 -0.0404293611
0.0011817867 -0.0392534204 -0.0599509725
0.0257534817 -0.0410000011 -0.0898079860
0.0190420050 -0.0410000011 -0.1196963266
-0.0074813726 -0.0326083575 0.0154883777
0.0186877005 -0.0325639705 0.0036083586
0.0060384766 -0.0327010617 0.0186655819
-0.0185100813 -0.0325211737 -0.0219667572
0.0120275809 -0.0326083335 -0.0207887950
-0.0094629134 -0.0325185029 -0.0287814027
-0.0015442579 -0.0325399042 0.0208029981
0.0180391334 -0.0332550963 -0.0059433213
-0.0346713929 -0.0480000004 -0.0977098539
-0.0315104470 -0.0427316991 -0.0577352431
-0.0345039949 -0.0467082296 -0.0974667466
-0.0330573486 -0.0455197635 -0.0771335822
-0.0361389233 -0.0464255745 -0.1206350361
0.0344111201 -0.0366943664 -0.1050013056
0.0344819401 -0.0476579165 -0.0971571160
0.0331036772 -0.0390773608 -0.0777848523
0.0287761226 -0.0424500307 -0.0167921543
0.0280163894 -0.0437853329 -0.0059601529
-0.0249819378 -0.0359999985 -0.1178216142
-0.0244428870 -0.0359999985 -0.1136616135
-0.0217158184 -0.0359999985 -0.0537868751
-0.0165173174 -0.0502125424 -0.1906870752
0.0298753518 -0.0504267415 -0.0146587169
-0.0349894160 -0.0503934296 -0.0799303959
0.0368266723 -0.0504793258 -0.1177686918
-0.0309152246 -0.0015017844 -0.1323089465
-0.0247192863 0.0334185904 -0.1328958029
-0.0107424624 0.0066908744 -0.1187398354
-0.0150746524 -0.0005131317 -0.1238710350
-0.0196649339 0.0281614991 -0.1293233399
-0.0243653796 -0.0160429089 -0.1276795054
0.0105567721 0.0220763478 -0.1190259003
0.0249257574 0.0329859933 -0.1338368805
0.0188671800 0.0157862898 -0.1297459742
0.0133264086 -0.0092638750 -0.1213671771
0.0250173742 -0.0149722714 -0.1277035441
0.0224074406 0.0056262769 -0.1282858190
-0.0296991514 -0.0074820965 -0.1615851243
-0.0345483726 0.0000251430 -0.1607396012
-0.0295439665 0.0301514545 -0.1732514976
-0.0353813882 0.0082283903 -0.1600726721
-0.0274613702 0.0327678897 -0.1670120107
-0.0321862412 -0.0035355300 -0.1731091183
-0.0376493287 0.0077407014 -0.1550085019
-0.0294470758 0.0331781729 -0.1488692377
-0.0308471813 0.0162794579 -0.1397785015
-0.0360838918 0.0262423164 -0.1524307768
-0.0231710700 0.0379572198 -0.1524978573
-0.0303646404 0.0207017278 -0.1400091570
0.0354161224 0.0177847029 -0.1598072821
0.0383057280 -0.0133257979 -0.1565206691
0.0319628816 0.0046247273 -0.1755256118
0.0299021378 0.0023951723 -0.1687207459
0.0319729794 0.0279047445 -0.1608679142
0.0317966645 -0.0135035625 -0.1746583383
0.0244548833 0.0360728779 -0.1449783830
0.0300614783 0.0322628753 -0.1489259983
0.0335709535 -0.0087486123 -0.1486904526
0.0301527982 0.0075405754 -0.1406807430
0.0337656228 0.0325786751 -0.1532151781
0.0198216074 0.0240941151 -0.2311000079
-0.0099708692 -0.0260991398 -0.2311000079
-0.0318751560 0.0048471263 -0.2318892077
0.0143925595 -0.0279590858 -0.2313706087
0.0271005066 0.0180549282 -0.2320721547
0.0026708464 -0.0332726155 -0.2342000008
-0.0030508637 0.0336629665 -0.2299495495
-0.0272787712 -0.0198147603 -0.2231521264
-0.0292892577 -0.0167391124 -0.2135469503
-0.0224219706 -0.0249092386 -0.1998915806
-0.0225443912 -0.0248027007 -0.2000045419
-0.0119670294 -0.0314757768 -0.2099442660
-0.0169019488 -0.0296952825 -0.2010055530
0.0048375454 -0.0335769805 -0.2278190858
-0.0040396904 -0.0337782182 -0.2258568300
0.0194601896 -0.0277276781 -0.2326527446
0.0172968198 -0.0290392819 -0.2113964802
0.0242598750 -0.0236919938 -0.2206031094
0.0275167552 -0.0197844412 -0.2338999764
0.0265443021 -0.0211638239 -0.2068231269
0.0308423527 -0.0141677879 -0.2070684111
0.0329698625 -0.0083108964 -0.2128246012
0.0337377459 -0.0037275744 -0.2011581496
0.0337857255 -0.0032182424 -0.2307963888
0.0329293879 0.0068111427 -0.2329321083
0.0300669232 0.0158459385 -0.1955520355
0.0310501681 0.0136383780 -0.2115128496
0.0289972300 0.0175435352 -0.2124780062
0.0210891133 0.0264824121 -0.1977345255
0.0245974394 0.0233629213 -0.2279224781
0.0088593321 0.0327502242 -0.2196675818
0.0139442383 0.0307102769 -0.2262571517
0.0167153932 0.0294123658 -0.2074684209
0.0012978370 0.0336860263 -0.2085789775
-0.0076214800 0.0330522922 -0.2305004613
-0.0145012214 0.0303883712 -0.2298809307
-0.0258464933 0.0220404420 -0.2045648114
-0.0219722373 0.0259497790 -0.2078925612
-0.0294156669 0.0167988642 -0.2210206749
-0.0292915598 0.0170292567 -0.2153212094
-0.0307987370 0.0140888749 -0.1891908233
-0.0333316247 0.0063085517 -0.2016901142
-0.0339698343 0.0015012570 -0.1963886611
-0.0338931962 -0.0004626896 -0.1992805081
-0.0323616927 -0.0095849345 -0.1886757800
-0.0330246591 -0.0075475137 -0.2065897466
0.0353828738 -0.0184957600 -0.1751835778
0.0337576836 0.0024767145 -0.2152651420
0.0337047882 0.0020958277 -0.1900611946
0.0240352957 0.0253116808 -0.1898518979
0.0101513433 0.0357908436 -0.1886528988
-0.0053578528 0.0372551478 -0.1868483713
0.0368669575 -0.0033976008 -0.1735795807
0.0397204112 0.0041280466 -0.1638144154
0.0389347912 -0.0206168150 -0.1420614155
0.0262904405 -0.0121328180 -0.1239786035
0.0159042513 -0.0026557689 -0.1176701351
-0.0042365419 -0.0161895754 -0.1143940500
0.0163735361 0.0411660640 -0.1568700186
0.0361610198 0.0050325134 -0.1740584427
0.0003321770 0.0411000212 -0.1722458227
-0.0298145173 0.0388892147 -0.1543336563
-0.0130169011 0.0411716368 -0.1547208786
-0.0339114550 0.0338634322 -0.1664297517
0.0034010997 0.0400415135 -0.1287646395
-0.0009601351 0.0399843817 -0.1812592474
-0.0107786114 0.0411992420 -0.1619730662
-0.0045192124 0.0412924097 -0.1478587203
-0.0301538139 0.0276902342 -0.1795826399
0.0334385785 0.0218887519 -0.1767535658
-0.0338879314 0.0194211566 -0.1760252597
-0.0374134416 0.0137222899 -0.1701829869
-0.0116943746 0.0367449464 -0.1238376392
-0.0365804207 0.0289293093 -0.1425804569
-0.0293288023 0.0358868323 -0.1370875700
-0.0134191927 0.0410422845 -0.1463388082
-0.0274609666 0.0239512455 -0.1264692166
0.0407812956 -0.0218458454 -0.1562383971
0.0400155903 -0.0237133720 -0.1630350654
-0.0376375313 -0.0096446158 -0.1708186992
-0.0388063007 0.0219973278 -0.1645792766
-0.0396974415 0.0067139112 -0.1632954843
-0.0390906224 0.0250863261 -0.1493680048
-0.0354880242 0.0340135022 -0.1489743936
-0.0399005999 -0.0068806475 -0.1459935305
-0.0401090424 -0.0287111168 -0.1454679593
-0.0343939517 -0.0160420738 -0.1332040711
-0.0280782427 0.0107787855 -0.1256990934
-0.0253133292 0.0381967745 -0.1364746149
-0.0251741536 -0.0097899275 -0.1228248510
-0.0240504222 -0.0008025446 -0.1220580697
-0.0224952608 0.0398278033 -0.1401389274
-0.0053469699 0.0204329818 -0.1153485673
-0.0116581607 0.0004608178 -0.1159665289
0.0227735133 0.0394581043 -0.1384388307
-0.0023646875 0.0100029530 -0.1144565137
0.0229217093 0.0400158979 -0.1421249729
0.0036853296 0.0046206242 -0.1145761457
0.0169080319 0.0171146491 -0.1184375311
0.0140108506 0.0110946571 -0.1170183012
0.0262729886 0.0204336468 -0.1248805177
0.0195324075 0.0055793307 -0.1193077114
0.0346917829 0.0293081900 -0.1389323557
0.0370022369 0.0305880804 -0.1471606801
0.0298487752 -0.0067531252 -0.1270305268
0.0328104742 0.0062070233 -0.1312009767
0.0354659463 0.0336964253 -0.1605106732
0.0030498493 0.0412386413 -0.1622156840
0.0373547555 0.0129677767 -0.1394037006
0.0353534736 0.0010856785 -0.1347039984
0.0277812379 0.0369698550 -0.1730356288
0.0192204997 0.0386773013 -0.1782240691
0.0400071464 0.0194904529 -0.1566172809
0.0401881729 -0.0272063647 -0.1471087096
0.0186191501 0.0370352475 -0.1828387949
-0.0083482855 0.0229004229 -0.1160065167
0.0136065429 0.0408793829 -0.1407116243
0.0396021903 -0.0278785938 -0.1438272808
0.0200280088 -0.0306543254 -0.1918051440
-0.0160958960 -0.0301545963 -0.1964122530
-0.0348078723 0.0107164964 -0.1765397819
-0.0227534585 0.0296693871 -0.1860013293
-0.0322453905 -0.0141314535 -0.1826391769
-0.0301271647 -0.0174506652 -0.1857166590
-0.0103729374 -0.0376902798 -0.1945653066
-0.0247607652 -0.0492590268 -0.1867643009
-0.0331531287 -0.0449844024 -0.1778349739
-0.0391754293 -0.0389143991 -0.1659183723
-0.0406386849 -0.0361157098 -0.1481589766
-0.0343938503 -0.0477792173 -0.0590786377
-0.0365843324 -0.0465143858 -0.0888669255
-0.0363718698 -0.0410557433 -0.0840101588
-0.0325923977 -0.0436767520 -0.0330892501
-0.0336611534 -0.0453025137 -0.0481148995
-0.0329755217 -0.0424299965 -0.0379795538
-0.0333663080 -0.0443413875 -0.0438306811
-0.0295847934 -0.0451068004 0.0017957953
-0.0279333856 -0.0351569906 0.0102019926
-0.0159141987 -0.0492122693 0.0248298988
-0.0271853541 -0.0466896196 0.0110045471
-0.0392733792 -0.0425129050 -0.1287397501
-0.0385007771 -0.0465098970 -0.1180470944
-0.0404159616 -0.0347888209 -0.1425583690
-0.0006872733 -0.0356510266 0.0294887658
0.0324318001 -0.0403050731 -0.0293958419
0.0364704079 -0.0381316684 -0.0834034491
0.0339989284 -0.0357732787 -0.0491906120
0.0352369895 -0.0352106334 -0.0657796407
0.0299117328 -0.0366399608 0.0003019574
0.0402898289 -0.0434180759 -0.1452370351
0.0384035600 -0.0358600645 -0.1102752977
0.0406725410 -0.0411484623 -0.1550998021
0.0380217725 -0.0403879818 -0.1693199348
0.0348792745 -0.0334251768 -0.1759441861
0.0306671201 -0.0285357853 -0.1816597709
0.0135506069 -0.0426941338 -0.1937169570
0.0102389492 -0.0463998602 -0.1939699124
0.0378237425 -0.0439899099 -0.1065903754
0.0337535832 -0.0494206183 -0.0518892118
0.0352783472 -0.0457966930 -0.0713173763
0.0369642373 -0.0473591454 -0.0965266967
0.0287722968 -0.0465622864 0.0058924367
0.0209486288 -0.0426247374 0.0208676008
0.0319128048 -0.0332990473 -0.0624186082
0.0167834871 -0.0345074805 0.0224130819
0.0200815609 -0.0348298673 0.0209000646
0.0273072481 -0.0340010028 0.0048314604
0.0022840310 -0.0295961714 -0.0537348663
-0.0180755025 -0.0306989187 -0.0569281609
-0.0106698075 -0.0300489206 -0.0539359367
-0.0283886655 -0.0339756788 0.0045812304
-0.0020727279 -0.0343979854 0.0283941768
-0.0355335795 -0.0162528740 -0.1755419200
-0.0279721956 -0.0238514926 -0.1247692889
-0.0064568356 -0.0280173611 -0.1095634103
-0.0337289357 -0.0330536105 -0.1022852426
-0.0070167415 -0.0290155969 -0.0964364793
-0.0189782635 -0.0308423156 -0.0619270568
-0.0321298298 -0.0329215790 -0.0890158288
-0.0112606339 -0.0293276318 -0.1078029409
-0.0157380036 -0.0301294247 -0.0810144291
-0.0226887944 -0.0314290251 -0.0673214195
-0.0120457208 -0.0289434600 -0.0862176262
-0.0030212852 -0.0295161326 -0.0567889233
0.0233158804 -0.0316285746 -0.0488251294
0.0155699976 -0.0302151898 -0.0736439050
0.0311437456 -0.0323364505 -0.1079014842
0.0064408068 -0.0289591075 -0.1067996775
0.0158104096 -0.0297654625 -0.0901448350
0.0117717272 -0.0291871137 -0.0782834656
0.0082283830 -0.0210545407 -0.1148863101
0.0137428630 -0.0286271936 -0.1100090197
0.0320905053 -0.0326009367 -0.1052421474
0.0283244216 -0.0323875754 -0.0699592197
0.0382808651 -0.0318051465 -0.1348822728
0.0040379123 -0.0294075712 -0.0797035205
-0.0006402090 -0.0317058526 -0.0928204819
-0.0013182558 -0.0449377598 -0.0707141438
-0.0124159356 -0.0356820516 -0.0853599686
-0.0132594748 -0.0376155191 -0.0995161477
-0.0093499999 -0.0411380911 -0.0865545970
0.0092617772 -0.0402131349 -0.0972413004
0.0094822811 -0.0367147622 -0.0800296499
0.0122646344 -0.0338283763 -0.0798931204
0.0115335172 -0.0444202864 -0.0715660485
-0.0062909432 -0.0379973762 -0.0679867230
-0.0184977965 -0.0403048743 -0.0857292001
-0.0047535632 -0.0335000008 -0.0670526955
0.0272215261 -0.0439997570 0.0042775457
0.0160287725 -0.0435676702 0.0221250786
-0.0072550900 -0.0377101958 0.0260828604
-0.0252190665 -0.0463076159 0.0100408204
0.0150785008 -0.0383006875 -0.0204997093
-0.0143705905 -0.0366283915 -0.0208633740
0.0085545642 -0.0348020718 -0.0161706787
-0.0026238897 -0.0349063226 0.0188098884
-0.0247332185 -0.0352093864 0.0042038900
-0.0100648297 -0.0350139269 0.0231753109
-0.0301102506 -0.0404264722 -0.0357110297
-0.0282868779 -0.0444606798 -0.0098849988
0.0110849066 -0.0362072907 0.0234788936
-0.0234520414 -0.0373781019 -0.0333516237
-0.0209999997 -0.0386586576 -0.0469522131
-0.0312946565 -0.0359999985 -0.0875188497
-0.0216634471 -0.0369757574 -0.0686142743
-0.0209999997 -0.0386406677 -0.0971449872
-0.0254478292 -0.0371737461 -0.0909240200
-0.0158290730 0.0275814458 -0.1292976449
0.0309144010 -0.0024712043 -0.1325277658
0.0236495052 0.0357795059 -0.1370233424
0.0049679596 -0.0004359279 -0.1170684918
0.0274219120 0.0260328162 -0.1315407838
-0.0080120862 0.0253728753 -0.1190622388
-0.0023628018 -0.0008919385 -0.1169280350
0.0035579035 0.0108311193 -0.1171036601
-0.0032273868 0.0365031818 -0.1266078981
-0.0114946898 0.0383478966 -0.1382853766
0.0090745341 0.0383814672 -0.1375649686
0.0184833297 0.0382823012 -0.1492387674
-0.0165587158 0.0386459259 -0.1509994712
0.0179420024 0.0043553395 -0.1298618203
0.0172422361 0.0196598222 -0.1294348558
0.0188167795 -0.0201920761 -0.1270142645
0.0303161253 -0.0067344611 -0.1783729368
-0.0039458105 0.0273056618 -0.1913391795
0.0281389021 -0.0216992903 -0.1813016061
0.0210674759 0.0283031393 -0.1836087230
-0.0211354707 0.0269208721 -0.1843634341
0.0057765218 0.0341069669 -0.1870614030
0.0230558417 0.0353356480 -0.1753315984
0.0142322188 0.0373756710 -0.1762893216
0.0007536290 0.0377834896 -0.1793170008
0.0109927931 0.0386728264 -0.1643488564
-0.0023594150 0.0384298214 -0.1745725408
-0.0129899287 0.0385305440 -0.1627036585
0.0252526670 0.0102405776 -0.2202336670
0.0293073163 0.0004578328 -0.2039779948
-0.0120951663 -0.0250471731 -0.2052187870
0.0001892743 -0.0292529722 -0.2040011650
0.0238357867 -0.0143121183 -0.1913118696
0.0176349411 -0.0224080703 -0.1978055696
-0.0200313160 -0.0200592166 -0.1951976642
-0.0273283405 -0.0030341698 -0.1876807103
-0.0307830219 -0.0027715864 -0.2257290662
-0.0252612829 0.0136576046 -0.2085896729
-0.0216482947 0.0162970449 -0.1875595815
-0.0092793579 0.0262235817 -0.2122362270
0.0086383284 0.0270437174 -0.2222768659
0.0171627562 0.0223652581 -0.1941545212
0.0238660586 0.0191038576 -0.2304188147
-0.0278502387 0.0062146960 -0.1631392125
-0.0274911771 0.0288873493 -0.1669967840
0.0282827588 0.0015383926 -0.1672054086
0.0278643088 0.0149012406 -0.1637159220
0.0300237159 -0.0083272212 -0.1645376816
0.0290594718 0.0090853208 -0.1481720599
0.0274699947 -0.0072172831 -0.1454170428
-0.0365108501 -0.0160000008 -0.1486797861
-0.0282826771 0.0278337733 -0.1469697972
-0.0307989112 -0.0021705722 -0.1481962922
-0.0164769660 -0.0148744965 -0.1262654302
-0.0131374520 -0.0322961832 -0.0390246759
0.0018122974 -0.0316091009 -0.0438447405
-0.0238286055 -0.0320558174 -0.0374528908
-0.0252893546 -0.0328419926 -0.0139548108
0.0229654122 -0.0329095163 0.0012829657
0.0011530347 -0.0330644347 0.0242259088
0.0359889900 -0.0395886114 -0.1203680429
0.0358816916 -0.0469409782 -0.1168614509
0.0366327033 -0.0497746954 -0.1681345904
0.0047641327 -0.0482939990 0.0274142245
0.0211911976 -0.0393789335 -0.1157110192
0.0317431935 -0.0359999985 -0.0964357699
0.0217139370 -0.0359999985 -0.1003207193
0.0300259963 -0.0359999985 -0.0792314575
0.0206725804 -0.0383053420 -0.0649332630
0.0231199507 -0.0359999985 -0.0595844271
0.0215129524 -0.0403748939 -0.0528237248
0.0262254415 -0.0359999985 -0.0141193425
0.0001908714 -0.0406455853 -0.0633288634
-0.0163167898 -0.0359999985 -0.0272501538
0.0106470467 -0.0400970729 -0.0376593453
0.0153426523 -0.0359999985 -0.0361998221
-0.0012660300 -0.0374265099 -0.0539664765
-0.0184999984 -0.0385857127 -0.0506911160
-0.0150268616 -0.0350000001 -0.0557853292
-0.0136557964 -0.0335000008 -0.1089499423
-0.0036543341 -0.0335000008 -0.1020419512
-0.0184999984 -0.0376119258 -0.0928366844
0.0123654481 -0.0335000008 -0.1040366851
0.0184999984 -0.0335823068 -0.0936258639
0.0059208743 -0.0352017269 -0.0635223729
0.0184999984 -0.0375145101 -0.0780476302
0.0125391967 -0.0335000008 -0.0648921073
0.0011536912 -0.0401751493 -0.0410164207
0.0020134337 -0.0350000001 -0.0492659326
0.0145273420 -0.0350000001 -0.0448600224
-0.0096806201 -0.0412832733 -0.0700799826
-0.0278649066 -0.0327619865 -0.0374345028
-0.0232044689 -0.0317167690 -0.0408441960
-0.0396642831 -0.0147201617 -0.1644290463
-0.0405033431 -0.0096742299 -0.1492349052
-0.0406246197 -0.0258160764 -0.1535795585
-0.0406110221 -0.0298999364 -0.1529028622
0.0105599219 0.0258710445 -0.2308633494
-0.0257459343 0.0112415698 -0.2300032137
0.0020229066 -0.0414189199 0.0272529337
0.0080120402 0.0270301451 -0.2028814670
-0.0139068834 0.0251396025 -0.2164245959
-0.0195755749 0.0220465641 -0.2071362436
-0.0077739701 0.0269876005 -0.1970237250
-0.0078960534 0.0274343487 -0.2141703507
0.0127263028 0.0249021049 -0.1987642444
0.0249256063 0.0124156264 -0.2043118296
0.0260629295 0.0092073826 -0.2150881169
0.0287538179 0.0049342519 -0.2054052898
0.0264359280 -0.0065199724 -0.1867816687
0.0303525827 -0.0033047415 -0.2217229060
0.0248353327 -0.0122096287 -0.2008259605
0.0213163124 -0.0234654511 -0.2309799986
0.0170065569 -0.0241911860 -0.2081225274
0.0055645821 -0.0296128282 -0.2185367882
-0.0170385220 -0.0248884517 -0.2258768623
-0.0253755434 -0.0100507940 -0.2080966504
-0.0282657675 -0.0073827848 -0.2145570971
-0.0250684958 -0.0162380399 -0.2188162182
-0.0081638064 -0.0276206745 -0.2305450340
-0.0034101268 -0.0303221637 -0.2183040743
-0.0247085757 0.0172413545 -0.2213518310
-0.0307483716 -0.0000339558 -0.2275336003
-0.0281207918 0.0067915007 -0.2058267431
0.0380094022 -0.0498192491 -0.1348713119
0.0326929886 -0.0482466918 -0.0653632219
-0.0331644788 -0.0487787265 -0.0620037085
-0.0386551807 -0.0487478574 -0.1518643426
0.0276619059 -0.0363609198 -0.0546489983
-0.0301271488 -0.0400456002 -0.1102688788
0.0295387384 -0.0383350290 -0.0476583997
-0.0323114589 -0.0472764841 -0.1097764966
0.0285810259 -0.0389723927 -0.0541309333
0.0345418108 -0.0379147116 -0.1090106841
-0.0326065732 -0.0334317754 -0.1120531647
0.0130270706 -0.0379999988 -0.1178176192
0.0033219726 -0.0225217884 -0.1528398480
-0.0003621991 -0.0006984218 -0.1511962520
-0.0025867282 0.0033522702 -0.1523028943
-0.0031135812 0.0144379044 -0.1570282127
0.0000481346 0.0087303281 -0.1587148671
0.0015719099 0.0007099812 -0.1585769467
-0.0154278562 0.0195207406 -0.1745383613
0.0146472294 0.0208381554 -0.1746563546
0.0022357780 -0.0244846940 -0.1797455687
0.0247534410 -0.0224471388 -0.1573260780
-0.0206511022 -0.0066791511 -0.1687850539
-0.0227208326 0.0074467474 -0.1649614247
-0.0236243161 0.0107813347 -0.1627816467
-0.0248289756 -0.0102870225 -0.1567681524
-0.0039845964 -0.0187248457 -0.1795992643
-0.0050403684 -0.0173734528 -0.1793764954
-0.0141057106 0.0136948119 -0.1755169874
0.0146725189 -0.0124990461 -0.1749502454
0.0084514320 0.0175769322 -0.1783494546
0.0089124241 0.0005326402 -0.1781413022
0.0015973195 0.0085837467 -0.1796722287
0.0243059980 -0.0223986545 -0.1604934549
0.0230166133 0.0065269703 -0.1644629563
0.0220074343 0.0011474008 -0.1664051065
0.0165974254 -0.0238844753 -0.1365869538
0.0002772295 -0.0136587516 -0.1300332644
-0.0156703526 -0.0001949533 -0.1359132237
-0.0247701839 0.0225623849 -0.1573329136
0.0194471777 -0.0081067550 -0.1394390087
0.0204218269 0.0044780954 -0.1409717544
0.0223216905 -0.0013774216 -0.1442830791
0.0244449714 -0.0098960759 -0.1509200412
0.0028791033 -0.0023992410 -0.1303153217
0.0075549674 0.0186007270 -0.1312737623
0.0113952023 0.0140923229 -0.1331400707
0.0134395659 -0.0088374225 -0.1341470781
-0.0119769253 -0.0195860647 -0.1332058852
-0.0099093191 -0.0102599859 -0.1322838313
-0.0043185486 0.0169533321 -0.1306975453
-0.0241258945 -0.0118497004 -0.1490557560
-0.0234699403 -0.0184269371 -0.1466659472
-0.0205547682 0.0078787917 -0.1409892275
-0.0205576838 -0.0155285673 -0.1408882658
0.0224639817 0.0244999994 -0.1466559936
0.0117562666 0.0244999994 -0.1497739700
-0.0092563272 0.0244999994 -0.1613088271
0.0100828369 0.0244999994 -0.1355238644
-0.0050127427 0.0244999994 -0.1338742727
-0.0118753502 0.0244999994 -0.1675438540
-0.0119467325 0.0244999994 -0.1473425359
0.0174856178 0.0244999994 -0.1666625602
0.0166552199 -0.0233751553 -0.1386039110
-0.0063893872 -0.0317000002 -0.1550933176
-0.0108890353 -0.0255999994 -0.1753758716
-0.0074303632 -0.0255999994 -0.1436023475
0.0127219976 -0.0255999994 -0.1507648295
-0.0095472754 -0.0255999994 -0.1581684488
0.0105644959 -0.0255999994 -0.1446822994
0.0007042737 -0.0255999994 -0.1722414429
0.0054532590 -0.0255999994 -0.1737429494
-0.0039339903 -0.0309656094 -0.1638744397
0.0063557623 -0.0281615650 -0.1475074736
0.0010333167 -0.0317000002 -0.1475380588
-0.0043004962 -0.0260221083 -0.1630685096
0.0086754153 -0.0280240497 -0.1508937373
0.0044684779 -0.0257000010 -0.1314310073
-0.0147379813 -0.0257000010 -0.1436210771
-0.0157113510 -0.0257000010 -0.1401627226
-0.0121870544 -0.0257000010 -0.1759913996
-0.0231107652 -0.0257000010 -0.1560254656
0.0060264578 -0.0257000010 -0.1674831611
0.0168956864 -0.0257000010 -0.1704804550
0.0038427520 -0.0328295665 -0.1539453479
-0.0185933229 -0.0356246830 -0.1384859223
0.0191671252 -0.0316796252 -0.1391895739
0.0054111883 -0.0361649313 -0.1307047710
-0.0114953847 -0.0324152299 -0.1333039903
-0.0243290776 -0.0338586146 -0.1498490991
0.0135250381 -0.0274353891 -0.1754374568
-0.0201704133 -0.0349201832 -0.1695125261
-0.0067361230 -0.0315788066 -0.1787643515
0.0124455416 -0.0324674966 -0.1762511878
0.0216515992 -0.0283781548 -0.1665813471
-0.0137175920 -0.0395000018 -0.1399573663
0.0138740124 -0.0395000018 -0.1683167984
-0.0037018106 -0.0395000018 -0.1746500828
-0.0177096231 -0.0395000018 -0.1483690997
0.0006062447 -0.0395000018 -0.1514886763
0.0220460054 -0.0395000018 -0.1562529404
0.0092473251 -0.0395000018 -0.1709811558
-0.0145380878 -0.0395000018 -0.1467796287
0.0034979062 -0.0395000018 -0.1327240950
0.0219381008 -0.0371160838 -0.1631770861
-0.0018345804 -0.0374849083 0.0143980836
-0.0108333525 -0.0367561539 -0.0094602385
0.0138935866 -0.0416428761 -0.0018761292
-0.0069252455 -0.0351500027 0.0170726718
0.0148471254 -0.0351146890 -0.0053133986
-0.0146108408 -0.0350707424 -0.0094436952
0.0238801666 -0.0351778025 -0.0055467578
0.0206259604 -0.0352523046 0.0137424853
-0.0169173971 -0.0350258129 -0.0030632381
-0.0000649862 -0.0429771965 -0.0157663598
-0.0134950270 -0.0428219213 0.0150069712
-0.0191908442 -0.0429687135 0.0057113877
0.0169136673 -0.0429300782 0.0040464787
0.0212960567 -0.0428933858 0.0036219682
-0.0122296593 -0.0427794043 -0.0207884980
-0.0194194323 -0.0384776254 0.0094377662
0.0251222848 -0.0390911411 -0.0054673261
0.0057260725 -0.0408172916 -0.0248657361
-0.0196368503 -0.0366361677 -0.0162628843
-0.0221132411 -0.0389103220 0.0131789149
-0.0045018683 -0.0354301793 0.0252671606
0.0207380682 -0.0359561938 0.0153817039
0.0207955500 -0.0423245534 0.0095037667
-0.0170544890 -0.0410741294 -0.0127697939
0.0018088091 -0.0351348673 0.0039476913
0.0023198660 -0.0429151814 0.0082754418
0.0082234884 -0.0427955539 -0.0043106963
-0.0048567132 -0.0408097643 -0.0018074036
0.0070633063 -0.0398645733 -0.0004049623
-0.0025066558 -0.0357701099 -0.0115317114
0.0078083633 -0.0379625395 0.0086180311
-0.0052141904 -0.0380798708 0.0102142874
0.0008602591 -0.0369637368 0.0116239391
0.0068632349 -0.0407392012 -0.0089319193
-0.0132106292 -0.0353000127 -0.0007849101
0.0119293387 -0.0427974292 -0.0013847581
-0.0120687319 -0.0364609786 -0.0075599480
0.0122221531 -0.0383723796 -0.0073607401
0.0000399373 -0.0371599705 0.0145258857
-0.0136013891 -0.0424958957 0.0001542441
-0.0080456485 -0.0437654645 -0.1468291668
0.0177274201 -0.0472381351 -0.1400305700
-0.0047761564 -0.0465356126 -0.1323557943
-0.0213579124 -0.0549860229 -0.1630151105
0.0141179499 -0.0501725227 -0.1728002381
0.0143179438 -0.0554999970 -0.1706540964
0.0088118505 -0.0554999970 -0.1651615086
0.0047157662 -0.0554999970 -0.1725660277
-0.0080276093 -0.0554999970 -0.1636019371
0.0036544494 -0.0554999970 -0.1385533353
-0.0124955702 -0.0554999970 -0.1689024136
-0.0020089758 -0.0479417090 -0.1769774342
0.0165688936 -0.0491399810 -0.1707271244
0.0057037464 -0.0469167426 -0.1329107336
-0.0170272282 -0.0526758915 -0.1394690840
-0.0135692852 -0.0444999896 -0.1423043497
0.0082804401 -0.0444999896 -0.1407628509
0.0217396683 -0.0444999896 -0.1577331498
0.0120275665 -0.0444999896 -0.1618532973
0.0176796863 -0.0444999896 -0.1588007607
-0.0003758695 -0.0517782238 -0.1457110570
-0.0053583990 -0.0515537594 -0.1629059378
0.0075379450 -0.0538350337 -0.1609081684
-0.0048964344 -0.0455000065 -0.1471441809
0.0151149864 -0.0525158943 -0.1454629714
0.0008428884 -0.0430000089 -0.1509719595
0.0064286776 -0.0431996480 -0.1574183863
0.0044045223 -0.0515081958 -0.0006345423
0.0084206426 -0.0308854204 0.0012934661
0.0087390291 -0.0309046450 -0.0073184049
-0.0103082499 -0.0307878625 0.0025566836
0.0152353852 -0.0329245480 -0.0024123765
-0.0121025020 -0.0340927649 0.0062306029
-0.0016422167 -0.0344292192 0.0120051217
0.0074346539 -0.0349789568 -0.0000937097
-0.0028251983 -0.0398672391 -0.0040075109
0.0015414317 -0.0545027791 0.0038131976
0.0028819555 -0.0514048845 -0.0026076825
-0.0062967915 -0.0320012737 0.0027783123
-0.0050097221 -0.0337186999 -0.0060759543
-0.0031330558 -0.0321412500 0.0048575961
-0.0083286327 -0.0335518458 -0.0117825926
0.0065933485 -0.0329285312 0.0132974507
0.0097341741 -0.0435454979 0.0066375027
0.0152731253 -0.0498828756 0.0158827216
0.0046043195 -0.0449044267 0.0225700838
-0.0177141268 -0.0463819591 0.0126193688
-0.0081570787 -0.0472963310 -0.0208334588
0.0180105092 -0.0554999970 0.0078754276
0.0095202573 -0.0554999970 -0.0179383999
-0.0089163372 -0.0554999970 -0.0041039771
-0.0085789077 -0.0554999970 0.0134393647
0.0128357110 -0.0553971235 0.0181555187
-0.0105014513 -0.0554999970 -0.0013481349
-0.0054750072 -0.0482704673 -0.0221211804
-0.0200698827 -0.0446267118 -0.0105700808
-0.0034602466 -0.0488976256 0.0223564846
0.0187737403 -0.0548197258 0.0094303836
-0.0110582334 -0.0444999896 0.0114137648
-0.0181783351 -0.0444999896 0.0089487712
0.0211465447 -0.0447314055 0.0012462689
-0.0076429941 -0.0444217394 -0.0160890379
0.0176106676 -0.0444999896 -0.0116611448
0.0008294360 -0.0466678130 0.0098025394
-0.0063801301 -0.0550768025 -0.0074101891
-0.0039634355 -0.0455000065 0.0032148524
-0.0151323014 -0.0478864915 -0.0086029224
0.0171178830 -0.0520464064 0.0089595316
-0.0042503664 -0.0432994119 -0.0089062532
-0.0233000480 -0.0507329618 -0.0617181479
-0.0233001981 -0.0529778572 -0.0091516515
-0.0233001225 -0.0501742527 -0.0100628846
-0.0233000521 -0.0488784047 -0.0309999359
-0.0232999995 -0.0497176455 -0.0875779323
-0.0232999995 -0.0503506593 -0.1255121429
-0.0232999995 -0.0459882502 -0.1023928124
-0.0232999995 -0.0453073971 -0.0249542733
-0.0114281522 -0.0502579169 0.0201716760
0.0142397797 -0.0528625233 0.0185064846
0.0239614032 -0.0550000034 -0.0073433214
-0.0236161051 -0.0550000034 -0.1088260890
0.0238164105 -0.0450000130 -0.1366773428
-0.0240268559 -0.0450000130 -0.0148845374
0.0230372480 -0.0450007438 0.0069373652
0.0040302908 -0.0547847869 0.0237099207
-0.0146190220 -0.0506773236 0.0187659649
-0.0242999997 -0.0543175638 -0.0218064997
-0.0242999997 -0.0475436868 -0.1185590786
-0.0242999997 -0.0545858880 -0.0628477816
-0.0242999997 -0.0501930435 -0.0987542177
-0.0242999997 -0.0464499645 -0.0946921206
-0.0242999997 -0.0454425235 -0.0293351558
-0.0242999997 -0.0482986850 -0.0501215556
-0.0242999997 -0.0521830939 -0.0072582417
-0.0156144148 -0.0498682784 -0.1733466909
0.0024283616 -0.0536044381 -0.1787698871
0.0203932524 -0.0504420023 -0.1673440105
0.0242999997 -0.0521827218 -0.0424679226
0.0242999997 -0.0515621595 -0.0197085205
0.0242999997 -0.0534854825 -0.0189511812
0.0242999997 -0.0526028665 -0.0805481168
0.0242999997 -0.0460284232 -0.0326854827
0.0242999997 -0.0453838615 -0.0391587196
0.0242999997 -0.0521619318 -0.1510251897
0.0231757953 -0.0518160774 -0.1559339475
0.0149574309 -0.0506050105 -0.1731974311
-0.0143345597 -0.0530081252 -0.1736618047
-0.0222458137 -0.0494965717 -0.1615176600
0.0232999995 -0.0472615549 -0.1222564823
0.0232999995 -0.0497414333 -0.1023659109
0.0232999995 -0.0514440668 -0.1158418027
0.0232991217 -0.0488161139 -0.0935122160
0.0232943382 -0.0503010738 -0.0577534151
0.0232890085 -0.0470329525 -0.0942125487
0.0232950718 -0.0483656143 -0.0897071426
-0.0046972287 -0.0588676896 -0.0028518063
-0.0021077822 -0.0502051219 0.0088077161
-0.0072864335 -0.0517140727 -0.0059606425
0.0078185635 -0.0580177892 -0.0057305232
-0.0083561734 -0.0492746194 -0.0036243001
-0.0061366557 -0.0548693711 -0.0061792362
0.0027452173 -0.0554999970 -0.0046186991
0.0047529809 -0.0566348271 -0.0028793999
-0.0030011090 -0.0562148770 0.0034959534
0.0028816277 -0.0555900661 0.0029269355
0.0028128074 -0.0487125981 -0.0040258829
0.0073188421 -0.0457479496 0.0052039708
-0.0037969863 -0.0456578649 -0.0065430322
-0.0008052813 -0.0493256453 -0.0085059587
-0.0058311482 -0.0600626689 0.0008835451
-0.0305645764 -0.0511839379 -0.0363185675
-0.0298643556 -0.0509976988 -0.0243300240
-0.0143457811 -0.0537420046 0.0229336878
0.0301157770 -0.0518045969 -0.0331834299
-0.0004833307 -0.0547405882 -0.1927933463
0.0362291007 -0.0499265086 -0.1215003190
0.0149127222 -0.0517436199 -0.1900708332
-0.0340771866 -0.0504438519 -0.0827301283
0.0163773491 -0.0494678384 0.0222283467
0.0292554375 -0.0552502214 -0.0243316082
0.0266172544 -0.0539507058 0.0051996634
-0.0065175981 -0.0512494940 -0.1925259188
-0.0293745391 -0.0498293404 -0.1798331451
-0.0353372625 -0.0582340100 -0.1514891290
-0.0335492984 -0.0588324076 -0.1341198879
-0.0374798150 -0.0544875271 -0.1431086748
-0.0334545834 -0.0532399317 -0.0806805854
-0.0313766133 -0.0585856515 -0.0898617460
0.0304579972 -0.0582115686 -0.0647618813
0.0345368990 -0.0583311165 -0.1287486849
0.0013354309 -0.0583369943 -0.1901865048
0.0253924750 -0.0609205024 -0.0792218749
0.0121000206 -0.0633288595 -0.0397955588
0.0108487573 -0.0637910590 -0.0533380633
0.0064242798 -0.0634601265 -0.0173252753
0.0048069303 -0.0644026784 -0.0576089224
0.0265443723 -0.0598914280 -0.0567889886
0.0299778154 -0.0602751099 -0.1238107908
0.0000449635 -0.0653352361 -0.1351943239
0.0077695671 -0.0646907796 -0.0910146852
0.0050772541 -0.0649193425 -0.0969964108
0.0092266110 -0.0647698830 -0.1161843925
0.0160651212 -0.0641181281 -0.1189870599
0.0260128977 -0.0603892657 -0.0663534884
0.0217457210 -0.0627296159 -0.1124784500
0.0218518011 -0.0613414979 -0.0525455269
0.0196313126 -0.0617084695 -0.0405887422
0.0168943998 -0.0638639935 -0.1078720515
0.0348445442 -0.0514441670 -0.0992699619
0.0240393549 -0.0580305815 0.0014297353
0.0257382408 -0.0571997552 -0.0037145716
-0.0287420846 -0.0527644135 -0.1828878738
-0.0390499584 -0.0535358717 -0.1327518947
-0.0334267799 -0.0529449010 -0.0486520076
0.0377802396 -0.0506231855 -0.1082391642
0.0339293823 -0.0525953481 -0.0547519339
0.0059834408 -0.0520299559 0.0286415475
-0.0354573809 -0.0504997192 -0.0920967596
0.0107055053 -0.0502233337 -0.1934045230
0.0323884254 -0.0500548266 -0.0503560456
-0.0256628913 -0.0561890791 0.0075476102
-0.0096391520 -0.0567716915 0.0243179938
0.0072727307 -0.0592648342 0.0210551745
0.0209665955 -0.0603587466 -0.0063771719
0.0081896179 -0.0621892050 0.0026270341
-0.0219706570 -0.0588749950 0.0063283220
-0.0252751933 -0.0585043561 -0.0081444223
-0.0076776226 -0.0594262845 0.0201084088
-0.0173617270 -0.0593495792 0.0131720497
-0.0117885494 -0.0631765661 -0.0260285737
-0.0024344337 -0.0626708201 0.0009603306
-0.0143584770 -0.0645076304 -0.1278900477
-0.0024962793 -0.0652225924 -0.1410288431
-0.0023176940 -0.0638406051 -0.0223977493
0.0006775078 -0.0637684776 -0.0174692461
-0.0287341076 -0.0604328889 -0.1061019673
-0.0097757270 -0.0650683397 -0.1316737273
-0.0151959485 -0.0623506479 -0.0228095955
-0.0185224797 -0.0616333208 -0.0279131290
-0.0208469107 -0.0619535875 -0.0678132845
-0.0250783944 -0.0609034293 -0.0757298487
-0.0223792188 -0.0627582590 -0.1213670495
-0.0133129712 -0.0634608532 -0.0527561953
-0.0129264459 -0.0640615673 -0.0852063713
-0.0061815963 -0.0639519013 -0.0331483241
-0.0073577616 -0.0643260883 -0.0647847319
-0.0051223355 -0.0640283206 -0.0341323501
-0.0017844264 -0.0648989360 -0.0831226680
-0.0298239765 -0.0602971988 -0.1195097643
-0.0130677323 -0.0628063628 -0.1717918220
-0.0101712261 -0.0610299745 -0.1817304724
-0.0270025216 -0.0606859088 -0.1675882948
-0.0326764799 -0.0592426217 -0.1302820377
-0.0101260158 -0.0645014821 -0.1556643641
-0.0042961822 -0.0647202114 -0.1593888277
0.0281218371 -0.0590352505 -0.1727474388
-0.0059279407 -0.0620641216 -0.1792489699
0.0186029745 -0.0627270808 -0.1638482236
0.0261851070 -0.0619937559 -0.1426580797
0.0106418818 -0.0644247397 -0.1575750466
0.0121928466 -0.0611355104 -0.1794836169
0.0232182264 -0.0625648833 -0.1515755576
0.0264140056 -0.0560738836 -0.0526410201
-0.0312044004 -0.0515217892 -0.1111598034
-0.0290214129 -0.0561021753 -0.0024820436
-0.0225050713 -0.0586126286 0.0151940691
-0.0292170274 -0.0577061004 -0.0116712689
-0.0377064640 -0.0505888006 -0.1691174632
-0.0212627763 -0.0509695180 -0.1890732447
-0.0339706383 -0.0602573715 -0.1649513297
-0.0040583653 -0.0533561793 -0.1947669967
-0.0340872529 -0.0528752075 -0.0580254292
-0.0309339234 -0.0589609012 -0.0436761380
-0.0317372023 -0.0602024024 -0.0829811451
-0.0376414535 -0.0538820909 -0.1111705023
0.0378285633 -0.0546125170 -0.1163132409
0.0369865805 -0.0595294766 -0.1381243172
0.0150931125 -0.0510381127 -0.1923861001
0.0339779754 -0.0605605984 -0.1612751234
0.0001709438 -0.0510149090 -0.1954481468
0.0294870841 -0.0557079551 -0.0072143180
0.0315407837 -0.0541823444 -0.0292303417
0.0200496237 -0.0601911283 0.0135243109
0.0279087362 -0.0575615826 0.0034847155
0.0313143883 -0.0590513888 -0.0476640060
0.0363868294 -0.0596284222 -0.1300688506
0.0356053822 -0.0577759419 -0.0932239777
-0.0274291473 -0.0600117358 -0.0167991344
-0.0088713500 -0.0608989124 0.0206417726
-0.0194061704 -0.0628015854 -0.0097689840
-0.0116584814 -0.0638125242 0.0027663346
-0.0159516192 -0.0624882929 0.0072153898
-0.0086104981 -0.0666167412 -0.1457250904
-0.0239331006 -0.0620181558 -0.0353836289
-0.0088629605 -0.0655256887 -0.0336111928
-0.0255645989 -0.0624113568 -0.0712223241
-0.0207050297 -0.0631762467 -0.0353821321
-0.0273775397 -0.0622198314 -0.0883898141
-0.0195955134 -0.0650308886 -0.1092952370
-0.0015331938 -0.0660642761 -0.0386562608
-0.0178993648 -0.0644076303 -0.0576224644
-0.0162620888 -0.0657115898 -0.1118284440
-0.0146133461 -0.0655530734 -0.0841686796
-0.0097140952 -0.0659195337 -0.0630566906
-0.0089742671 -0.0657434541 -0.0459189212
-0.0034731770 -0.0669744386 -0.0983031186
-0.0005698143 -0.0661698733 -0.0424734770
0.0005216212 -0.0663884212 -0.0554716293
-0.0089531447 -0.0663736637 -0.1558571559
-0.0210936900 -0.0618995569 -0.1782721340
-0.0210577112 -0.0631071553 -0.1726884538
-0.0294902346 -0.0624793889 -0.1518832186
-0.0354633778 -0.0603502014 -0.1450014631
-0.0098840306 -0.0650581399 -0.1712115545
-0.0254552588 -0.0639726014 -0.1450987484
-0.0185321008 -0.0653320315 -0.1519886910
0.0023822566 -0.0638537283 -0.1785664448
0.0257924554 -0.0637078577 -0.1289458876
0.0047141421 -0.0669256936 -0.1486973147
0.0214642288 -0.0638653800 -0.1655890463
0.0230585707 -0.0645969710 -0.1374919375
0.0244225446 -0.0616531492 -0.1744738642
0.0020541530 -0.0664822533 -0.1598740356
0.0094459041 -0.0645190254 -0.1743707113
0.0340845794 -0.0610550537 -0.1510977449
0.0098635389 -0.0650745978 -0.0243141499
0.0250068753 -0.0636785430 -0.1150766704
0.0260933683 -0.0629758571 -0.0972000511
0.0299011126 -0.0616627728 -0.1026189329
0.0233700877 -0.0625331988 -0.0475280280
0.0333816253 -0.0607323415 -0.1227542398
0.0088375662 -0.0669727177 -0.1431009683
0.0168720180 -0.0650361071 -0.0782874949
0.0164752913 -0.0657892243 -0.1146280449
0.0020996242 -0.0668692624 -0.0909435361
0.0209553988 -0.0645963270 -0.1052796141
0.0190869129 -0.0630293544 -0.0113964565
0.0124396512 -0.0659445904 -0.0898064647
0.0140392738 -0.0651344683 -0.0548598365
0.0045517008 -0.0661932410 -0.0523621668
0.0074221482 -0.0662980490 -0.0767462290
0.0288249945 -0.0608550040 -0.0642913351
0.0275008274 -0.0600966761 -0.0226563973
0.0190487934 -0.0622109227 0.0028294124
-0.0020056926 -0.0652982784 -0.0107988687
0.0152490903 -0.0640939939 -0.0165074722
0.0027228136 -0.0646272371 0.0038427245
-0.0318722995 -0.0503150925 -0.0574356645
0.0277149174 -0.0504655328 -0.0518224733
0.0254533319 0.0087245396 -0.2272076187
0.0193180442 -0.0191604543 -0.2275935449
0.0019738863 -0.0270128955 -0.2283485829
-0.0253474635 -0.0090093839 -0.2254590372
-0.0184963981 0.0194318275 -0.2293371843
-0.0072403194 0.0259414751 -0.2245085697
-0.0031239013 -0.0241123700 -0.2265449935
-0.0183062503 0.0104976095 -0.2263809297
0.0058182983 0.0234553825 -0.2265032432
-0.0212878111 -0.0074122238 -0.2264994349
0.0052545018 -0.0158889702 -0.2251193029
-0.0152749999 0.0040575591 -0.2233116442
0.0149475051 -0.0141825319 -0.2232920884
-0.0170561899 0.0156817453 -0.2232130676
0.0031566992 -0.0207406657 -0.2231796744
-0.0194089480 0.0005906983 -0.2232809161
0.0143782695 0.0179998029 -0.2241747880
0.0197295356 -0.0151070453 -0.2233500565
0.0140925255 0.0227917707 -0.2257730969
0.0181424160 0.0248462591 -0.2312307689
-0.0154713223 -0.0263409803 -0.2313186206
-0.0075450795 0.0267158102 -0.2310999930
0.0297957802 0.0109052334 -0.2313360283
-0.0015250155 0.0316849955 -0.2335833699
-0.0095938285 -0.0305241993 -0.2320997107
0.0243630425 -0.0185177293 -0.2343357784
-0.0209435135 0.0128764896 -0.2343499959
0.0260573186 0.0186646523 -0.2341967936
-0.0211439706 0.0231146252 -0.2343241157
-0.0106900675 -0.0285379203 -0.2345410827
0.0286197689 0.0016141858 -0.2345337047
-0.0154930053 -0.0193561814 -0.2279314644
0.0113228692 -0.0211710769 -0.2276050981
0.0243270277 0.0019299220 -0.2309488525
0.0074952094 0.0237504803 -0.2282113726
-0.0156454742 0.0189842048 -0.2309775977
0.0280383873 0.0120663965 -0.2331354950
-0.0131273342 0.0281298175 -0.2327278472
-0.0022604561 0.0212357105 -0.2250579704
0.0231443330 -0.0201205724 -0.2313675862
-0.0124559377 -0.0419754611 -0.1689328921
0.0157058710 -0.0445000008 -0.1422228577
-0.0087260685 -0.0441772622 -0.1399134149
0.0148455084 -0.0444401293 -0.1598168878
0.0178427243 -0.0444582397 -0.1487694789
-0.0223069026 -0.0397519463 -0.1580911650
0.0184997186 -0.0395000018 -0.1402748986
0.0175175454 -0.0395000018 -0.1474158271
-0.0141189970 -0.0395900025 -0.1619465321
-0.0050328647 -0.0395000018 -0.1344810943
-0.0130242429 -0.0392434982 -0.1343489162
0.0154893947 -0.0422312623 -0.1346768718
-0.0227742969 -0.0412350583 -0.1429732130
-0.0163046957 -0.0399161237 -0.1744794688
0.0161363604 -0.0383581805 -0.1750950694
0.0027854578 -0.0401330820 -0.1699570013
-0.0023792277 -0.0404118767 -0.1398790048
-0.0104046374 -0.0436095679 -0.1365989362
-0.0056866183 -0.0416440854 -0.1758036102
0.0200893093 -0.0425707289 -0.1478916196
0.0135563361 -0.0433302069 -0.1679096403
0.0019770195 -0.0404025380 -0.1342075462
0.0168915132 -0.0399224055 -0.1418124203
0.0130856723 -0.0403429437 -0.1713747408
-0.0124051886 -0.0425284965 -0.1735005595
-0.0254777386 -0.0441999994 -0.1551012482
