-0.0084345276 -0.0304569536 0.0565865469
-0.0144700907 -0.0281447985 0.0727109204
0.0046927675 0.0225008767 0.0574807432
0.0116239702 0.0262751589 0.0592829150
0.0089249479 0.0204104617 0.0576054827
0.0085296700 0.0242224320 0.0594676316
0.0035256078 0.0306996786 0.1696097037
-0.0048466037 0.0305963815 0.1386282035
-0.0047841681 0.0217201801 0.1372914312
0.0111168074 0.0253983000 0.1689542501
-0.0021319923 0.0320915430 0.1626399221
-0.0065127994 0.0249874947 0.1561242638
0.0019358154 0.0334905244 0.1498476306
0.0074788510 0.0320425996 0.1451910857
0.0057495880 0.0203529052 0.1429610395
0.0011288102 0.0199261360 0.1575268087
0.0074980619 0.0256568522 0.1346201397
-0.0077159277 0.0312829963 0.1357337882
-0.0048588140 0.0194296985 0.1392161858
-0.0066495644 0.0326663899 0.1344502515
-0.0007433896 0.0327022066 0.1313925892
0.0014426992 0.0194862537 0.1364787396
-0.0001028116 0.0220863462 0.1750611180
0.0045657650 0.0324108378 0.1718231284
0.0062497508 0.0208521648 0.1535131976
0.0112220963 0.0251396364 0.1469991270
0.0046278433 0.0331042620 0.1501362550
0.0064712312 0.0334223530 0.1692142016
-0.0076934491 0.0227324431 0.1499509899
0.0068949546 0.0231896462 0.1504790453
0.0093349965 0.0259154842 0.1565972493
0.0049205376 0.0237671573 0.1541048757
0.0028957526 -0.0088452636 0.0612190473
0.0008836119 -0.0060702299 0.0608635099
0.0036419636 -0.0030534961 0.0604472792
-0.0111340691 -0.0190658462 0.1278128734
-0.0102303847 -0.0229310166 0.1276709917
-0.0089743085 -0.0412623106 0.1079085822
-0.0109662166 -0.0388265678 0.0645538843
-0.0167793293 -0.0351332301 0.0592183854
-0.0244797121 0.0055787973 0.0641119492
-0.0211350440 -0.0034176783 0.0599335843
-0.0193195765 -0.0301475931 0.0694472159
-0.0204429613 -0.0269220529 0.0645388726
-0.0184297634 -0.0306666879 0.0776624754
-0.0128176077 -0.0365856080 0.0696829227
-0.0192987723 -0.0272188353 0.0562726268
-0.0119044401 -0.0352050174 0.0595858469
-0.0220063288 0.0003514558 0.0649148871
-0.0171125730 -0.0221206263 0.0844432495
-0.0106880722 -0.0371115514 0.0950049623
-0.0212441679 -0.0074455771 0.0720363418
-0.0207047564 -0.0135353947 0.0761852147
-0.0203637347 -0.0106242400 0.0560555814
-0.0203787405 -0.0235113726 0.0762826379
-0.0212446377 -0.0084649937 0.0641649535
-0.0170154869 0.0051951119 0.0848140247
-0.0124008516 0.0100927055 0.0967575097
-0.0145591873 -0.0173611383 0.0896204269
-0.0119315184 -0.0224734511 0.0988840337
-0.0121472201 0.0104151283 0.0992767227
-0.0157407870 -0.0048372666 0.0873342249
-0.0119136048 -0.0222982070 0.0995153586
-0.0119682962 -0.0018467098 0.1092813098
-0.0121409486 -0.0003584796 0.1050672429
-0.0116631657 -0.0150113039 0.1128332734
-0.0121464703 -0.0128018201 0.1040240452
-0.0117015671 0.0078695040 0.1140942113
-0.0113458105 0.0127406927 0.1188276721
-0.0114085017 0.0221410248 0.1108439860
-0.0111548906 0.0236304353 0.1143425971
-0.0115433914 -0.0138553190 0.1154170095
-0.0102984815 -0.0243515622 0.1231741361
-0.0102792296 0.0202708283 0.1257625781
-0.0111362982 0.0038452630 0.1217924008
-0.0113773543 0.0091924351 0.1195484072
-0.0167639013 0.0105597917 0.0861954734
-0.0229442548 0.0059299140 0.0629444674
-0.0097015169 0.0307746871 0.1254345650
-0.0082054255 0.0365705285 0.1229519298
-0.0110471582 0.0288235222 0.1099985742
-0.0098744205 -0.0356749468 0.1149388330
-0.0116129753 -0.0270584588 0.1026372581
-0.0108482126 -0.0298064794 0.1149605368
-0.0220274286 -0.0285483168 0.0715106882
-0.0132170842 -0.0388573590 0.0758177215
-0.0218565913 -0.0247768081 0.0772986956
-0.0164488772 -0.0363513000 0.0806824334
-0.0217678528 -0.0261525875 0.0564239819
-0.0241690122 0.0022890681 0.0661799467
-0.0170799430 -0.0297014938 0.0872604679
-0.0149655093 -0.0208422083 0.0943682412
-0.0137268878 -0.0268926458 0.0990848117
-0.0230349549 -0.0185714391 0.0701209718
-0.0232257447 -0.0129644664 0.0661040403
-0.0232720651 -0.0107583869 0.0666985924
-0.0209449038 -0.0139518476 0.0812602422
-0.0230005609 -0.0071687266 0.0739307656
-0.0150345805 -0.0125571166 0.0944056018
-0.0166270382 -0.0242152152 0.0890759423
-0.0199386935 -0.0251054198 0.0832619694
-0.0145516985 -0.0028552882 0.0978472077
-0.0146023581 -0.0150090684 0.0972369021
-0.0192405573 -0.0111155394 0.0848190638
-0.0131297587 0.0280010477 0.1104547592
-0.0123176852 0.0219482525 0.1246616749
-0.0125880393 0.0093673467 0.1265381845
-0.0132954176 0.0248437892 0.1113715252
-0.0132424563 -0.0184354811 0.1177051710
-0.0138592957 -0.0135726114 0.1069254380
-0.0143768555 -0.0005469320 0.1013614783
-0.0138579750 0.0010409349 0.1123148471
-0.0129502724 -0.0214500454 0.1194966663
-0.0134681849 0.0181615106 0.1127159939
-0.0133370219 0.0132529116 0.1178981671
-0.0122940096 -0.0122152315 0.1274365456
-0.0176550950 0.0051286410 0.0880283557
-0.0236893339 0.0013399576 0.0708514481
-0.0128404063 0.0319865424 0.1054254430
-0.0120616648 0.0288555335 0.1238901045
-0.0108862089 -0.0391833616 0.1109362415
-0.0134281854 -0.0247520197 0.1090638611
-0.0128301951 -0.0297073162 0.1117913974
-0.0126216140 0.0239461558 0.0953711005
-0.0167026401 -0.0113461786 0.0581301012
-0.0071905257 0.0050319593 0.0813785709
-0.0144077342 0.0106921658 0.0600289501
-0.0172551528 -0.0131513015 0.0599121467
-0.0169583720 -0.0187387221 0.0673092644
-0.0174058654 -0.0075230403 0.0783563259
-0.0179612113 0.0044931370 0.0803199513
-0.0178361555 0.0019450866 0.0813129024
-0.0167309851 -0.0227622555 0.0748360305
-0.0072284347 0.0058031006 0.0776777207
-0.0068442870 -0.0028460646 0.0745855061
-0.0066381932 -0.0068781478 0.0783633846
-0.0071807094 0.0038168697 0.0691432730
-0.0060256797 -0.0203487258 0.0762962835
-0.0065823093 -0.0102997263 0.0601608181
-0.0066151204 -0.0086658409 0.0668402137
-0.0105424099 0.0041324200 0.0577391360
-0.0157063345 -0.0209195114 0.0577717891
-0.0078448744 -0.0183366710 0.0577305736
-0.0146112947 0.0022772330 0.0825234694
-0.0165792808 0.0088757260 0.0825623942
-0.0109155491 -0.0012686794 0.0824865846
-0.0082930745 -0.0231589555 0.0703951980
-0.0088697090 0.0107445950 0.0763565766
-0.0164611094 0.0103933819 0.0587976752
-0.0095443363 -0.0258757102 0.0594901012
-0.0144761510 -0.0317470330 0.0623868041
-0.0090726523 -0.0280486146 0.0669449655
-0.0157266241 -0.0286325163 0.0667423593
-0.0092313970 -0.0314756727 0.0663155967
0.0183044568 -0.0184508233 0.0092801753
0.0217202065 -0.0144408809 0.0073046233
-0.0052322241 0.0144110028 0.0424820891
-0.0031465027 -0.0151099887 0.0454480769
-0.0131282264 0.0105870061 0.0189070771
-0.0159138783 0.0056365168 0.0221892533
-0.0154409807 -0.0067552537 0.0226735782
-0.0094357474 -0.0138321017 0.0246314579
-0.0044434089 -0.0161800348 0.0249258485
-0.0018408251 -0.0165012832 0.0382465857
-0.0052610077 0.0159894544 0.0326422991
-0.0041971080 0.0163344267 0.0324968361
0.0154880953 0.0047163463 0.0336678898
-0.0142327406 -0.0231636086 0.0120176290
-0.0016676413 -0.0273168787 0.0154175398
0.0117252220 -0.0246191896 0.0112140700
0.0123358583 -0.0243356259 0.0149879818
0.0253636886 -0.0094187308 0.0131576289
-0.0268753741 -0.0041008031 0.0178417575
-0.0206981122 -0.0177853452 0.0161461390
0.0201750395 0.0069751613 0.0259424704
-0.0017620017 0.0185698522 0.0126328148
0.0066529695 0.0173415840 0.0057946381
0.0170665934 0.0078976285 0.0125376538
0.0166391131 -0.0079846977 0.0059224968
0.0113591356 -0.0148234549 0.0104566153
0.0179580453 -0.0007204148 0.0322723054
-0.0248698210 0.0024678770 0.0089912403
-0.0041854748 -0.0255705715 0.0069106686
-0.0233426371 -0.0108123865 0.0034347357
-0.0235628684 0.0103431908 0.0052904227
-0.0114333762 0.0231374454 0.0081974754
0.0262890727 -0.0023868475 0.0106729562
0.0219025100 0.0002415666 0.0209585837
0.0033516066 0.0036002769 0.0539925574
0.0007969672 0.0226000007 0.0090777292
0.0228682097 0.0045769322 0.0310010847
0.0229569660 0.0023336391 0.0069570621
0.0068232244 0.0245489606 0.0030148139
0.0248320191 0.0076894245 0.0078715658
0.0159730759 -0.0201073370 0.0093438173
0.0190968902 -0.0006083549 0.0078321267
-0.0039060937 -0.0240952150 0.0029999996
0.0155720908 -0.0159179797 0.0029999996
0.0211841906 0.0023737108 0.0029999996
0.0107900358 0.0158497294 0.0029999996
-0.0192385358 -0.0068379168 0.0029999996
-0.0069297702 -0.0233268145 0.0029999996
-0.0172748249 -0.0117107219 0.0029999996
-0.0200151503 0.0058642301 0.0029999996
-0.0144786950 0.0204809849 0.0029999996
0.0246621067 0.0100752156 0.0207960214
0.0135650258 0.0219439725 0.0049471418
0.0226493706 0.0136937058 0.0107640186
-0.0185615709 0.0007159599 0.0041438337
-0.0055394027 -0.0179400077 0.0057677951
-0.0134039326 -0.0133665051 0.0075772747
-0.0187146558 -0.0027254158 0.0105513232
-0.0152490952 0.0102053514 0.0041182102
-0.0098069235 0.0157513312 0.0094134126
0.0171655344 0.0010436298 0.0194346104
0.0202145600 -0.0061559455 0.0285686939
0.0266944045 0.0046465379 0.0165943202
0.0198303341 0.0187398977 0.0156783775
0.0087277632 0.0257149279 0.0149423064
0.0042086628 0.0268876567 0.0159752430
-0.0117800435 0.0243273171 0.0112622151
-0.0190282514 0.0194010528 0.0149522924
-0.0272817383 0.0003327009 0.0146580814
-0.0017713098 -0.0213941224 0.0272634829
-0.0045536825 0.0218052971 0.0250980468
0.0121679981 0.0186368164 0.0258380042
0.0136387291 -0.0170934737 0.0248004811
0.0015433526 -0.0220523483 0.0263791938
-0.0066896042 -0.0213607534 0.0231485563
-0.0203595993 -0.0089719277 0.0186324602
-0.0222633765 0.0009622633 0.0233121271
-0.0174886006 0.0136373752 0.0249420252
0.0133089672 0.0117093651 0.0287956931
-0.0163162576 -0.0081917679 0.0276761813
0.0065630773 0.0047612679 0.0140000004
0.0043149184 -0.0071950322 0.0140000004
0.0042343014 0.0005614045 0.0140000004
-0.0001830731 -0.0027309067 0.0140000004
-0.0009241628 0.0045530481 0.0140000004
-0.0182956355 -0.0019155769 0.0140000004
-0.0115403769 -0.0119231306 0.0140000004
0.0131160317 -0.0093652024 0.0140000004
0.0147308332 0.0064021039 0.0140000004
0.0160000008 -0.0088467647 0.0268730605
0.0160000008 0.0156529746 0.0188842602
0.0082591300 0.0151719555 0.0175000001
0.0125194062 -0.0127885940 0.0175000001
0.0017958291 -0.0205685099 0.0175000001
-0.0179887592 -0.0130879091 0.0175000001
-0.0108785745 0.0148606952 0.0175000001
-0.0141823830 0.0072504120 0.0279820927
-0.0039403608 0.0258522465 0.0273231415
0.0192385499 -0.0045607418 0.0308841706
0.0198121545 -0.0112918911 0.0291685648
0.0204883166 0.0113340330 0.0261232386
-0.0094436486 -0.0197689804 0.0269498035
-0.0116851851 0.0132204832 0.0371616307
0.0135578241 -0.0100618752 0.0177902075
0.0141979054 0.0091189660 0.0211493972
0.0005902784 -0.0167000041 0.0234681726
0.0026448328 0.0164852352 0.0187726245
0.0087035487 0.0144014834 0.0303366970
0.0098024783 -0.0138469277 0.0331030839
0.0044953550 -0.0161217059 0.0346818637
-0.0091903030 0.0219071604 0.0386018983
0.0005290054 0.0250741362 0.0385016197
0.0148150699 0.0227445686 0.0223069644
0.0185334172 -0.0028574303 0.0387873939
0.0035149683 -0.0266027436 0.0209807033
0.0157455245 -0.0207898716 0.0288348693
-0.0200183531 -0.0174983282 0.0244186985
-0.0243235666 -0.0113976407 0.0217739841
-0.0196616439 0.0111469372 0.0309625636
-0.0166231018 0.0139300250 0.0353207028
0.0091897417 -0.0197680604 0.0317256443
0.0091760009 -0.0197670690 0.0400562330
0.0109121483 -0.0136580392 0.0445725722
0.0109109558 0.0155164251 0.0397759283
-0.0006699081 0.0199333689 0.0354749456
0.0063645826 0.0199627003 0.0287008613
-0.0142736880 0.0072863309 0.0409652217
-0.0090488465 0.0285196137 0.0495626778
-0.0099344125 0.0259984977 0.0474198928
0.0034257119 0.0262693423 0.0449992005
0.0130846944 0.0224150384 0.0306013020
0.0086483230 0.0243358162 0.0301083885
0.0094408438 0.0234740522 0.0402150064
0.0143198605 -0.0168715282 0.0425143234
0.0170421633 -0.0123138249 0.0376678064
0.0170665168 0.0059842434 0.0413431701
0.0173946560 -0.0081684368 0.0403398027
0.0095424187 -0.0251686879 0.0346035411
0.0077703154 -0.0258859533 0.0392027460
0.0100351844 -0.0246898772 0.0403265507
-0.0126176252 -0.0266909519 0.0450298255
-0.0170106568 -0.0199382387 0.0279634041
-0.0055514226 -0.0256519759 0.0358622702
-0.0055752083 -0.0256736988 0.0395304907
-0.0112484538 -0.0246052499 0.0346283625
-0.0205093479 0.0068311709 0.0327123337
-0.0217958172 0.0030093008 0.0317133009
-0.0183471466 -0.0108045230 0.0383477192
-0.0176177772 0.0029724087 0.0443316584
-0.0178337235 -0.0034495008 0.0469636346
0.0064093094 -0.0171196875 0.0501000024
-0.0046302531 -0.0199848853 0.0399045183
-0.0087501048 -0.0196201471 0.0384598856
-0.0125582126 -0.0190181393 0.0517881847
0.0020008761 0.0244742393 0.0463676832
0.0120759767 -0.0116451091 0.0410928552
-0.0026731908 0.0196855471 0.0410999993
0.0150570012 0.0046162979 0.0409051614
-0.0117993836 0.0211616374 0.0451206923
0.0119959637 0.0285171249 0.0514495739
0.0072336839 -0.0276211944 0.0439835213
0.0038580536 -0.0289096325 0.0457404132
-0.0186558659 -0.0050639525 0.0495268979
-0.0171428185 0.0122371224 0.0478716668
0.0125871420 0.0123783826 0.0526481784
0.0055909447 -0.0204189078 0.0492122847
-0.0144570856 -0.0288359698 0.0541096586
0.0056172159 0.0226478763 0.0546861015
0.0046010010 0.0148142698 0.0501000024
0.0082569768 0.0209457095 0.0529629986
0.0056114161 0.0295920768 0.0508650583
-0.0079697984 0.0205288483 0.0434924725
-0.0167320371 0.0081369485 0.0550798692
-0.0081226293 0.0305332523 0.0509897874
0.0151916887 -0.0041696832 0.0526095360
0.0150883741 -0.0067212577 0.0497326866
0.0073696592 -0.0319856885 0.0517358483
-0.0154132152 -0.0310850418 0.0533950203
-0.0196264152 -0.0226142009 0.0528053502
-0.0191601207 0.0064642854 0.0496858870
-0.0165956611 -0.0129889175 0.0523815723
-0.0152782462 -0.0199218948 0.0510506692
-0.0031150285 -0.0289360938 0.0520835585
0.0088687680 0.0157563570 0.0445838917
0.0028786332 -0.0127114682 0.0551000014
0.0058036226 -0.0145116811 0.0551000014
-0.0020805845 0.0158172552 0.0551000014
-0.0029209062 0.0193291285 0.0549502516
-0.0153135956 0.0009287963 0.0551000014
0.0144806602 0.0161895778 0.0550999954
-0.0092178182 -0.0335533297 0.0550997066
-0.0121261016 0.0317643866 0.0550998258
0.0123379403 0.0295975902 0.0551000296
0.0152150984 0.0105380101 0.0551001993
-0.0182681187 -0.0226501107 0.0550999797
0.0109019976 0.0157097581 0.0551000014
-0.0003757855 0.0189677058 0.0551000014
-0.0057026696 -0.0039050633 0.0551000014
0.0073513054 0.0229101762 0.0550988387
0.0011911023 -0.0154590621 0.0444566375
0.0015143316 0.0154159212 0.0458060173
0.0149650597 0.0039640705 0.0200816767
0.0154027816 -0.0018014912 0.0326826892
0.0077631128 -0.0240775529 0.0171650409
0.0140775323 -0.0207484195 0.0172718602
-0.0003446551 0.0250546701 0.0174232933
-0.0234894761 0.0103878035 0.0171886807
-0.0003520853 -0.0308888042 0.1397232794
0.0006068427 -0.0089236621 0.1418121303
0.0008209114 0.0226109288 0.1412872990
0.0008064966 0.0062640929 0.1387764793
-0.0121520262 -0.0331950648 0.0657873027
0.0109344985 0.0223759586 0.0576630061
0.0103433723 -0.0041046872 0.0551700824
0.0110857612 0.0104593077 0.0561007227
0.0073336119 -0.0106491484 0.1276138517
0.0067721353 -0.0261701619 0.0579562761
0.0131849273 -0.0085978749 0.0611569165
0.0130385740 -0.0229435057 0.0686548058
0.0116709818 0.0230262074 0.0588183922
0.0046834119 0.0072794122 0.0593717392
0.0111719332 0.0111411517 0.0595428225
0.0128948546 -0.0080757079 0.0586538803
-0.0071555882 0.0253241653 0.0567535503
0.0057800968 0.0125003785 0.0590661234
0.0044206265 0.0071966698 0.1350393208
0.0045399826 0.0279055730 0.1351481433
0.0045400019 -0.0116988272 0.1335296808
0.0045818668 -0.0269597483 0.1274077799
-0.0007595912 -0.0318427729 0.0556693065
-0.0061026569 -0.0394912873 0.1291653925
-0.0123773732 -0.0312045200 0.0891678204
-0.0093140563 0.0098123437 0.1145771898
-0.0097850272 0.0288712399 0.1060217811
-0.0113506359 -0.0338049091 0.0846504915
-0.0107909348 -0.0342372474 0.0640862686
-0.0094600046 0.0019513221 0.1072818405
-0.0094599915 -0.0256200924 0.1095084174
-0.0094599940 -0.0206193221 0.0958726967
-0.0094600003 -0.0070016323 0.1139746266
-0.0094599912 -0.0263577212 0.1009726553
-0.0092496114 0.0016648093 0.1011361500
-0.0090327405 0.0170022724 0.0967498642
-0.0092646296 0.0078223084 0.1075653482
-0.0090572902 0.0169050057 0.0986369351
-0.0093389700 -0.0074175957 0.1005993587
-0.0048988601 -0.0261786691 0.0551801366
0.0000981732 -0.0136309829 0.0552256728
-0.0082731000 -0.0333786568 0.0550998710
-0.0126312147 0.0230162701 0.0552528140
0.0064195620 -0.0293412803 0.0552271500
0.0128292312 0.0272423799 0.0552318178
-0.0064437495 -0.0202098073 0.0555473039
-0.0172610918 0.0034567429 0.0551000174
-0.0097135888 0.0006405663 0.0551000063
-0.0181175759 -0.0138432735 0.0550955197
0.0144044226 0.0109134019 0.0553185238
0.0007145244 0.0197642187 0.0551315473
0.0027488417 0.0009299203 0.0551424596
-0.0132154161 0.0186204482 0.0551100546
-0.0176477794 0.0225367860 0.0570741051
-0.0056659885 0.0025760273 0.1287022300
-0.0047834120 -0.0291528076 0.1270519338
0.0011479163 -0.0195190528 0.0568319857
0.0071986262 0.0110746518 0.0554980828
-0.0098982865 0.0252819053 0.0568529234
-0.0049631995 -0.0155928714 0.0566528246
-0.0064133246 0.0156035662 0.0574157672
-0.0185755979 0.0249882141 0.0564813004
-0.0039608799 0.0083107011 0.1291011277
-0.0054379403 0.0109499991 0.1349517542
-0.0061152696 0.0029499977 0.1347328019
-0.0041581046 0.0061575498 0.1311264461
0.0007460495 0.0094733409 0.1442310684
0.0014922153 0.0073377116 0.1305624894
-0.0008555263 0.0301824865 0.1371212015
0.0014841819 0.0223727391 0.1427089853
0.0032029248 0.0212147837 0.1288213549
-0.0063633574 0.0247648602 0.1402897152
-0.0076269206 0.0261962091 0.1367559851
-0.0014640923 -0.0078515197 0.1318743453
0.0015020841 -0.0159450844 0.1331215484
-0.0015261392 -0.0172779525 0.1283001599
-0.0066860372 -0.0089876921 0.1391656963
0.0023260698 -0.0135145256 0.1421089448
-0.0039770088 -0.0362388865 0.1266492600
0.0019095601 -0.0341222151 0.1411689740
-0.0060140377 -0.0324135338 0.1385431290
0.0021031728 -0.0350578537 0.1295923861
-0.0001279669 -0.0271730492 0.1358375641
0.0014477647 -0.0254590402 0.1282770328
-0.0178484370 -0.0249620084 0.0790181493
-0.0184669253 -0.0228954127 0.0585895282
-0.0198785588 -0.0016393681 0.0607991748
-0.0115626223 0.0295233572 0.0936693861
-0.0105790503 -0.0005654913 0.1078085681
-0.0102126657 0.0077774571 0.1120646053
-0.0105474146 0.0055514161 0.1071369240
-0.0105272044 0.0208202904 0.0984437347
-0.0106700735 0.0132929393 0.1031840092
-0.0104695181 -0.0137756315 0.1054697976
-0.0212232436 0.0091567561 0.0660357759
-0.0217158174 0.0104927683 0.0555454212
-0.0157349991 0.0170575854 0.0885689896
-0.0112145422 0.0187872657 0.0934695185
-0.0171948380 -0.0136495688 0.0813652843
-0.0110432675 -0.0038354511 0.0991821511
-0.0107699088 -0.0075639696 0.1015849210
-0.0099279605 -0.0250306878 0.1081642046
-0.0111396001 -0.0088382541 0.0983588506
-0.0124609545 -0.0138984509 0.0906835139
-0.0138897145 -0.0157615602 0.0875807669
-0.0110388535 0.0241526690 0.0937302358
-0.0064882016 0.0169801408 0.1318253229
-0.0094995541 -0.0019801500 0.1330401751
-0.0090561101 -0.0221657504 0.1289332677
-0.0078338406 0.0287928897 0.1286664654
-0.0206602951 -0.0070749838 0.0579949273
-0.0190991652 -0.0252776045 0.0801741483
-0.0212625055 -0.0184132063 0.0700124161
-0.0211865174 -0.0145506520 0.0720247318
-0.0202423799 -0.0144553342 0.0551279631
-0.0081299827 0.0370895856 0.0783745387
-0.0050901979 0.0377832592 0.0785765653
-0.0203796765 -0.0262035334 0.0625340398
-0.0036765310 0.0351060804 0.0580253640
-0.0020980042 0.0360084353 0.0604246068
-0.0139127103 0.0096655905 0.0912405879
-0.0210401151 -0.0038570750 0.0728364125
-0.0216322082 -0.0008274754 0.0695257639
-0.0128829267 0.0094649873 0.0957800179
-0.0162692194 -0.0157498936 0.0862460280
-0.0118189046 -0.0193290427 0.1048759117
-0.0124142091 -0.0156617837 0.0983843362
-0.0153052157 0.0005756849 0.0877919526
-0.0120549355 -0.0008291827 0.1075780193
-0.0125644092 0.0044702482 0.0988165425
-0.0119046356 0.0173488816 0.1033882434
-0.0103467551 0.0265013391 0.1223716753
-0.0102715707 -0.0060518156 0.1288922809
-0.0110748922 0.0092468150 0.1213643004
-0.0105854759 0.0003080809 0.1265723440
-0.0115002871 -0.0092026187 0.1159486826
-0.0108231383 -0.0089926692 0.1229187863
-0.0102697048 -0.0204259287 0.1259729272
-0.0115744338 0.0140922051 0.1140983755
-0.0117404277 0.0206941105 0.1040775971
-0.0118372044 -0.0139329855 0.1090840080
-0.0120145617 -0.0076318161 0.1068369679
-0.0110410887 -0.0317137779 0.1045345532
-0.0081599889 -0.0379981053 0.1232033164
-0.0084471279 -0.0393684211 0.1024256863
-0.0056539728 -0.0417319612 0.1233886788
-0.0110180859 -0.0330722315 0.1020573399
-0.0136648091 -0.0104294321 0.0923587817
-0.0070190573 -0.0404260558 0.0962169361
-0.0151321686 -0.0258123164 0.0876780703
-0.0114776585 -0.0350260375 0.0939493412
-0.0099420797 -0.0377321658 0.0704759894
-0.0133666730 -0.0357100866 0.0643094363
-0.0157883348 -0.0346775480 0.0773089463
-0.0053943891 -0.0395865303 0.0803752048
-0.0114850363 -0.0359287552 0.0612969168
0.0017318792 -0.0419321947 0.1278559582
-0.0073094210 0.0367752256 0.0978675074
-0.0058867867 0.0382720909 0.1246016054
-0.0090653808 0.0347285074 0.1192131533
-0.0107892290 0.0319978610 0.1066094012
-0.0000152119 0.0357754230 0.1326753262
-0.0035053073 -0.0382350467 0.0676994748
-0.0001797329 -0.0423770956 0.1153357963
0.0041760185 0.0376754167 0.0885561067
-0.0011501855 0.0382326938 0.1144811516
-0.0177201991 -0.0105426116 0.0800228304
-0.0191547198 -0.0257379552 0.0672199698
-0.0193454794 -0.0176286352 0.0700270864
-0.0192054381 -0.0133512663 0.0743143454
-0.0193001387 0.0035379906 0.0772219492
-0.0234311633 0.0106620460 0.0657106614
-0.0183159352 0.0128027460 0.0636186863
-0.0094479376 -0.0183432517 0.1144153345
-0.0089614419 0.0268033135 0.0589920028
-0.0089614291 -0.0131649455 0.0642045186
-0.0089614237 -0.0316470719 0.0809357010
-0.0089614363 0.0093020857 0.0633937604
-0.0089614301 -0.0108691180 0.0599164713
-0.0089614290 -0.0145299820 0.0840055426
-0.0089614316 -0.0058562983 0.0813523008
-0.0089614345 0.0040978969 0.0871770261
-0.0089614327 -0.0021398804 0.0837364726
-0.0089614332 -0.0009780677 0.0757225531
-0.0089614380 0.0158209131 0.0883662351
-0.0089614360 0.0083678496 0.0756547150
-0.0089614310 -0.0074777974 0.0730271135
-0.0090444403 -0.0348330880 0.0868464779
-0.0091251592 0.0197662431 0.1104483655
-0.0089613555 0.0251235710 0.0958303128
-0.0089613691 0.0285930974 0.1062320033
-0.0089614269 -0.0201750189 0.0613069968
-0.0089614428 0.0302875130 0.0691482567
-0.0113453283 -0.0113572222 0.0570999968
-0.0066206509 -0.0125170359 0.0570999980
-0.0107178101 0.0030078792 0.0570999980
-0.0167322324 -0.0207228218 0.0572367576
-0.0182409771 0.0115643355 0.0761004526
-0.0176328489 -0.0120962051 0.0574741864
-0.0139026243 -0.0246610734 0.0551667462
-0.0097018057 0.0324388550 0.0740782639
-0.0120975794 0.0218235954 0.0778479101
-0.0136891739 0.0102963312 0.0850841515
-0.0152614246 -0.0282679293 0.0708938605
0.0003966179 -0.0301572573 0.1258343895
0.0069668394 0.0247774207 0.1278541202
-0.0067061741 0.0038764638 0.0592428896
-0.0070144513 -0.0165292306 0.0583263023
-0.0107862061 -0.0314748047 0.0688448247
-0.0157822790 0.0211413047 0.0720545722
-0.0164468896 0.0173854601 0.0701123685
0.0074531697 0.0061063055 0.1277810186
0.0089658360 0.0120400466 0.1347332989
0.0135089565 0.0086282734 0.0561657915
0.0110667330 -0.0115047506 0.1363187620
0.0128650068 0.0003430852 0.0532428239
0.0120045894 -0.0020424272 0.0560234409
0.0120385581 0.0295110973 0.1340793249
0.0120385708 -0.0161236742 0.1276926308
0.0120385740 -0.0268184358 0.1272978644
0.0127069787 -0.0269585528 0.0647877958
0.0150787455 -0.0291645575 0.1282136999
0.0148765481 -0.0223192818 0.1285549445
0.0158044665 -0.0176546565 0.1226152548
0.0150481888 -0.0170934368 0.1294464062
0.0139931721 -0.0041902044 0.1322656807
0.0150705116 0.0054225340 0.1327354483
0.0147554853 0.0136063572 0.1306164736
0.0163849669 0.0103968238 0.1176687846
0.0160976803 0.0164576314 0.1153197798
0.0151548770 0.0224439534 0.1286414539
0.0156127697 0.0221149849 0.1168283556
0.0008244989 0.0378820061 0.0839644828
0.0062235089 0.0359226710 0.0697565739
0.0029802808 0.0383554117 0.1238488898
0.0089570386 0.0369866331 0.1088187771
0.0091309528 -0.0394249566 0.1072435957
0.0119533819 -0.0385127226 0.1237478709
0.0094209956 0.0334337143 0.0617711556
0.0124118049 -0.0305664549 0.0639845995
0.0113198001 -0.0301930956 0.1347544132
0.0090932655 -0.0058697257 0.1346671834
0.0073878408 0.0137960418 0.1328180125
0.0047884654 -0.0029779772 0.1323976921
0.0113210066 0.0233466048 0.1377886642
0.0142203608 0.0232726152 0.0711171003
0.0010386385 0.0167974555 0.1326404953
0.0120385659 0.0033109913 0.1288360997
0.0131438984 0.0243616621 0.0578144461
0.0052046501 0.0379479839 0.1004404672
0.0150661717 0.0258066724 0.0695891704
0.0151341810 0.0284927429 0.0822597627
0.0138129440 0.0307513116 0.0765004239
0.0118717274 0.0326051246 0.0678332979
0.0068914622 0.0380214588 0.1198281383
0.0155307493 0.0276012614 0.0988574831
0.0103744665 0.0354005667 0.0893829507
0.0082490069 0.0364200112 0.0889581993
0.0145489647 -0.0268131710 0.0685082350
0.0033192922 -0.0395836103 0.0816037743
0.0134144259 -0.0324883851 0.0818798600
0.0065519228 -0.0380816426 0.0754506827
0.0112817955 -0.0328866111 0.0662423864
0.0009118344 -0.0414096927 0.0993342708
0.0119646860 -0.0357520311 0.0935028510
0.0048495276 -0.0397650512 0.0854265681
0.0117152755 -0.0372644719 0.1122797657
0.0142306818 -0.0320456040 0.0887491366
0.0160463683 -0.0145009690 0.0647431378
0.0174299000 0.0035489676 0.0880676884
0.0162417835 -0.0149253593 0.0695270055
0.0167073246 0.0013239361 0.0663078127
0.0161401782 0.0078865464 0.0614672606
0.0158918333 0.0165843927 0.0642215391
0.0153509198 -0.0171142257 0.0601098835
0.0159872480 -0.0101139652 0.0609149067
0.0153059114 -0.0293478380 0.1066152986
0.0167556163 -0.0164749951 0.1055233763
0.0163710012 -0.0131082403 0.1185918581
0.0168870243 0.0007351058 0.1150831211
0.0168200187 -0.0104254009 0.1127798660
0.0170833147 0.0043867486 0.1101959937
0.0148600653 0.0295966778 0.1113862465
0.0159781270 0.0221820693 0.1057097957
0.0168879720 0.0126868792 0.1033965163
0.0165294214 -0.0210429219 0.0915327500
0.0164252786 -0.0226774825 0.0965878876
0.0168106998 0.0103887391 0.1103488038
0.0156413285 -0.0283483303 0.0953184281
0.0174477909 0.0030898176 0.0973297049
0.0162500302 0.0189313791 0.0741119461
0.0169042233 0.0082905933 0.0744596202
0.0169704926 -0.0115881848 0.0805098337
0.0167171258 -0.0089612191 0.0704316151
0.0170554000 0.0121462806 0.0873601942
0.0173289695 0.0065541337 0.0878377701
0.0159879284 -0.0211748562 0.0727837408
0.0130385591 0.0273030329 0.0789074401
0.0130385603 0.0203258217 0.0794805125
0.0140092460 0.0251653162 0.0886511262
0.0130570200 0.0174370710 0.0873901596
0.0137470967 0.0276928005 0.1027669514
0.0140975891 0.0239418741 0.1085580921
0.0130385598 0.0226301845 0.0954673497
0.0130385583 0.0294659542 0.0959445867
0.0133334323 0.0197165248 0.1241738460
0.0131468294 0.0234391864 0.1214439878
0.0130385656 0.0050094608 0.1214592393
0.0130385648 0.0072513184 0.1137211261
0.0141468216 0.0079119658 0.1132495925
0.0150482967 0.0111714070 0.1148185097
0.0137183984 0.0131954125 0.0983430770
0.0158309734 0.0092766362 0.0931146231
0.0155855507 0.0133270545 0.1012944517
0.0130385652 0.0061876294 0.1044953458
0.0130385664 0.0018962677 0.0990002247
0.0141521878 -0.0000520525 0.1070490449
0.0130385715 -0.0168935158 0.1161061778
0.0130385676 -0.0052266907 0.1216177076
0.0142147994 -0.0144568556 0.1254070321
0.0147637990 -0.0076464693 0.1238577212
0.0156525545 -0.0062987442 0.1097651555
0.0157514096 -0.0059962272 0.1077246583
0.0130385677 -0.0047837779 0.0948230580
0.0130385698 -0.0111765882 0.1049592778
0.0140367058 -0.0042574234 0.0923392119
0.0130385706 -0.0140019649 0.0752618047
0.0130385709 -0.0151073213 0.0760059288
0.0151594032 -0.0019750223 0.0766997918
0.0150359672 -0.0130891931 0.0742429733
0.0156549052 -0.0114947565 0.0841566545
0.0156310492 -0.0064117583 0.0773707282
0.0137711871 0.0102531274 0.0742429793
0.0155473832 0.0113835620 0.0828975803
0.0130385636 0.0111169353 0.0749531922
0.0130385670 0.0006848733 0.0823226873
0.0150293855 0.0139479295 0.0864824853
0.0130385744 -0.0252332160 0.0813648337
0.0136783276 -0.0277439965 0.0864276782
0.0143633893 -0.0217840852 0.0757348466
0.0130738526 -0.0322601964 0.1075731047
0.0146007332 -0.0252357879 0.0973874120
0.0146051620 -0.0255572015 0.0931788906
0.0130385752 -0.0255315843 0.1040393575
0.0141132323 -0.0256123982 0.1165717978
0.0130385767 -0.0318040775 0.1174154243
0.0131809173 -0.0225848207 0.1206394738
0.0052000251 0.0248229237 0.0615676814
0.0017224242 0.0112408041 0.1898469953
0.0033373727 0.0118981162 0.1975499809
0.0034983927 0.0095445431 0.2192468698
0.0031959769 0.0120902561 0.2052109218
0.0010244347 0.0044381244 0.1999769523
0.0038158234 0.0021164016 0.2023629819
0.0081697263 0.0034560593 0.2104621008
-0.0026229976 0.0052512420 0.1775064242
0.0037286215 0.0016990417 0.1940869352
-0.0019345495 0.0041033344 0.1767888053
-0.0008763176 0.0053999949 0.1682078667
0.0020905559 0.0100093579 0.1718103500
0.0083788047 0.0121279640 0.1845738915
0.0036066075 0.0126712467 0.1790658408
0.0048218423 0.0038861747 0.1712608723
0.0110317179 0.0047146582 0.1830519292
0.0095510216 0.0029013433 0.1937372684
0.0066712216 0.0055116874 0.1688596260
0.0072133097 -0.0066917171 0.0562926511
0.0081640109 -0.0236414030 0.0551653851
0.0081704621 -0.0236056274 0.0563759557
0.0008804707 -0.0079641230 0.1402125327
0.0009829765 -0.0078964791 0.1408407879
0.0020486753 -0.0165336520 0.1342292153
0.0015835064 -0.0201074185 0.1654996878
-0.0013364826 -0.0085529388 0.1642822100
0.0012774207 -0.0197081395 0.1524244813
-0.0037372728 -0.0068533162 0.1546746295
-0.0002286799 -0.0060148113 0.1526345821
0.0093868902 -0.0170075640 0.1421955402
-0.0031652980 -0.0195520516 0.1529650615
-0.0060984896 -0.0174311719 0.1334118710
0.0078777832 -0.0138260878 0.1324202195
-0.0081364654 -0.0173687509 0.1439058313
-0.0078898922 -0.0062916190 0.1398895312
0.0021546706 -0.0189180595 0.1411136641
-0.0019668352 -0.0188126079 0.1310251227
0.0024124637 -0.0175670040 0.1721259280
0.0059184054 -0.0076595007 0.1701473500
0.0095360473 -0.0088630425 0.1642847467
0.0112750636 -0.0117358993 0.1529873756
0.0107662421 -0.0160057073 0.1555802216
0.0062547666 -0.0204191033 0.1649200172
0.0067157111 -0.0078202940 0.1355415293
0.0049245602 -0.0169004061 0.1540203274
0.0061376521 -0.0149827218 0.1475752920
0.0043374724 -0.0143142356 0.1503447200
0.0014322836 -0.0250121285 0.1406558570
-0.0044313131 -0.0270092047 0.1379770285
0.0004032724 -0.0357305470 0.1364102725
0.0106898930 -0.0380169763 0.1683980488
-0.0026584486 -0.0265110070 0.1533596907
0.0017996995 -0.0266395637 0.1585797805
-0.0063967615 -0.0270825881 0.1493833406
0.0111608774 -0.0315189608 0.1412853408
-0.0001286858 -0.0400095501 0.1539823003
-0.0067372176 -0.0377022745 0.1479042674
-0.0085361435 -0.0365565411 0.1359149956
0.0073775234 -0.0262762049 0.1328063347
0.0041063628 -0.0254053266 0.1397125119
-0.0003365072 -0.0248487056 0.1418630683
0.0060298945 -0.0364547086 0.1322947869
-0.0003323795 -0.0382424383 0.1364976939
-0.0015736335 -0.0312253178 0.1695655640
-0.0031458860 -0.0310866301 0.1631638858
0.0097352297 -0.0280252287 0.1492620391
0.0110767723 -0.0316739681 0.1617398993
0.0104974793 -0.0362205651 0.1515141720
0.0097885781 -0.0355810119 0.1422533067
0.0071309632 -0.0275238199 0.1335863603
0.0079104087 -0.0367376479 0.1562170037
0.0074068072 -0.0335539648 0.1450247079
0.0038642655 -0.0362057878 0.1500861283
0.0063720270 -0.0399196663 0.2054037640
0.0090637731 -0.0343317570 0.1958922679
0.0006586156 -0.0378265088 0.2001214475
0.0055519108 -0.0315513014 0.1897132102
0.0014267399 -0.0367281351 0.1906800287
0.0081528461 -0.0317556386 0.1873405031
-0.0011594721 -0.0318303740 0.1753003640
0.0107385544 -0.0373768929 0.1784697903
0.0045124217 -0.0412360402 0.1762097438
0.0100909258 -0.0323609091 0.1740298022
-0.0015588621 -0.0373589444 0.1675334563
-0.0012489457 -0.0361060762 0.1676657394
0.0038362883 -0.0374065030 0.1661195385
0.0052909200 -0.0317324643 0.1700113385
-0.0143068185 0.0170613861 0.0658499971
-0.0134039021 0.0152050047 0.0590363432
-0.0091787779 0.0165200487 0.0675556996
-0.0218109189 0.0198135288 0.0625647098
-0.0140075750 0.0168205753 0.0578499995
-0.0193685966 0.0172821214 0.0693499967
-0.0507380184 0.0804445260 0.1112645607
-0.0454126074 0.0822224575 0.1137267977
-0.0417593149 0.0827772756 0.1182270835
-0.0423360193 0.0871753816 0.1271657062
-0.0456198103 0.0975719674 0.1292405068
-0.0488679285 0.0824065480 0.1230121294
-0.0521651426 0.0971775804 0.1329105878
-0.0516978963 0.0838709319 0.1221872249
-0.0536406071 0.0941842590 0.1243350507
-0.0467190507 0.0951878176 0.1155548647
-0.0453684055 0.0953595948 0.1157790255
-0.0479655604 0.0809525461 0.1161836333
-0.0396583394 0.0790936620 0.1124184287
-0.0376053935 0.0666284722 0.1015493184
-0.0370254567 0.0755810526 0.1054041746
-0.0397752149 0.0703028453 0.1032256127
-0.0413784205 0.0787514235 0.0921091208
-0.0501069142 0.0847021454 0.1037425771
-0.0454326911 0.0775483923 0.0944457253
-0.0395707142 0.0851052985 0.0996643274
-0.0374407432 0.0819411736 0.1133503903
-0.0401808690 0.0901148738 0.1088523557
-0.0383597758 0.0754321563 0.1110060643
-0.0382361972 0.0863866117 0.1003199127
-0.0344916941 0.0703221769 0.1052747438
-0.0426777794 0.0645148914 0.1021660263
-0.0330182766 0.0669014735 0.0945247791
-0.0490742050 0.0770251647 0.1116524741
-0.0327262401 0.0630143473 0.0961357103
-0.0517149293 0.0853470115 0.1039683209
-0.0376429391 0.0640469138 0.0966730093
-0.0485898395 0.0734766239 0.0885270114
-0.0397991575 0.0658628783 0.0924092260
-0.0459262566 0.0734732167 0.0835432943
-0.0502200205 0.0803878789 0.0956863853
-0.0383116282 0.0853786889 0.0955001729
-0.0251616558 0.0390030902 0.0851059434
-0.0381305258 0.0627912399 0.0875518955
-0.0378399595 0.0581109847 0.0959553070
-0.0395084931 0.0863701112 0.0937422256
-0.0263613433 0.0532982930 0.0811032403
-0.0194629584 0.0374629587 0.0707394673
-0.0294015029 0.0377421591 0.0753188964
-0.0375738666 0.0565019271 0.0850824258
-0.0266843366 0.0343890274 0.0820893856
-0.0374004156 0.0492048962 0.0885904143
-0.0348187852 0.0479039847 0.0912597982
-0.0387693693 0.0631426603 0.1013279737
-0.0301378567 0.0580013895 0.0973206935
-0.0334865360 0.0434641546 0.0899113155
-0.0302785884 0.0324232171 0.0785113735
-0.0366277104 0.0446363890 0.0849465021
-0.0208241794 0.0418478828 0.0717537235
-0.0182595516 0.0387249323 0.0766708225
-0.0365420969 0.0499163709 0.0780103981
-0.0400564054 0.0595133247 0.0889349695
-0.0468720565 0.0693882554 0.0940055929
-0.0407386317 0.0552765348 0.0865741621
-0.0368870153 0.0468059571 0.0805185923
-0.0292825098 0.0281923781 0.0702178745
-0.0413841544 0.0548664780 0.0926597758
-0.0330866245 0.0776206186 0.0931568405
-0.0274763092 0.0633693275 0.0880760401
-0.0222250353 0.0513149630 0.0784222736
-0.0203906360 0.0416599312 0.0830777475
-0.0268101062 0.0579770658 0.0942604355
-0.0184996287 0.0411777809 0.0784245433
-0.0342264103 0.0413061766 0.0779938024
-0.0470528956 0.0695714335 0.0860255306
-0.0223858297 0.0316105794 0.0545192396
-0.0305556783 0.0708862580 0.0883904263
-0.0222139377 0.0308598409 0.0803331259
-0.0180574435 0.0423340681 0.0705249901
-0.0258578481 0.0602443448 0.0871389951
-0.0302339668 0.0449467489 0.0561002980
-0.0331880457 0.0381745792 0.0720736885
-0.0191861557 0.0339386348 0.0545668796
-0.0417723924 0.0697383881 0.0735391011
-0.0334158040 0.0356248582 0.0690490413
-0.0433430392 0.0579026562 0.0804007622
-0.0360045730 0.0411635481 0.0704253562
-0.0288569262 0.0665616682 0.0843478044
-0.0222832587 0.0383822923 0.0855507478
-0.0309311772 0.0436344057 0.0552553497
-0.0386542445 0.0648738016 0.0688463870
-0.0431033596 0.0656073536 0.0724518502
-0.0338192669 0.0512089021 0.0586300394
-0.0323005924 0.0354424944 0.0565273272
-0.0438335533 0.0626910978 0.0755137721
-0.0315012649 0.0373680261 0.0522797605
-0.0198430471 0.0467825550 0.0696397175
-0.0282731337 0.0477690120 0.0564423032
-0.0319180789 0.0726735249 0.0801542894
-0.0280504066 0.0646211446 0.0760058481
-0.0300159848 0.0672630133 0.0753375764
-0.0395010332 0.0610198497 0.0684742512
-0.0339370799 0.0431363883 0.0594450423
-0.0407580379 0.0606695100 0.0701267233
-0.0426877659 0.0614117223 0.0776247448
-0.0351220464 0.0422486916 0.0703365392
-0.0171075929 0.0332686825 0.0763416570
-0.0268886966 0.0334811051 0.0522199056
-0.0306547222 0.0463387455 0.0546272806
-0.0246171709 0.0506861094 0.0930207960
-0.0199257679 0.0416068624 0.0849349481
-0.0262917353 0.0630106559 0.0949598671
-0.0140340148 0.0332990870 0.0716115884
-0.0213749596 0.0419845119 0.0662848266
-0.0313033761 0.0430731195 0.0601802558
-0.0328527476 0.0746189407 0.0777848991
-0.0269616959 0.0503814255 0.0561444254
-0.0260097399 0.0641901225 0.0878822924
-0.0313501499 0.0683247581 0.0705346850
-0.0273343105 0.0616287290 0.0670460414
-0.0181048859 0.0414712458 0.0530935528
-0.0252482070 0.0517562506 0.0573757345
-0.0265404383 0.0654207538 0.0803417184
-0.0249463482 0.0604722331 0.0732269489
-0.0167418912 0.0409857742 0.0745703501
-0.0245481830 0.0613422283 0.0823951670
-0.0208898766 0.0364253356 0.0677543666
-0.0137214028 0.0350893754 0.0655010094
-0.0158684369 0.0395579348 0.0588607180
-0.0192162155 0.0483425298 0.0699932528
-0.0215705583 0.0343226194 0.0714346177
-0.0275445174 0.0246134639 0.0606808878
-0.0188494168 0.0312438302 0.0559750199
-0.0252817371 0.0259838426 0.0567939026
-0.0189001599 0.0286557527 0.0702622764
-0.0432144113 0.0602996672 0.0865587211
-0.0110535440 0.0222660358 0.0608085545
0.0037626396 0.0332468389 0.2002960555
0.0060126211 0.0331326399 0.2027541193
0.0045380497 0.0296338678 0.2152683135
-0.0003229481 0.0281686415 0.2047203020
0.0091952050 0.0277858200 0.2026925785
0.0071848154 0.0291943883 0.2147381966
0.0029752239 0.0326374297 0.1881455677
0.0008978266 0.0222543673 0.1784266217
-0.0017749919 0.0256804828 0.1724078312
0.0065797695 0.0305079433 0.1718298807
0.0092349062 0.0323983705 0.1866672175
0.0099577612 0.0309967582 0.1971369048
0.0006249802 0.0242114464 0.1681413771
0.0105941836 0.0252097226 0.1922938506
0.0088082543 0.0228336979 0.1810953298
0.0068737550 0.0254654856 0.1692109041
0.0057699525 -0.0157798347 0.1674162476
0.0008072845 -0.0140747920 0.1962786736
0.0056767690 -0.0116337471 0.2095052511
0.0002933793 -0.0173609691 0.1892050941
0.0015202368 -0.0189877554 0.2101620891
0.0094983023 -0.0177248116 0.2001922802
0.0052392754 -0.0204889143 0.1960643557
0.0027661242 -0.0102921280 0.1901947984
0.0029874109 -0.0197409694 0.1887219775
0.0100021966 -0.0184597605 0.1781493169
0.0080727700 -0.0156930158 0.1711775665
0.0112293440 -0.0149702223 0.1770276916
0.0099335515 -0.0149076119 0.1990130229
0.0060791810 -0.0097826899 0.1903987568
0.0105526986 -0.0170297627 0.1867537046
0.0043747988 -0.0201965938 0.1812506632
0.0030161837 -0.0135862481 0.1719997557
-0.0002750229 0.0108582229 0.1721603322
-0.0050795219 0.0110796465 0.1435969315
-0.0081426983 0.0026140461 0.1388350895
0.0056673811 0.0024561108 0.1335520661
0.0101862534 0.0028429965 0.1696119841
-0.0035118755 0.0128751229 0.1566725403
0.0044139713 0.0002991023 0.1536257978
-0.0013076152 0.0138618524 0.1460780530
0.0053162804 0.0130660577 0.1425669346
0.0022380159 0.0002359088 0.1462988344
-0.0053990729 0.0008747697 0.1500719955
0.0031926246 0.0020064135 0.1304850835
0.0077643718 0.0089484692 0.1330215496
-0.0065409981 0.0005622316 0.1417209635
-0.0074466568 0.0129842986 0.1418486398
0.0041413534 0.0007019168 0.1367547044
-0.0048766167 0.0000985314 0.1420038161
-0.0029497942 0.0050011827 0.1653449963
0.0021915765 0.0133700670 0.1688316578
0.0113009557 0.0078097261 0.1651136521
0.0112301188 0.0073679638 0.1472783249
0.0108880547 0.0046995147 0.1500409734
-0.0088216211 0.0040279081 0.1482906757
0.0093505766 0.0061218943 0.1634116750
0.0083993123 0.0091184776 0.1475917186
0.0076753797 0.0063241457 0.1600957394
0.0049211934 0.0067150674 0.0617275390
0.0026391533 -0.0208449112 0.0563856335
0.0077178379 -0.0260626898 0.0595589812
0.0017303815 -0.0264935207 0.0581718304
0.0082549544 -0.0220158190 0.0558642035
0.0115581282 0.0046049521 0.0610761897
0.0024116250 0.0055037079 0.0579500012
0.0075140478 0.0086257206 0.0613127346
