0.1816451709 -0.0489999987 -0.0879296791
0.0602179683 -0.0489999987 -0.0822733533
0.1775142634 -0.0049999999 -0.0853751669
0.0623362437 -0.0049999999 -0.0856307922
0.1734378294 -0.0172931573 -0.0810000002
0.1920270283 -0.0243989708 -0.0810000002
0.1572808240 -0.0277673259 -0.0810000002
0.2026815233 -0.0382342356 -0.0810000002
0.2051487648 -0.0450120192 -0.0810000002
0.1529555068 -0.0471239022 -0.0810000002
0.1139465550 -0.0284592367 -0.0810000002
0.1166714251 -0.0261774944 -0.0810000002
0.0908538655 -0.0407604614 -0.0810000002
0.0773541280 -0.0215120169 -0.0810000002
0.1234371426 -0.0412471719 -0.0810000002
0.2645386360 -0.0489999987 -0.0848849624
0.2891138012 -0.0049999999 -0.0846218354
0.3056714252 -0.0419569636 -0.0810000002
0.3107922117 -0.0250555471 -0.0810000002
0.2546159193 -0.0278146935 -0.0810000002
0.2683829898 -0.0107177838 -0.0810000002
0.3408530957 -0.0301040125 -0.0810000002
0.2272069527 0.0049999999 -0.0870304224
0.2952324579 0.0051771455 -0.0863861257
0.1926667072 0.0489999987 -0.0880167175
0.2604686058 0.0489999987 -0.0888810065
0.2101980304 0.0322835227 -0.0810000002
0.2421326557 0.0380615336 -0.0810000002
0.2000486959 0.0199191737 -0.0810000002
0.1770466175 0.0361429857 -0.0810000002
0.1872684978 0.0388144331 -0.0810000002
0.2296998637 0.0476896193 -0.0810000002
0.3419159920 0.0338416128 -0.0810000002
0.2604610765 0.0426782543 -0.0810000002
0.2524184027 0.0148909906 -0.0810000002
0.2887855242 0.0119892598 -0.0810000002
0.2697623854 0.0081315253 -0.0810000002
0.0653570638 0.0049999999 -0.0822724006
0.0748748295 0.0489999987 -0.0899076702
0.1216914361 0.0258421033 -0.0810000002
0.1331742678 0.0406511379 -0.0810000002
0.1002699028 0.0312282538 -0.0810000002
0.0893184395 0.0403128020 -0.0810000002
0.0439265320 0.0479017855 -0.0810000002
0.4099859206 -0.0093195873 -0.0779210454
0.4367393361 -0.0008386101 -0.0820000023
0.3835727239 -0.0389152042 -0.0820000023
0.3918161691 0.0271790816 -0.0820000023
0.3981230321 0.0005780555 -0.0820000023
0.4118234425 0.0515586297 -0.0796619864
0.4416888337 0.0099609456 -0.0861988269
0.4367380237 -0.0254858876 -0.0808693007
-0.0055729821 -0.0582256542 -0.0737827358
-0.0139058840 -0.0571227916 -0.0890920851
-0.0235937185 -0.0538403496 -0.0890517705
-0.0167605189 0.0563578940 -0.0843937786
0.2568814831 0.0590000004 -0.0769546980
0.2515003305 0.0590000004 -0.0751496078
0.1373137920 0.0590000004 -0.0885006118
0.0863727005 0.0590000004 -0.0791918881
0.1335365559 0.0590000004 -0.0767252233
0.2028193901 0.0590000004 -0.0862352142
0.3169092076 0.0590000004 -0.0813469212
-0.0188995464 0.0492548606 -0.0900000036
-0.0460306903 0.0288531348 -0.0900000036
-0.0377663971 -0.0309069118 -0.0900000036
-0.0180483315 -0.0515295644 -0.0900000036
0.0476774351 -0.0257768692 -0.0900000036
0.3774111320 -0.0522199361 -0.0900000036
0.3412818835 0.0170085213 -0.0900000036
0.4369155093 -0.0200335237 -0.0900000036
0.3816451658 0.0460836699 -0.0900000036
0.1398511674 0.0487214262 -0.0900000036
0.0302873245 -0.0525072930 -0.0900000036
0.1043129896 -0.0034314535 -0.0900000036
0.2428909687 0.0112145772 -0.0900000036
0.2444057996 -0.0074133995 -0.0900000036
0.3272376647 -0.0494107633 -0.0900000036
0.0664952726 0.0534837651 -0.0900000036
0.1674737317 0.0571985106 -0.0900000036
0.3196024877 0.0550286600 -0.0900000036
0.2015249782 0.0019204442 -0.0900000036
0.2884509349 0.0009651182 -0.0900000036
0.1179526369 -0.0586823509 -0.0900000036
0.2760490509 -0.0540334125 -0.0900000036
0.2972683387 -0.0552852366 -0.0900000036
0.2291542732 -0.0590000004 -0.0764580241
0.0850122400 -0.0590000004 -0.0749153664
0.2355209890 -0.0590000004 -0.0823569152
0.3093443213 -0.0590000004 -0.0753681166
0.3072790709 -0.0590000004 -0.0793918010
0.0609402830 -0.0590000004 -0.0894384323
0.0198190041 -0.0586761255 -0.0895022968
0.2739383390 0.0057503828 -0.0729999989
0.3415852821 -0.0068113906 -0.0729999989
0.1061693441 -0.0377403878 -0.0729999989
0.2632435546 -0.0474619562 -0.0729999989
0.1316516073 -0.0578530022 -0.0729999989
0.2877805533 -0.0157517108 -0.0729999989
0.3283483743 -0.0520276764 -0.0729999989
0.0300440591 -0.0577306541 -0.0729999989
0.1873060688 -0.0383924632 -0.0729999989
0.0982292313 -0.0454273304 -0.0729999989
0.1836441191 -0.0461962461 -0.0729999989
0.1497875024 -0.0462597861 -0.0729999989
0.2298331680 -0.0376369360 -0.0729999989
0.2585052819 -0.0119213542 -0.0729999989
0.2167240105 -0.0557506939 -0.0729999989
0.1172746037 -0.0396930563 -0.0729999989
0.2451864030 -0.0433147286 -0.0729999989
0.3826395613 -0.0587065752 -0.0729999989
0.0486686664 -0.0401611673 -0.0729999989
0.1478279555 -0.0241791846 -0.0729999989
0.0725150327 -0.0114402165 -0.0729999989
0.2003937470 0.0381849019 -0.0729999989
0.1603219054 0.0418716691 -0.0729999989
0.1795928273 0.0435107954 -0.0729999989
0.2478546515 0.0340050345 -0.0729999989
0.2944546804 0.0475139552 -0.0729999989
0.1639390254 0.0574879365 -0.0729999989
0.3255626157 0.0538855324 -0.0729999989
0.1922644189 0.0510988877 -0.0729999989
0.3121328243 0.0507999764 -0.0729999989
0.0395538030 0.0465193976 -0.0729999989
0.0640303371 0.0287069676 -0.0729999989
0.0885188286 0.0093489904 -0.0729999989
0.1002570502 0.0084641630 -0.0729999989
0.1274477905 0.0247046539 -0.0729999989
0.0915072898 0.0090416341 -0.0729999989
0.1956679097 -0.0065313441 -0.0729999989
0.1295217567 -0.0037497765 -0.0729999989
0.1472754185 -0.0021067699 -0.0729999989
0.0610946724 -0.0343485993 -0.0729999989
0.1204048890 -0.0073823720 -0.0729999989
-0.0021391703 -0.0559607768 -0.0729999989
-0.0437065304 0.0296038584 -0.0729999989
0.3923081635 -0.0504284626 -0.0729999989
0.1786427991 0.0314028269 -0.0729999989
0.1931195464 0.0306740666 -0.0729999989
0.1972975948 0.0300755705 -0.0729999989
0.0300594336 0.0533152436 -0.0729999989
0.0529819643 0.0463773336 -0.0729999989
0.2402373577 0.0134861043 -0.0729999989
0.3626680193 -0.0451542644 -0.0729999989
0.0089462491 0.0113273675 -0.0780000016
0.0078196013 -0.0096703875 -0.0801980109
0.3868308332 0.0064481144 -0.0792712565
-0.0466512654 -0.0068359642 -0.0879158590
-0.0347724326 -0.0314241903 -0.0847405033
-0.0021260604 0.0467810997 -0.0847425492
0.0464139574 -0.0086122090 -0.0814588158
-0.0323770445 -0.0008190043 -0.0839999989
-0.0027775090 0.0430165735 -0.0839999989
-0.0446127674 0.0108489510 -0.0839999989
0.0015799733 -0.0171458964 -0.0839999989
0.3914179585 -0.0470279203 -0.0864151191
0.4232515618 -0.0333231765 -0.0827590276
0.3473225290 -0.0196132992 -0.0829124115
0.3547020490 0.0311861206 -0.0880752286
0.4303150466 0.0241206880 -0.0864497288
-0.0544999987 0.0002758233 -0.0853478182
0.0168312465 -0.0567195428 -0.0790000036
0.3683611146 -0.0537836496 -0.0890314127
0.1523114088 -0.0546925452 -0.0869999975
0.2442201597 -0.0548865783 -0.0799118571
0.3754238188 -0.0544036890 -0.0790000036
0.1385071204 0.0531786295 -0.0894372876
0.0352820189 0.0568549692 -0.0869999975
0.1588470588 0.0567117714 -0.0790000036
0.2660651115 0.0551936953 -0.0870318737
0.4284999967 -0.0034454185 -0.0849226340
0.4345107338 -0.0218039311 -0.0748151113
0.3840415309 -0.0237231874 -0.0755000040
0.3555292711 0.0330413436 -0.0755000040
0.4338771040 -0.0181195745 -0.0755000040
0.4227715087 0.0115198495 -0.0755000040
-0.0169545534 0.0456633666 -0.0755000040
-0.0015727368 -0.0299164733 -0.0755000040
0.0007515540 0.0311458500 -0.0755000040
-0.0273490962 -0.0041805504 -0.0755000040
0.0188429672 -0.0463550861 -0.0755000040
-0.0481107841 -0.0205926974 -0.0747406435
-0.0519615114 0.0075031974 -0.0747798821
0.0137203975 -0.0195947583 -0.0832559968
0.3808061605 0.0100430493 -0.0781991101
0.4085077210 0.0090530508 -0.0790461950
0.0119653936 -0.0132587954 -0.0768984789
0.0377944021 0.0438458544 -0.0888049060
0.0559059462 -0.0122090681 -0.0859971192
0.1475164414 0.0091354232 -0.0839097886
0.2504999936 0.0336147152 -0.0893448374
0.2424614763 -0.0157751255 -0.0890279852
0.1394776957 -0.0307604974 -0.0899729523
0.2395826187 0.0489173813 -0.0836239461
0.0461863139 -0.0623689947 -0.0794757735
0.3121541167 -0.0621697642 -0.0945260340
0.2378247083 -0.0619987717 -0.0960104791
0.1942476237 -0.0620550337 -0.0952270454
0.1851140231 -0.0588462842 -0.1044811214
0.0527747826 -0.0524011051 -0.1092581936
0.1074884851 -0.0577505484 -0.1053246542
0.0523227399 -0.0613373644 -0.1002961587
0.1722953007 0.0621905528 -0.0927423443
0.1638665448 0.0566250582 -0.1064412913
0.3089212395 0.0591038224 -0.1043623849
0.0147726061 0.0622613416 -0.0825552534
0.4379103374 0.0027151706 -0.1110927133
0.1702151918 0.0361852069 -0.1163526436
0.2674808960 0.0374186810 -0.1159092957
0.2283365346 -0.0529148238 -0.1089810431
0.1618855843 -0.0511039874 -0.1099526653
0.0460878952 -0.0458948978 -0.1125357509
0.1294521425 -0.0452784689 -0.1128370658
0.2311557343 -0.0452485666 -0.1128603349
0.3175628464 -0.0422900655 -0.1141499447
0.2020620305 -0.0405121906 -0.1147940275
0.2911214762 -0.0356074519 -0.1165775973
0.3422530377 -0.0386544817 -0.1154714012
-0.0104843868 -0.0606473776 -0.0783405637
0.0743702044 0.0581412388 -0.1052380682
0.0267238151 0.0547543281 -0.1078107378
0.3526062718 0.0623516942 -0.0848537743
0.3704740235 0.0615962351 -0.0977496104
0.2944932763 0.0620905217 -0.0945812957
0.3568444824 0.0583884282 -0.1048933241
0.0267152819 -0.0619461856 -0.0968401815
0.1060247396 -0.0620785439 -0.0946681478
0.3658962570 -0.0623535983 -0.0815587638
0.2630989054 -0.0622362159 -0.0943778717
0.3021103844 -0.0533083024 -0.1087147177
0.3003214583 -0.0569395575 -0.1061129651
0.4381233152 -0.0065045387 -0.1105613405
0.4393028268 0.0099978738 -0.1098689640
0.3847628884 -0.0608820203 -0.1011474456
0.4242949798 -0.0492446748 -0.1020909599
0.4510444466 -0.0061414502 -0.0974614882
0.4127697427 -0.0574871949 -0.0894913001
0.3777176546 -0.0619479491 -0.0945532777
0.4158434824 -0.0564272410 -0.0873676643
-0.0416588713 -0.0446997335 -0.0945367102
-0.0029905799 -0.0612555789 -0.0866902851
-0.0479225505 0.0391731629 -0.0841655981
-0.0308625223 0.0537370654 -0.0879741337
-0.0187414228 0.0591343190 -0.0935182135
0.1678256328 0.0623695085 -0.0881046070
0.1905988107 0.0623692145 -0.0846332841
0.1507316758 0.0623672905 -0.0835340826
0.2707417274 0.0623694494 -0.0762422548
-0.0605417793 0.0145742508 -0.0762775819
0.0968156506 0.0623621121 -0.0891972239
0.4023229894 0.0604495393 -0.0854181706
0.4443111550 0.0302683932 -0.0791168428
0.4485743649 -0.0204739805 -0.0870904368
0.4223164848 -0.0530589741 -0.0837090607
0.1645025806 -0.0623685321 -0.0831862628
0.2302943834 -0.0623663556 -0.0811634334
0.2017850608 -0.0623670224 -0.0806641784
0.1455856534 -0.0623679751 -0.0896094812
-0.0507818069 -0.0014552615 -0.1095434049
-0.0542770527 -0.0024391025 -0.1075008126
-0.0081097877 0.0556129836 -0.1057189496
-0.0592288601 0.0017097169 -0.1032232075
-0.0284002508 0.0546847443 -0.0989783862
0.1175515829 0.0388241086 -0.1153976915
0.0619682809 0.0378355432 -0.1157550364
0.0418418020 0.0462977844 -0.1123947676
0.0143100414 0.0432766041 -0.1137480154
0.3128805958 0.0441857292 -0.1133273634
0.1458654953 0.0499670116 -0.1106250623
0.2386065579 0.0545501285 -0.1078191749
0.3794483264 -0.0557999993 -0.1034002767
0.0248945502 -0.0557999984 -0.0903488945
0.3266694523 -0.0063187383 -0.1218485703
0.3611848837 -0.0029530059 -0.1219744670
0.0250531685 -0.0335254543 -0.1171272958
0.1954096684 -0.0348871048 -0.1167952348
0.0307382700 -0.0007616639 -0.1220343732
0.0485454094 -0.0142864905 -0.1211794778
0.0849484121 -0.0089618672 -0.1216402339
0.2602286734 -0.0033697034 -0.1220560973
0.2092981669 -0.0123131527 -0.1213677775
0.2416398117 -0.0096942507 -0.1215706638
0.1522706632 -0.0078823574 -0.1217110609
0.2797894768 -0.0317666866 -0.1176558847
0.3564961367 -0.0310090206 -0.1179060705
0.1370463319 -0.0254012359 -0.1193301831
0.2154370117 -0.0251679864 -0.1193648915
0.0964190944 -0.0176976824 -0.1207008087
0.1624144963 -0.0185344616 -0.1205806213
0.1925642427 0.0251030670 -0.1193596173
0.2315984276 0.0264198966 -0.1190997862
0.3440787749 0.0105019327 -0.1215344397
0.3822612751 0.0201422067 -0.1203331058
0.1638532926 0.0113199441 -0.1214448658
0.1828712726 0.0070399819 -0.1217764047
0.1880149895 0.0073813244 -0.1217499660
0.0398144127 0.0048394420 -0.1219247219
0.0427588863 0.0172475710 -0.1208240784
0.1987532224 0.0332339751 -0.1172870546
0.3449128047 0.0281689969 -0.1187050595
0.2218141080 0.0292188599 -0.1184121678
0.0317671076 0.0302306913 -0.1181276553
0.1856206788 0.0182788800 -0.1206623891
0.2997474460 0.0205684787 -0.1203027454
0.2446790114 0.0244241720 -0.1194923112
0.0984627023 0.0018608078 -0.1080502351
0.4179999828 -0.0040483544 -0.1028554077
0.3896907421 -0.0271353659 -0.1186222948
0.3451370692 0.0021121859 -0.1220380309
0.4338451906 0.0109432370 -0.1125224898
0.4079298094 0.0209630309 -0.1185560347
0.4285565878 -0.0097582633 -0.1148293699
0.3721269317 -0.0369742397 -0.1157886860
-0.0008755927 -0.0102880715 -0.1213691081
0.0096981873 -0.0422458299 -0.1138458068
-0.0296129361 0.0178721045 -0.1166420419
-0.0168907354 0.0076545269 -0.1202264625
-0.0196835064 -0.0356790713 -0.1142783768
-0.0300464609 -0.0020227937 -0.1177064039
0.0557158617 -0.0623089955 -0.0760723549
0.0714251060 -0.0616213815 -0.0760557782
0.3796630684 -0.0602925716 -0.0760573290
0.2396953971 0.0608676977 -0.0760390806
0.2160198823 0.0622238090 -0.0760691726
-0.0458547639 -0.0370788679 -0.0757420641
0.0831161292 0.0590999991 -0.0739028061
0.4489232378 -0.0025250431 -0.0750818066
0.1001176121 -0.0591000011 -0.0739294969
0.2425184050 0.0039336674 -0.1249190306
0.3596748778 0.0082200400 -0.1247091086
0.2662864850 0.0001503958 -0.1251043374
0.1184917697 0.0072884173 -0.1247341332
0.1937641360 0.0064652594 -0.1247931835
0.2392258325 0.0111856159 -0.1245443836
0.1360762266 0.0142151657 -0.1241225559
0.3107456584 0.0124462743 -0.1244344586
0.2539694486 0.0206871414 -0.1232216924
0.2512073950 0.0222635785 -0.1229930090
0.2213609277 0.0179019876 -0.1236121939
0.0523804909 0.0311905620 -0.1208509951
0.1837539894 0.0273531157 -0.1218161464
0.0991931920 0.0261617256 -0.1220448925
0.1439846342 0.0315045709 -0.1208170391
0.1009344566 0.0325969471 -0.1205469606
0.2782783584 0.0330497555 -0.1204138194
0.0502754085 0.0347156113 -0.1200193812
0.3617237802 -0.0448264687 -0.1163679788
0.3757178537 0.0013624756 -0.1250416243
0.4156394122 0.0303679456 -0.1177706924
0.3919524552 -0.0042527915 -0.1244961667
0.4146165116 -0.0290704105 -0.1184619385
0.4031970334 0.0430977636 -0.1156999030
0.3915551908 -0.0321315963 -0.1205345183
0.2236911975 -0.0329103966 -0.1204209711
0.1912360405 -0.0328595553 -0.1204360929
0.2746245627 -0.0331310681 -0.1203616911
0.3268428936 -0.0245490098 -0.1225716118
0.3009126906 -0.0288726819 -0.1214577668
0.2030155379 -0.0277155049 -0.1217444781
0.2686874282 -0.0223988404 -0.1229597768
0.1477161662 -0.0222538721 -0.1230008019
0.1722683195 -0.0165706365 -0.1237755613
0.2561802288 -0.0125188201 -0.1244043595
0.3507624708 -0.0185922788 -0.1235282919
0.0959200583 -0.0075732582 -0.1247163743
0.0808017790 -0.0092056876 -0.1246242389
0.1015948575 -0.0104386214 -0.1245614225
0.2930810193 -0.0065271853 -0.1247971997
0.3542817880 -0.0081294498 -0.1247200105
0.1982846208 -0.0043861760 -0.1249003453
0.0041255780 0.0360615238 -0.1193218218
-0.0352519122 0.0337747954 -0.1138831806
-0.0231680188 -0.0365332374 -0.1164364206
-0.0011428837 -0.0420173384 -0.1168671844
-0.0332288424 -0.0274834081 -0.1165729154
-0.0200932295 0.0173477961 -0.1219027316
0.1284393716 -0.0344557426 -0.1200134211
0.0667646478 -0.0403573726 -0.1180632379
-0.0325621349 -0.0406110909 -0.1123019675
0.3536803465 -0.0412392344 -0.1176969478
0.2886437666 -0.0397119929 -0.1182705050
0.1770964058 -0.0622380200 -0.0732201849
0.0546441541 -0.0646370989 -0.0742088217
0.2153695023 -0.0620249202 -0.1055080356
0.3560401909 -0.0597210117 -0.0730225510
0.2898254974 -0.0647154498 -0.0742521117
0.2894154555 -0.0622372668 -0.1052762293
0.1586774444 -0.0642031904 -0.1013583845
0.2441401703 -0.0642764051 -0.1012609815
0.2222405161 -0.0652721010 -0.0818104174
0.1228523518 -0.0653137751 -0.0816871956
0.3414488206 -0.0652043058 -0.0791224159
0.2921227524 -0.0652966428 -0.0904702370
0.1982011460 -0.0652455270 -0.0759444869
0.3724337116 -0.0453934279 -0.1160309731
0.0790722296 -0.0651038393 -0.0968658144
0.2903319677 -0.0649746130 -0.0991622437
0.3740995672 -0.0651378053 -0.0910053119
0.4174034074 -0.0579889628 -0.0767254296
0.0167313248 -0.0652878588 -0.0849676856
0.0411039802 -0.0653230985 -0.0778111189
0.2216921113 -0.0652850000 -0.0915962039
0.1603116849 -0.0652819724 -0.0904783499
0.4372216362 -0.0447490975 -0.0846357371
0.2630652793 -0.0601630507 -0.1074002899
0.0793327414 -0.0563858662 -0.1101553306
0.2713371591 -0.0577932141 -0.1093055817
0.4352745211 -0.0221283560 -0.1134312564
0.4369618996 -0.0276525330 -0.1111415271
0.4216023947 0.0538590478 -0.0735653294
0.3441106417 0.0427268868 -0.1171572995
0.3447682735 0.0437028486 -0.1167905307
0.1959714300 0.0403234562 -0.1180170102
0.0969445420 0.0376187348 -0.1189819097
0.3274892612 0.0503489379 -0.1137178727
0.1685158108 0.0501898628 -0.1138080311
0.1561674184 0.0453962977 -0.1160505978
0.0649618566 0.0510905641 -0.1133744010
0.3170902911 0.0648251013 -0.0745479860
0.3707617450 0.0530236302 -0.1122616762
0.1776014948 0.0570814388 -0.1097140582
0.1473605822 0.0532476902 -0.1121797293
-0.0164782179 0.0547394321 -0.1093597305
0.1222244108 0.0612126715 -0.0731105683
0.1773085837 0.0596824100 -0.0730229684
0.0553942115 0.0647365504 -0.0742946336
-0.0004870254 0.0637469494 -0.0778529338
-0.0650395758 0.0017407482 -0.0758183929
-0.0495721759 0.0199448031 -0.1112458390
-0.0430911803 -0.0484575783 -0.0909009062
-0.0616028192 -0.0200698571 -0.0871947437
0.1015122109 0.0652660789 -0.0789642279
0.2655057142 0.0653045304 -0.0816887687
0.2239230873 0.0652807043 -0.0851869328
0.2995451190 0.0653211929 -0.0796707792
0.3054999299 0.0653103333 -0.0834169913
-0.0586489049 0.0279287707 -0.0807589565
-0.0287687069 0.0581251644 -0.0949813751
0.0651366338 0.0652370536 -0.0878469776
0.0263264047 0.0652515664 -0.0768645555
0.0912444822 0.0652367834 -0.0907467223
0.0631693140 0.0652407088 -0.0859098916
0.3855669052 0.0648237398 -0.0845255133
0.4301400974 0.0513400749 -0.0765589644
0.4526991580 0.0177654438 -0.0837750391
-0.0331743826 -0.0557169949 -0.0965390986
0.4539624145 0.0102521604 -0.0951610685
0.0573042010 0.0649970959 -0.0979654490
0.3588126312 0.0648419829 -0.0991243385
0.2041490127 0.0645997787 -0.1009387853
-0.0628452992 -0.0139372096 -0.0986693487
-0.0018317727 0.0627199190 -0.1032897121
0.4499870298 0.0217490119 -0.1010248737
0.2492467798 0.0639251654 -0.1028838774
0.1372663809 0.0643746360 -0.1017612755
0.2129178707 0.0628668097 -0.1045583433
-0.0585107120 0.0078980792 -0.1077214748
0.1889117042 0.0612501429 -0.1063954918
0.2082921454 0.0598137720 -0.1077272855
0.4380663761 0.0388892781 -0.1052595192
0.4210528759 -0.0506681134 -0.1074311461
0.0925221023 0.0585994490 -0.1087251193
-0.0299171437 -0.0575776448 -0.0882993999
-0.0128108337 -0.0620386583 -0.1006508990
0.0005761141 -0.0646204737 -0.0936377447
0.4471097310 -0.0309990573 -0.0859843173
0.1944532477 -0.0542562135 -0.1115732776
0.1351798980 -0.0507160897 -0.1135733327
0.3586688977 -0.0454510302 -0.1161133734
0.2203915305 -0.0457821480 -0.1158761537
0.0386130985 -0.0482556991 -0.1146394903
0.1907242614 -0.0447500439 -0.1163185106
0.4150000063 0.0043167481 -0.1189298607
0.4000000060 -0.0006361913 -0.1129890364
0.2917098839 0.0019308348 -0.0983983093
0.0910540943 -0.0015212195 -0.1077889688
0.2884659525 -0.0017303157 -0.1137764128
0.1095935289 0.0010400111 -0.1099337328
0.0965179988 0.0123814103 -0.1076986988
0.2962724548 0.0079705029 -0.1006669338
0.3086331673 -0.0014911005 -0.1069283987
0.2967755050 -0.0078478592 -0.1150710911
0.0249038330 0.0558000020 -0.1000301637
0.1353739467 0.0616831620 -0.0962564687
0.2549999952 0.0554202521 -0.1061868542
0.3750000000 0.0528917042 -0.0984988251
0.3876018204 0.0535338250 -0.0867109091
0.0202643461 -0.0528094739 -0.0998672636
0.2549999952 -0.0549946443 -0.0922810054
0.3874395781 -0.0534468158 -0.0860634120
0.0195079667 -0.0555450411 -0.0805255629
0.4331315963 0.0315713370 0.0785237197
0.4419617048 -0.0094971299 0.0815551616
-0.0476121516 0.0335483393 0.0859175093
-0.0099316959 0.0576681127 0.0829465666
-0.0422115772 -0.0407635059 0.0759487131
0.2495569958 0.0590000004 0.0888431715
0.2476175803 0.0590000004 0.0761199282
0.2913421780 0.0590000004 0.0862256823
0.1116309963 0.0590000004 0.0845083495
0.2084693796 0.0590000004 0.0841892709
0.2668871465 0.0590000004 0.0787888047
0.2582157219 -0.0562033666 0.0895939522
0.1363261097 0.0026364047 0.0900000036
0.2565215829 0.0519711792 0.0900000036
0.1663667041 0.0018777596 0.0900000036
0.1634947300 0.0518019271 0.0900000036
0.3458653799 -0.0032993509 0.0900000036
-0.0186373168 -0.0420091337 0.0900000036
0.0619373580 -0.0362810456 0.0900000036
0.0462763653 0.0089863500 0.0900000036
0.0520996265 0.0380896556 0.0900000036
-0.0072948766 0.0444041992 0.0899824651
-0.0317602950 0.0384555204 0.0900000036
0.3637686076 -0.0167419477 0.0900000036
0.4041063304 0.0429100567 0.0900000036
0.2668778520 -0.0513025063 0.0900000036
0.2477547941 -0.0261473944 0.0900000036
0.2066778124 -0.0510603176 0.0900000036
0.0268956277 -0.0529854681 0.0900000036
0.4339277692 0.0240728842 0.0900000036
0.2317750999 -0.0553041114 0.0900000036
0.0413952969 -0.0534376167 0.0900000036
0.3686027492 -0.0476876410 0.0900000036
0.4095241388 -0.0409060048 0.0900000036
0.3333084536 -0.0044919628 0.0900000036
0.3430422402 0.0301164149 0.0900000036
0.0462026766 0.0424944364 0.0900000036
0.0677790522 0.0484484987 0.0900000036
0.1495413634 0.0561886810 0.0898090770
0.2173260955 0.0549829196 0.0900000036
0.3678277579 0.0011531338 0.0820000023
0.3798894529 0.0137918822 0.0820000023
0.4176363189 -0.0058293963 0.0820000023
0.4191787823 -0.0048370470 0.0875982981
0.3722046055 -0.0237397284 0.0897864501
-0.0342263374 0.0244513348 0.0896862320
0.0419025195 0.0042020086 0.0875080830
-0.0343897178 -0.0241298820 0.0838973417
0.1258169017 -0.0013475725 0.0729999989
0.1180309595 -0.0316755366 0.0729999989
0.1553096730 -0.0252176667 0.0729999989
0.3196747090 -0.0239842177 0.0729999989
0.3382081732 -0.0243239685 0.0729999989
0.2072947802 -0.0412604287 0.0729999989
0.2577198920 -0.0039908071 0.0729999989
0.0497467422 -0.0363460021 0.0729999989
0.1246852245 -0.0210150858 0.0729999989
0.2424452580 -0.0064098017 0.0729999989
0.0753122889 -0.0316870041 0.0729999989
0.1447654362 -0.0226247132 0.0729999989
0.2432601069 0.0561452511 0.0729999989
0.0761013022 0.0531428616 0.0729999989
0.1287091873 0.0349322543 0.0729999989
0.2259216670 0.0390165950 0.0729999989
0.2394956117 0.0160813482 0.0729999989
0.2130039713 0.0463988008 0.0729999989
0.2924574896 0.0132356837 0.0729999989
0.1974845598 0.0211037683 0.0729999989
0.3016139603 0.0409745870 0.0729999989
0.0990677258 0.0401500497 0.0729999989
0.3094717846 0.0363231017 0.0729999989
0.3298487787 0.0490119615 0.0729999989
0.2277003217 0.0213086619 0.0729999989
0.1932277635 0.0507000234 0.0729999989
0.3843808074 0.0471247344 0.0729999989
0.1748064285 0.0245167517 0.0729999989
0.1527361811 -0.0372181888 0.0729999989
0.2564487182 -0.0246203418 0.0729999989
0.1435849904 -0.0413323514 0.0729999989
0.2760912224 -0.0113131941 0.0729999989
0.1060397223 -0.0396304415 0.0729999989
0.2255576562 -0.0179932498 0.0729999989
0.1876393683 0.0077469070 0.0729999989
0.0794372827 0.0332322277 0.0729999989
0.1662668263 0.0074532974 0.0729999989
0.1144899590 0.0157295798 0.0729999989
0.0470219486 0.0386809508 0.0729999989
0.0328117533 0.0442482024 0.0729999989
0.0501814047 -0.0218018185 0.0729999989
0.0569483194 0.0196963067 0.0729999989
0.2802536850 -0.0384521999 0.0729999989
0.0679976109 -0.0552594316 0.0729999989
0.3339422916 -0.0559390794 0.0729999989
0.2245065459 -0.0489249442 0.0729999989
0.2607005843 -0.0457819229 0.0729999989
0.2984947289 -0.0544590115 0.0729999989
0.3213171505 -0.0577352357 0.0729999989
0.3424945150 0.0274363770 0.0729999989
0.4244515719 0.0273637834 0.0729999989
-0.0452752354 0.0361782884 0.0729999989
0.4032753459 -0.0517708178 0.0729999989
-0.0522863519 0.0159994230 0.0736971054
0.0263208025 -0.0480983070 0.0754880607
-0.0314626034 -0.0447022226 0.0758686857
-0.0155907395 -0.0295249415 0.0780000016
0.0180660056 -0.0443407448 0.0780000016
0.0095047093 0.0413043188 0.0780000016
-0.0267508500 0.0457578155 0.0780000016
-0.0461180534 0.0170761525 0.0780000016
-0.0360726080 -0.0206060841 0.0780000016
-0.0059729065 -0.0342817052 0.0780000016
0.0257674576 -0.0294766777 0.0780000016
0.0226927358 0.0260497154 0.0780000016
-0.0354481237 0.0053500176 0.0780000016
-0.0209315335 0.0067700683 0.0780000016
-0.0450458395 0.0228338896 0.0834971450
-0.0201135149 0.0417863875 0.0891722033
0.0337552885 0.0362395794 0.0784602959
0.0477639133 0.0034790714 0.0845035501
0.0382991967 -0.0389044734 0.0879642776
-0.0148030843 -0.0459579311 0.0860263348
-0.0480085453 -0.0233679164 0.0880846534
0.1030614153 -0.0590000004 0.0749905513
0.0286189781 -0.0590000004 0.0733822290
0.3805278959 -0.0587531515 0.0782692234
0.3380940169 -0.0590000004 0.0819840473
0.1790755940 -0.0590000004 0.0850970626
0.0475935218 -0.0590000004 0.0767381949
0.3721633065 -0.0174762263 0.0791940513
0.4291621280 0.0114361261 0.0780000016
0.3524350831 -0.0037922055 0.0780000016
0.3718897348 0.0170548700 0.0780000016
0.3745259254 0.0343815833 0.0780000016
0.3624017001 -0.0008535968 0.0780000016
0.4281682325 0.0180870883 0.0756821495
0.4060863910 -0.0390215402 0.0742446103
0.4240381981 0.0122378955 0.0841307949
0.3737739824 0.0345439295 0.0836243205
0.3501634009 -0.0024006502 0.0838999972
0.3743652102 -0.0325676148 0.0839191119
0.4199502378 -0.0290266623 0.0839149180
0.0013007418 0.0189150883 0.0829999968
0.0149401096 -0.0193804843 0.0814891327
-0.0010807228 -0.0192095744 0.0829999968
-0.0219580390 0.0002185054 0.0829999968
-0.0202435986 0.0115162261 0.0829999968
0.0138533551 -0.0288557475 0.0825993275
0.0157635697 0.0035486436 0.0790985239
0.4025990858 -0.0050732299 0.0809730553
0.2619238595 -0.0040000002 0.0868555773
0.2500000000 -0.0467266398 0.0847111979
0.3319999874 -0.0458731558 0.0835378338
0.2822444096 -0.0215286731 0.0810000002
0.3062741914 -0.0179628453 0.0810000002
0.2805185648 -0.0311360056 0.0810000002
0.2823591739 -0.0455237628 0.0810000002
0.2636527099 -0.0137961897 0.0810000002
0.1599999964 0.0134259477 0.0898096461
0.2419999987 0.0159330163 0.0875584657
0.1752805397 0.0509999990 0.0811735334
0.2345950822 0.0375538755 0.0810000002
0.2222131839 0.0381996029 0.0810000002
0.2007976943 0.0135830534 0.0810000002
0.1740047733 0.0401365158 0.0810000002
0.1812293513 0.0173703747 0.0810000002
0.1810894222 -0.0509999990 0.0850629162
0.2089756504 -0.0040000002 0.0893504607
0.1603613749 -0.0353524046 0.0888453669
0.2142445535 -0.0222870041 0.0810000002
0.1975726861 -0.0068492547 0.0810000002
0.2310299601 -0.0488974515 0.0810000002
0.1774075398 -0.0249208564 0.0810000002
0.1977134618 -0.0410729919 0.0810000002
0.3035748516 0.0509999990 0.0854892138
0.2632492856 0.0040000002 0.0876920860
0.3319944526 0.0430588070 0.0835706178
0.3023847038 0.0443003175 0.0810000002
0.3021795419 0.0334539048 0.0810000002
0.2530089112 0.0265682008 0.0810000002
0.2956624123 0.0245390947 0.0810000002
0.2603254866 0.0056633613 0.0810000002
0.1301714141 -0.0509999990 0.0874720063
0.1072417734 -0.0040000002 0.0878883559
0.0700000003 -0.0060170184 0.0812374235
0.1148882165 -0.0202669416 0.0810000002
0.0976587337 -0.0293975676 0.0810000002
0.1179030748 -0.0404343583 0.0810000002
0.0900583511 -0.0440277840 0.0810000002
0.0701280430 -0.0371418344 0.0810000002
0.1519999951 0.0194629182 0.0811036820
0.1387307120 0.0501153078 0.0863834942
0.0853597633 0.0464775506 0.0810000002
0.0944292141 0.0438650785 0.0810000002
0.1107022341 0.0440128384 0.0810000002
0.1028847448 0.0114144895 0.0810000002
0.1250677172 0.0100269850 0.0810000002
0.0702734815 0.0057265184 0.0816232697
0.4402237859 -0.0172204166 0.0739708276
0.3987972665 -0.0567086301 0.0777696252
-0.0544999987 -0.0011225091 0.0820474258
0.1330953757 0.0526183394 0.0851329107
0.2526078166 -0.0524999984 0.0865464153
0.0258111930 0.0527360767 0.0816950153
0.2485330782 0.0526595677 0.0868147647
0.0006065571 0.0547115169 0.0818528116
0.3918574469 -0.0528959822 0.0832817087
0.2783496977 -0.0553185285 0.0854111575
0.1592435839 -0.0559734210 0.0834722148
0.0046230306 -0.0531018182 0.0827256592
0.1255251551 0.0568471291 0.0790000036
0.3313036191 -0.0589692619 0.0890307401
0.2592869247 0.0585253078 0.0894746941
0.0914946694 0.0623616830 0.0879045354
0.3352149375 0.0610920797 0.1004520395
0.2536925386 0.0621939562 0.0928278479
0.1507852819 0.0621271899 0.0947069855
0.2229056314 0.0600189576 0.1032504184
0.2549914351 0.0593890949 0.1040923262
0.1324712047 0.0554433642 0.1070586498
0.0834148873 0.0606531383 0.1017639388
0.2383839980 -0.0618023791 0.0988807715
0.2536443530 -0.0622228665 0.0922512979
0.2122231980 -0.0591544309 0.1040086278
0.3001379300 -0.0611939311 0.1009531460
0.0457217949 -0.0623195783 0.0911159655
0.1091957526 -0.0350949947 0.1167457124
0.2520895163 -0.0375098179 0.1158754402
-0.0442960355 0.0152151496 0.1117498062
0.1867686080 0.0488304192 0.1112073157
0.2104012396 0.0492743928 0.1109699216
0.1716531068 0.0479271707 0.1116317063
0.2147135188 0.0443859288 0.1132459295
0.1861896058 0.0434998091 0.1136416696
0.0623642531 0.0416621835 0.1143712518
0.2867498019 0.0391888670 0.1152767105
0.0911520545 0.0363306312 0.1163127935
0.3739336595 -0.0620700820 0.0767098303
-0.0619275457 -0.0034334229 0.0872621619
0.0441844396 -0.0601560143 0.1032358930
0.0862215570 -0.0528317073 0.1090090371
0.3517614929 -0.0623391097 0.0892212755
0.3525946761 -0.0618290820 0.0959748138
0.3733603227 -0.0581155857 0.1050399095
0.3357374168 -0.0506736656 0.1102039110
0.1051284912 0.0621488012 0.0935020017
0.3017844660 0.0623647323 0.0846850683
0.3193208936 0.0623293241 0.0907432018
0.2873623448 0.0553820031 0.1074261777
0.2970458762 0.0602829157 0.1027670163
0.4094895925 -0.0501495769 0.1076077955
0.3894713745 0.0482961862 0.1108282391
0.4449708951 0.0041735674 0.1067129001
0.4394226622 -0.0297474596 0.1048277789
0.4342851120 0.0415658621 0.1008566904
0.4097831710 0.0588229503 0.0775408343
0.4118816281 -0.0572950209 0.0970741846
0.4517954123 -0.0037318880 0.0932291558
-0.0519490888 0.0332987101 0.0918528818
-0.0165614495 0.0594251564 0.0901348009
-0.0369837391 -0.0493022804 0.0888365674
0.0092156468 0.0621220450 0.0763217329
-0.0343467336 0.0512540332 0.0878849093
0.3234500533 -0.0623720511 0.0798099193
0.0671695460 -0.0623629365 0.0802925755
0.1579606106 -0.0623660054 0.0789653262
0.3453745748 -0.0623727047 0.0772888353
-0.0132813396 -0.0603458938 0.0899370284
0.0286750621 -0.0623524660 0.0853813690
0.1041087331 -0.0619447320 0.0985440606
0.4312537779 -0.0462646737 0.0913898443
0.4520480381 0.0017806823 0.0904922999
0.4386670848 0.0382159656 0.0768702849
0.2510635394 0.0623666725 0.0855241054
0.2847267888 0.0623648507 0.0809630738
0.0944968553 0.0623697548 0.0798954797
0.1396360797 0.0623683427 0.0876783068
0.0064531074 0.0516395453 0.1091320981
-0.0354714771 0.0448805941 0.1054178288
-0.0205142960 -0.0480992256 0.1083457279
-0.0365638830 0.0458019277 0.1038893269
0.0085798749 0.0601462141 0.1021863924
0.1367286150 -0.0398877037 0.1150140086
0.0495312866 -0.0360894311 0.1163845640
0.2642711197 -0.0434113893 0.1136778974
0.2108659247 -0.0443954628 0.1132395547
0.3433907418 -0.0456777652 0.1126499748
0.1091138377 -0.0503081265 0.1104454734
0.2257566604 -0.0513718907 0.1098543115
0.1770882884 -0.0546141841 0.1078228822
0.1398264258 0.0557999995 0.1019246579
0.3688785083 0.0181316447 0.1206811245
0.3296056801 0.0046817488 0.1219196988
0.1994141311 0.0304580335 0.1179819082
0.2374872161 0.0332419444 0.1172437703
0.1072089984 0.0324132551 0.1174407806
0.0318759256 0.0026057895 0.1219709350
0.0698834671 0.0066376032 0.1218442369
0.2716126980 -0.0012203476 0.1220869058
0.2705179431 0.0109554711 0.1214729353
0.2660354458 0.0111136546 0.1214606821
0.1811413037 0.0085088809 0.1216625213
0.3585259254 0.0283411702 0.1186498731
0.3124008285 0.0309885078 0.1178892231
0.2924849547 0.0241347125 0.1195592984
0.3038021505 0.0261008883 0.1191656099
0.1400160713 0.0201203383 0.1203044086
0.2390845805 0.0193533859 0.1204669664
0.1865613726 -0.0271961104 0.1189531638
0.0456702186 -0.0269651817 0.1190116068
0.3134878378 -0.0035502523 0.1220137596
0.3599553053 -0.0195955256 0.1204446818
0.1714806563 -0.0118849239 0.1214011045
0.1509058208 -0.0061183462 0.1218477880
0.2557795594 -0.0051920061 0.1219195504
0.2326107267 -0.0022005134 0.1220828035
0.0366468652 -0.0150454865 0.1210754388
0.3542604217 -0.0324351749 0.1174918888
0.3671615356 -0.0345367922 0.1168930755
0.0612339047 -0.0292884866 0.1183882587
0.0457116986 -0.0301747110 0.1181434969
0.0802994643 -0.0173377514 0.1208111920
0.1745775555 -0.0194968060 0.1204760252
0.3445830655 -0.0244292586 0.1195264004
0.0664378557 -0.0197828455 0.1204196829
0.4179999828 0.0033184281 0.0942852690
0.4020216512 0.0074186450 0.1209664395
0.3598961537 -0.0031979968 0.1219636588
0.3900421047 -0.0260733276 0.1188570478
0.4103399008 -0.0364580894 0.1138722332
0.4193591186 0.0263417178 0.1148580139
0.3925736930 0.0163895868 0.1206380168
0.0037977389 -0.0379041100 0.1153621449
0.0138249145 0.0314607885 0.1176274760
0.0051166007 -0.0295422290 0.1180842936
-0.0252293476 -0.0331156052 0.1140657628
-0.0257612850 0.0350170094 0.1134852420
-0.0162087500 0.0076756015 0.1201436521
0.3447634998 0.0614018432 0.0760723160
0.4427906935 0.0320575523 0.0760663606
0.1697830185 0.0603778093 0.0760282703
-0.0537590167 -0.0238601157 0.0760031000
0.1705909009 -0.0600937790 0.0760219729
-0.0439613655 -0.0390171262 0.0754158770
0.1664573497 -0.0590999999 0.0749374331
0.0097429635 -0.0590999984 0.0747603075
0.3475510921 0.0590999987 0.0759658437
0.2139768146 0.0591000000 0.0733378455
0.2522233724 -0.0052413589 0.1248549825
0.3260948176 -0.0010223217 0.1250616422
0.1700572181 -0.0010044892 0.1250624864
0.2928535429 -0.0095070332 0.1246459977
0.1537818538 -0.0064623882 0.1247858129
0.0899697114 -0.0189410065 0.1234159836
0.2927761959 -0.0127497642 0.1243845607
0.0725338818 -0.0122953697 0.1243847991
0.1833480989 -0.0201769532 0.1232699056
0.1222833349 -0.0210609454 0.1231202024
0.2386516612 -0.0231951292 0.1228124534
0.1196960362 -0.0274147093 0.1217656154
0.2028787892 -0.0258775954 0.1221694985
0.0595981371 -0.0249647723 0.1223003636
0.3642304394 -0.0240719911 0.1226625546
0.1810779413 -0.0332613044 0.1203711629
0.3038453312 -0.0369993491 0.1192789575
0.4202872574 0.0385711664 0.1140761218
0.3865845761 -0.0175591723 0.1234229116
0.4222284908 -0.0053722266 0.1202024115
0.3797230491 0.0196786452 0.1231962390
0.4270264525 0.0192910466 0.1171396980
0.4190863371 -0.0116733139 0.1206184894
0.3601421517 0.0242630210 0.1226477685
0.4001354548 -0.0210029714 0.1226652215
0.1820736302 0.0343263394 0.1200666332
0.0341508543 0.0317818447 0.1207191264
0.2406952840 0.0280858755 0.1216534020
0.2462037583 0.0288196443 0.1214654489
0.2671229656 0.0290155027 0.1214173942
0.2907139768 0.0223776156 0.1229587557
0.2226115378 0.0191562855 0.1234070285
0.0878898509 0.0232003506 0.1228832111
0.3096799810 0.0214729316 0.1230868485
0.0816806645 0.0130674310 0.1242700137
0.0775621350 0.0063883382 0.1247770861
0.1310870711 0.0102462444 0.1245781054
0.3037696913 0.0106944315 0.1245899812
0.1174029276 0.0033409372 0.1249507072
0.1889750764 0.0023447029 0.1249986806
0.2377910025 0.0036194728 0.1249372685
0.0109634427 0.0181434784 0.1235099173
-0.0148592627 -0.0317846118 0.1192602586
-0.0180178698 -0.0124581049 0.1228659395
-0.0304670316 0.0320916448 0.1160611239
-0.0204365930 0.0084842817 0.1228016804
-0.0399352517 -0.0125119315 0.1169733584
-0.0055537675 0.0316671335 0.1201661113
0.0673007809 0.0385880640 0.1186386393
0.1660806330 0.0371122103 0.1191693408
0.2382988668 0.0411608768 0.1177467165
0.2289867239 0.0429052381 0.1171067962
0.2728632382 0.0619714859 0.0731250732
0.2233769148 0.0612554757 0.0730810924
0.2433817946 0.0613801131 0.1062351001
0.3439840966 0.0614738515 0.0730862055
0.3478665274 0.0631365603 0.0733232693
0.3230434958 0.0622537813 0.1052444504
0.1678497220 0.0640984695 0.1016494621
0.3037808039 0.0638705711 0.1029690168
0.0409652647 0.0653152577 0.0763546944
0.1103305151 0.0653133126 0.0807620326
0.2151126517 0.0652805011 0.0826631992
0.2520463210 0.0652753105 0.0843483355
0.2284888194 0.0652895713 0.0850170051
0.3844023248 0.0515265882 0.1126398849
0.1263463124 0.0652119402 0.0953738084
0.3426947824 0.0649737602 0.0992750086
0.3649295839 0.0651367615 0.0969314261
0.4117614983 0.0607492336 0.0754798272
0.1763528644 0.0652662650 0.0944545536
0.0876494928 0.0652708424 0.0908400192
0.0855176605 0.0652982691 0.0846534465
0.1646076559 0.0653049926 0.0854635910
0.4071736018 0.0623417790 0.0775923879
0.4456656502 0.0330968707 0.0770782089
0.1540064889 0.0590915999 0.1083426996
0.1367903249 0.0575533416 0.1094136135
0.0349010155 0.0531224028 0.1122706566
0.4488292885 -0.0239083643 0.0743238576
0.4228610829 -0.0450089298 0.1101574693
0.2516878206 -0.0426443834 0.1171624711
0.0953190308 -0.0434074269 0.1168318405
0.0342309922 -0.0438542121 0.1166460234
0.1183773822 -0.0394209684 0.1183219145
0.3307094976 -0.0466657179 0.1155087524
0.0987110284 -0.0459158507 0.1157668572
0.1996708707 -0.0506063837 0.1135930368
0.0100188315 -0.0495262094 0.1140759859
0.2848897177 -0.0648318586 0.0745798368
0.3488515753 -0.0542257060 0.1115279202
0.1814480704 -0.0567957194 0.1099160107
0.0899345065 -0.0559894121 0.1105033895
0.0983351837 -0.0563050945 0.1103087111
0.0236394566 -0.0623300100 0.0732527378
0.3301146736 -0.0602751907 0.0730463467
0.1933713387 -0.0635321330 0.0735323370
0.2018222145 -0.0649206981 0.0748478695
-0.0075872336 -0.0638606694 0.0982929337
-0.0640695445 -0.0070441637 0.0753348450
-0.0392891273 0.0329338882 0.1129534060
0.3856752955 -0.0648539105 0.0780171356
-0.0514232307 -0.0401872854 0.0786082780
0.3454839717 -0.0653054095 0.0883365211
0.0840945357 -0.0652602215 0.0792026126
0.2138852719 -0.0652858734 0.0827814530
0.2885874886 -0.0652878990 0.0886322307
-0.0572520540 0.0309959352 0.0899057291
-0.0406203194 -0.0507234586 0.0801188294
0.0238897655 -0.0652396807 0.0822254743
0.2538596862 -0.0652737435 0.0905373765
0.2416732678 -0.0652725412 0.0898119490
0.1081684610 -0.0652581364 0.0824477610
0.0179163596 -0.0652319613 0.0852410297
0.4117036780 -0.0609518987 0.0823712706
0.4435819597 -0.0366945185 0.0876934707
0.4502979940 0.0242679669 0.0833167734
-0.0493325861 -0.0420588658 0.0949235632
0.3048952430 -0.0652384276 0.0952460322
0.1926738645 -0.0649201518 0.0986909266
0.3560402515 -0.0651427076 0.0961694889
-0.0405306893 0.0489189507 0.1020977992
-0.0377870615 -0.0508836826 0.1023034050
0.4212353509 -0.0548188778 0.1036623982
0.4336702636 0.0456717577 0.1024057117
0.1892284274 -0.0638043097 0.1030162504
0.2597058540 -0.0629551735 0.1044288344
-0.0445944607 0.0429113764 0.1048983505
-0.0285901408 -0.0528374249 0.1067154970
0.0591516708 -0.0597492054 0.1076622242
0.4067241868 -0.0595236019 0.1050991839
0.4453938866 0.0162679196 0.1090546200
0.3091141065 -0.0591019095 0.1081570174
0.2322563256 -0.0596287010 0.1078450591
-0.0281020990 0.0556252318 0.0738458621
-0.0076504266 0.0639831563 0.0868280010
0.0073064584 0.0543900786 0.1110797185
0.2082373599 0.0550766574 0.1110535477
0.1429126483 0.0530136677 0.1123579067
0.3043894286 0.0508594199 0.1135149497
0.3162153078 0.0510834826 0.1134081646
0.0940803433 0.0460679436 0.1156597649
0.1526964984 0.0438896543 0.1166779903
-0.0552125290 0.0000925082 0.0866059119
0.4069092851 0.0012500001 0.1159859782
0.4016547456 -0.0012500000 0.1009458306
0.0895746511 -0.0016589257 0.1117333844
0.2826158650 -0.0019261300 0.1193858757
0.0967026947 0.0132704159 0.1129846653
0.1063451194 -0.0014129918 0.1046889151
0.0937074880 -0.0130245884 0.1012389240
0.3092845964 -0.0004539720 0.1010871141
0.2930579812 0.0139168664 0.1198417656
-0.0592780603 0.0004868541 0.0815633131
0.0215598635 -0.0527999997 0.1081569168
0.1378141465 -0.0528348789 0.0953454717
0.2576756795 -0.0528085974 0.0879393271
0.3764645723 -0.0528478080 0.1014457611
0.0150000030 0.0589572679 0.1020900889
0.1443761633 0.0527999997 0.0858314116
0.2610569802 0.0528311020 0.0950113524
0.1375000063 0.0585116390 0.1008893884
