-0.0492441547 -0.0472875600 -0.0000000025
-0.0491947592 -0.0310043132 -0.0000000025
-0.0511918918 -0.0442394526 -0.0000000025
-0.0509139566 -0.0244253737 -0.0000000025
-0.0553957184 -0.0684259809 -0.0000000025
-0.0542434279 -0.0273443570 -0.0000000025
-0.0563957226 -0.0555231678 -0.0000000025
-0.0557979447 -0.0613727884 -0.0000000025
-0.0459706285 -0.0267125104 -0.0000000025
-0.0461708779 -0.0589011648 -0.0000000025
-0.0500199090 -0.0805390583 -0.0000000025
-0.0477873574 -0.0519283583 -0.0000000025
0.0507950114 -0.0738511973 -0.0000000025
0.0559726319 -0.0763681127 -0.0000000025
0.0560053781 -0.0313091222 -0.0000000025
0.0563406533 -0.0493205741 -0.0000000025
0.0546635047 -0.0225129845 -0.0000000025
0.0534913712 -0.0657679337 -0.0000000025
0.0521560170 -0.0774188102 -0.0000000025
0.0530311552 -0.0661936486 -0.0000000025
0.0505511069 -0.0454609816 -0.0000000025
0.0135729712 0.0533445672 -0.0000000025
0.0041056204 0.0449620016 -0.0000000025
0.0102076741 0.0552417927 -0.0000000025
0.0092197757 0.0430185343 -0.0000000025
-0.0254229173 0.0354794499 -0.0000000025
-0.0383130682 0.0184283097 -0.0000000025
-0.0356982403 -0.0406340673 -0.0000000025
-0.0424607561 -0.0782998699 -0.0000000025
-0.0374856512 -0.0624918855 -0.0000000025
-0.0362665089 -0.0565256207 -0.0000000025
-0.0345019697 -0.0511059671 -0.0000000025
-0.0303249341 -0.0360542894 -0.0000000025
-0.0275265005 -0.0327647339 -0.0000000025
-0.0418562168 -0.0545777909 -0.0000000025
-0.0479230908 -0.0795186963 -0.0000000025
0.0263726202 -0.0341237241 -0.0000000025
0.0321261276 -0.0281410845 -0.0000000025
0.0396852554 -0.0390033651 -0.0000000025
0.0433466233 -0.0660132693 -0.0000000025
0.0275690468 -0.0328462776 -0.0000000025
0.0397637913 -0.0177699904 -0.0000000025
0.0388370796 0.0179775224 -0.0000000025
0.0299105415 0.0304459267 -0.0000000025
0.0458046653 0.0262432687 -0.0000000025
0.0546248469 0.0149467342 -0.0000000025
0.0424427531 0.0122552315 -0.0000000025
0.0405277444 0.0184793082 -0.0000000025
0.0161883434 -0.0599242364 -0.0000000025
0.0132300277 -0.0797609049 -0.0000000025
0.0149193737 -0.0893821921 -0.0000000025
0.0181246074 -0.0679681736 -0.0000000025
0.0173286795 -0.0607962549 -0.0000000025
-0.0083978184 -0.0759992469 -0.0000000025
-0.0173814344 -0.0552878099 -0.0000000025
-0.0117153349 -0.0752139204 -0.0000000025
-0.0001767098 -0.0991751671 -0.0000000025
-0.0118905882 -0.0766184889 -0.0000000025
-0.0474307448 -0.0055712630 -0.0000000025
-0.0559566304 0.0040118430 -0.0000000025
-0.0502332653 0.0249118049 -0.0000000025
-0.0286667087 0.0419303711 -0.0000000025
-0.0172336785 0.0518212169 -0.0000000025
-0.0527806870 0.0089443770 -0.0000000025
-0.0288019256 0.0461339638 -0.0000000025
-0.0065976892 0.0447683803 -0.0000000025
0.0326804170 0.0437959942 -0.0000000025
0.0549115734 -0.0073771756 -0.0000000025
0.0437571137 -0.0094873232 -0.0000000025
-0.0106422117 -0.0807993002 -0.0000000025
-0.0065924959 -0.0974322250 -0.0000000025
-0.0346501737 -0.0653841349 -0.0000000025
-0.0277055600 -0.0921287061 -0.0000000025
-0.0067121759 -0.1083945087 -0.0000000025
-0.0334183356 -0.1161582271 -0.0000000025
-0.0266055088 -0.0506232687 -0.0000000025
-0.0207864092 -0.0767369748 -0.0000000025
-0.0458727543 -0.1153137727 -0.0000000025
-0.0174256883 -0.0801805932 -0.0000000025
-0.0040910870 -0.1247419448 -0.0000000025
-0.0213313413 -0.0962115313 -0.0000000025
-0.0026936654 -0.1134047016 -0.0000000025
0.0022097887 -0.1169403750 -0.0000000025
-0.0474462280 -0.1210293823 -0.0000000025
-0.0313242455 -0.0785174582 -0.0000000025
-0.0238414783 -0.0874220841 -0.0000000025
-0.0093256342 -0.0964631915 -0.0000000025
-0.0338414466 -0.1180622849 -0.0000000025
-0.0438433372 -0.0940726463 -0.0000000025
-0.0373296120 -0.1114214426 -0.0000000025
-0.0181033513 -0.0704400186 -0.0000000025
-0.0462264303 -0.1244834505 -0.0000000025
-0.0208665582 -0.1115204669 -0.0000000025
-0.0455651882 -0.1061799009 -0.0000000025
-0.0428168927 -0.0894310597 -0.0000000025
-0.0115160692 -0.0958845806 -0.0000000025
-0.0166308384 -0.1086432971 -0.0000000025
-0.0352453343 -0.1233739785 -0.0000000025
-0.0232412890 -0.0636898324 -0.0000000025
-0.0041345753 -0.1151158091 -0.0000000025
-0.0523765746 -0.1232005339 -0.0000000025
-0.0324741208 -0.0957860918 -0.0000000025
-0.0450742557 -0.1057589461 -0.0000000025
0.0031268693 -0.0764705972 -0.0000000025
0.0057849497 -0.0933244619 -0.0000000025
0.0074740047 -0.0477737951 -0.0000000025
0.0056587746 -0.0602117193 -0.0000000025
0.0102543441 -0.0784471769 -0.0000000025
0.0069546026 -0.0960475049 -0.0000000025
0.0060026533 -0.0830083179 -0.0000000025
0.0075119402 -0.1244740138 -0.0000000025
-0.0001488874 -0.0777640785 -0.0000000025
-0.0052181969 -0.0753780922 -0.0000000025
-0.0008776892 -0.0880717546 -0.0000000025
-0.0026610139 -0.0769663599 -0.0000000025
-0.0074722661 -0.0446445671 -0.0000000025
-0.0417874967 -0.0828711640 -0.0000000025
0.0461918973 -0.0919360983 -0.0000000025
0.0381986805 -0.0570261066 -0.0000000025
0.0448253407 -0.0885959763 -0.0000000025
0.0335608363 -0.0520830251 -0.0000000025
0.0448639458 -0.0804979850 -0.0000000025
-0.0468135083 -0.0703429173 -0.0000000025
-0.0418197785 -0.0412951023 -0.0000000025
0.0514477294 -0.0839528182 -0.0000000025
0.0456176195 -0.0388175346 -0.0000000025
0.0429430693 -0.0411603759 -0.0000000025
0.0515036519 -0.0589828490 -0.0000000025
0.0486933795 -0.1218297590 -0.0000000025
0.0262807909 -0.1143386317 -0.0000000025
0.0467082165 -0.1207849124 -0.0000000025
0.0442153375 -0.1244403725 -0.0000000025
0.0259543609 -0.0520044649 -0.0000000025
0.0444989059 -0.1126221761 -0.0000000025
0.0305944220 -0.0912411337 -0.0000000025
0.0354233080 -0.0812705986 -0.0000000025
0.0243498268 -0.1077167646 -0.0000000025
0.0401788976 -0.0875037819 -0.0000000025
0.0371490769 -0.0915862207 -0.0000000025
0.0367037791 -0.0909309759 -0.0000000025
0.0476829553 -0.1104888024 -0.0000000025
0.0255473387 -0.0553888222 -0.0000000025
0.0319083013 -0.0661173780 -0.0000000025
0.0343745961 -0.0642324121 -0.0000000025
0.0102203598 -0.1236069236 -0.0000000025
0.0310819089 -0.1027081226 -0.0000000025
0.0280399704 -0.1072129506 -0.0000000025
0.0146144947 -0.0973219379 -0.0000000025
0.0282830279 -0.0955270273 -0.0000000025
0.0227922580 -0.0874283373 -0.0000000025
0.0324230107 -0.1062775084 -0.0000000025
0.0331422470 -0.1094995303 -0.0000000025
0.0268280417 -0.0587407283 -0.0000000025
0.0169444123 -0.0809159182 -0.0000000025
-0.0425783397 0.0022800974 -0.0000000025
0.0570000000 -0.1155539742 -0.0080308167
0.0570000000 -0.0668289462 -0.0022609301
0.0570000000 -0.0175258043 -0.0071568093
0.0570000000 -0.0259420345 -0.0020689032
0.0570000000 -0.0488152509 -0.0077870220
0.0570000000 -0.0656300479 -0.0028913183
0.0570000000 -0.0430924387 -0.0049485133
0.0570000000 -0.0449737341 -0.0045068253
0.0570000000 -0.0492607827 -0.0013716460
0.0570000000 -0.0497787441 -0.0015957471
0.0570000000 -0.0037205092 -0.0091285106
0.0570000000 -0.0024373650 -0.0090241925
0.0570000000 -0.1220548940 -0.0086928901
0.0570000000 -0.1191124171 -0.0070905159
0.0570000000 -0.1138121005 -0.0013780017
0.0570000000 -0.0878039779 -0.0051146068
0.0570000000 -0.0335336577 -0.0134659597
0.0570000000 -0.0764513683 -0.0098081845
0.0570000000 -0.0580277038 -0.0131533668
0.0570000000 -0.1003515569 -0.0090141698
0.0570000000 -0.0544848034 -0.0096517752
0.0570000000 -0.0975597435 -0.0104431893
0.0570000000 -0.0915527073 -0.0053094800
0.0570000000 -0.1205725703 -0.0414649123
0.0570000000 -0.1231681150 -0.0713847251
0.0570000000 -0.1257278326 -0.0693903033
0.0570000000 -0.1275924338 -0.0717233868
0.0570000000 -0.1271374963 -0.0740229354
0.0570000000 -0.1152646543 -0.0306378209
0.0570000000 -0.1228408237 -0.0456007423
0.0570000000 -0.1247579236 -0.0317432262
0.0570000000 -0.1273371217 -0.0857572770
0.0570000000 -0.1148635311 -0.0250595972
0.0570000000 -0.1218011748 -0.1587163815
0.0570000000 -0.1175212869 -0.1451327945
0.0570000000 -0.1178889289 -0.1407300126
0.0570000000 -0.1263799753 -0.1179490897
0.0570000000 -0.1279549205 -0.1389824767
0.0570000000 -0.1240398498 -0.1549475067
0.0570000000 -0.1273946215 -0.1150649758
0.0570000000 -0.1199771230 -0.1217904453
0.0570000000 -0.1152042313 -0.0998589921
0.0570000000 -0.1196890533 -0.1171675163
0.0570000000 -0.1180063676 -0.1115614277
0.0570000000 -0.1170608016 -0.0962752822
0.0570000000 -0.1170153850 -0.0683171578
0.0570000000 -0.1162925255 -0.0865621094
0.0570000000 -0.1234495964 -0.0957951440
0.0570000000 -0.1235875429 -0.0935523550
0.0570000000 -0.1142562576 -0.0403913861
0.0570000000 -0.1172556136 -0.0522900976
-0.0201165434 -0.1267843800 -0.1739999950
0.0306105176 -0.1217141155 -0.1739999950
0.0176539757 -0.1242893707 -0.1739999950
-0.0233479303 -0.1248184477 -0.1739999950
-0.0078851065 -0.1267485848 -0.1739999950
-0.0053426946 -0.1188443474 -0.1739999950
-0.0374443816 -0.1209104427 -0.1739999950
-0.0100311563 -0.1217526646 -0.1739999950
-0.0371725847 -0.1254913415 -0.1739999950
-0.0307177620 -0.1226080348 -0.1739999950
-0.0570000000 -0.1185821881 -0.1610480821
-0.0570000000 -0.0577782533 -0.0129372447
-0.0570000000 -0.0997316586 -0.0091572688
-0.0570000000 -0.0579394363 -0.0120288173
-0.0570000000 -0.0394932600 -0.0137806035
-0.0570000000 -0.0950900139 -0.0088270378
-0.0570000000 -0.1071843139 -0.0093819179
-0.0570000000 -0.0819325340 -0.0071005486
-0.0570000000 -0.0992771570 -0.0116893025
-0.0570000000 -0.0903323947 -0.0048711145
-0.0570000000 -0.1176228409 -0.0073879077
-0.0570000000 -0.1123401606 -0.0164707496
-0.0570000000 -0.0138543246 -0.0053105524
-0.0570000000 -0.0183225338 -0.0092768607
-0.0570000000 -0.0302784061 -0.0088978708
-0.0570000000 -0.0278080146 -0.0060260850
-0.0570000000 -0.0611475057 -0.0015130167
-0.0570000000 -0.0140246159 -0.0063800605
-0.0570000000 -0.0250894880 -0.0056953870
-0.0570000000 -0.0763326236 -0.0035668432
-0.0570000000 -0.0494712898 -0.0036313117
-0.0570000000 -0.0074852355 -0.0057319067
-0.0570000000 -0.1134259592 -0.0188876786
-0.0570000000 -0.1243282980 -0.0495804752
-0.0570000000 -0.1241507672 -0.0448104442
-0.0570000000 -0.1249502926 -0.0395895844
-0.0570000000 -0.1196966873 -0.0178417933
-0.0570000000 -0.1143658018 -0.0252585802
-0.0570000000 -0.1279574388 -0.0126184105
-0.0570000000 -0.1222200749 -0.0632388899
-0.0570000000 -0.1210362402 -0.0757191018
-0.0570000000 -0.1131829765 -0.0489150085
-0.0570000000 -0.1132261398 -0.0252212439
-0.0570000000 -0.1138645879 -0.0900524851
-0.0570000000 -0.1200943661 -0.0922304974
-0.0570000000 -0.1255571429 -0.0748623602
-0.0570000000 -0.1193891299 -0.0979645739
-0.0570000000 -0.1218412942 -0.0883081958
-0.0570000000 -0.1193839976 -0.0936179543
-0.0570000000 -0.1148276861 -0.1484877794
-0.0570000000 -0.1203191429 -0.1153751234
-0.0570000000 -0.1177597258 -0.1533494178
-0.0570000000 -0.1182861378 -0.1326049803
-0.0570000000 -0.1179019157 -0.1156764712
-0.0570000000 -0.1238727797 -0.1044310927
-0.0570000000 -0.1224188305 -0.1433429611
-0.0570000000 -0.1213824457 -0.1321773671
-0.0570000000 -0.1232275655 -0.1391425871
-0.0570000000 -0.1219990518 -0.1352022881
-0.0570000000 -0.1273879558 -0.1322131319
-0.0570000000 -0.1279712806 -0.0816393159
0.0555028693 -0.1129999980 -0.1483112363
0.0304428638 -0.1129999980 -0.1549109192
0.0449398731 -0.1129999980 -0.1552312130
0.0306434225 -0.1129999980 -0.1576178967
0.0176220196 -0.1129999980 -0.1575993957
0.0237047161 -0.1129999980 -0.1550246837
0.0473392068 -0.1129999980 -0.0364874261
0.0544589153 -0.1129999980 -0.0325156239
0.0119808380 -0.1129999980 -0.0227572592
0.0208774450 -0.1129999980 -0.0237410453
0.0231676454 -0.1129999980 -0.0304337880
0.0247774240 -0.1129999980 -0.0293519714
0.0245244565 -0.1129999980 -0.0414966562
0.0139944244 -0.1129999980 -0.0641547510
0.0199774731 -0.1129999980 -0.0551109426
0.0181311819 -0.1129999980 -0.0606018439
0.0159793486 -0.1129999980 -0.0718840915
0.0138749153 -0.1129999980 -0.1083623626
0.0230919716 -0.1129999980 -0.1319608023
0.0202962051 -0.1129999980 -0.1259043683
0.0121390960 -0.1129999980 -0.1203423110
0.0165551787 -0.1129999980 -0.1410329142
0.0150416976 -0.1129999980 -0.1376358455
-0.0386947386 -0.1129999980 -0.1569158276
-0.0209536197 -0.1129999980 -0.1559588323
0.0043544187 -0.1129999980 -0.1590722048
-0.0024687084 -0.1129999980 -0.1547287569
-0.0120701326 -0.1129999980 -0.1544883033
-0.0365175790 -0.1129999980 -0.1225785635
-0.0348229314 -0.1129999980 -0.1216108535
-0.0483726406 -0.1129999980 -0.1284052736
-0.0413081773 -0.1129999980 -0.1478447736
-0.0337744192 -0.1129999980 -0.1484469771
-0.0356026310 -0.1129999980 -0.0453477630
-0.0331502891 -0.1129999980 -0.0658363859
-0.0344997300 -0.1129999980 -0.0614119695
-0.0376276711 -0.1129999980 -0.0512534993
-0.0517794193 -0.1129999980 -0.0843733701
-0.0457967555 -0.1129999980 -0.0660526219
-0.0420007265 -0.1129999980 -0.0739294452
-0.0395191677 -0.1129999980 -0.0856986147
-0.0390340019 -0.1129999980 -0.0684179644
-0.0523692414 -0.1129999980 -0.1151878348
-0.0412258109 -0.1129999980 -0.1027969693
-0.0415332893 -0.1129999980 -0.0667525569
-0.0392014037 -0.1129999980 -0.1016137253
-0.0506311416 -0.1129999980 -0.0979244687
-0.0505957059 -0.1129999980 -0.1094444407
-0.0535939608 -0.1129999980 -0.1170878361
-0.0475738403 -0.1129999980 -0.1248042574
-0.0480007269 -0.1129999980 -0.1171527025
-0.0454295530 -0.1129999980 -0.1194593279
-0.0395609007 -0.1129999980 -0.1320219667
-0.0535539473 -0.1129999980 -0.1009213454
-0.0335043149 -0.1129999980 -0.0241875797
-0.0550074893 -0.1129999980 -0.0788857248
-0.0568986848 -0.1129999980 -0.0603915655
-0.0568021188 -0.1129999980 -0.0234082197
-0.0519643392 -0.1129999980 -0.0740618457
-0.0527408841 -0.1129999980 -0.0587234435
-0.0489827597 -0.1129999980 -0.0531634501
-0.0485725492 -0.1129999980 -0.0571726729
-0.0531984340 -0.1129999980 -0.1357471976
-0.0459841911 -0.1129999980 -0.1574471618
-0.0562464489 -0.1129999980 -0.1427645095
0.0406091739 -0.1129999980 -0.1394570921
0.0162969092 -0.1129999980 -0.1523425723
0.0253692574 -0.1129999980 -0.1460948940
0.0149028692 -0.1129999980 -0.1567351888
0.0363723092 -0.1129999980 -0.1387139326
0.0558144540 -0.1129999980 -0.1020665988
0.0526426559 -0.1129999980 -0.1107601302
0.0472752391 -0.1129999980 -0.1306598261
0.0508007999 -0.1129999980 -0.0597165090
0.0513972053 -0.1129999980 -0.0573564115
0.0543473579 -0.1129999980 -0.0573627404
0.0462393155 -0.1129999980 -0.1397184331
0.0247000006 -0.1129999980 -0.1004520981
0.0463993937 -0.1129999980 -0.1293150723
0.0148002346 -0.1129999980 -0.0888112723
0.0170826284 -0.1129999980 -0.0873174001
0.0332359793 -0.1129999980 -0.0910562682
0.0257910458 -0.1129999980 -0.0980097857
0.0398245252 -0.1129999980 -0.1117369387
0.0419944786 -0.1129999980 -0.1108614488
0.0558784785 -0.1129999980 -0.0910788830
0.0461518604 -0.1129999980 -0.0952883381
0.0458257918 -0.1129999980 -0.1003510560
0.0471411465 -0.1129999980 -0.0879354802
0.0179350695 -0.1129999980 -0.0913364203
0.0449574403 -0.1129999980 -0.0685607474
0.0342620023 -0.1129999980 -0.0781538526
0.0488440888 -0.1129999980 -0.0819768427
0.0323376666 -0.1129999980 -0.0825147547
0.0322830817 -0.1129999980 -0.0844606905
0.0360682345 -0.1129999980 -0.0590391048
0.0508729176 -0.1129999980 -0.0689136151
0.0344749842 -0.1129999980 -0.0714236001
0.0278179132 -0.1129999980 -0.0778637527
0.0269052345 -0.1129999980 -0.0826059282
0.0446326929 -0.1129999980 -0.0766702884
0.0519427544 -0.1129999980 -0.0750640468
-0.0489162738 -0.1129999980 -0.1382539598
-0.0525370532 -0.1129999980 -0.0487559654
0.0386342413 -0.1129999980 -0.0274855091
0.0332192057 -0.1129999980 -0.0295538631
0.0181487424 -0.1129999980 -0.1065996141
0.0281183203 -0.1129999980 -0.1117352326
0.0228442870 -0.1129999980 -0.1172050392
0.0246221777 -0.1129999980 -0.1049601036
0.0293032402 -0.1129999980 -0.1342672702
0.0325414917 -0.1129999980 -0.1317492515
0.0186152182 -0.1129999980 -0.1082053785
0.0230344338 -0.1129999980 -0.0650062565
0.0251337336 -0.1129999980 -0.0578250994
0.0278365478 -0.1129999980 -0.0460706902
0.0327812153 -0.1129999980 -0.0451112044
0.0397877520 -0.1129999980 -0.0457257133
0.0422231705 -0.1129999980 -0.0263159016
-0.0418287564 -0.1208135195 -0.1697191380
-0.0533086154 -0.1236078381 -0.1676913906
-0.0510588430 -0.1235952016 -0.1699411626
0.0504719788 -0.1206824325 -0.1705280222
0.0568867415 -0.1210962279 -0.1641132631
0.0117529168 -0.1280000061 -0.1536585389
-0.0340971275 -0.1280000061 -0.1618367174
0.0323948840 -0.1280000061 -0.1596918768
0.0401643757 -0.1280000061 -0.1583279344
-0.0349999782 -0.1280000061 -0.1535362147
-0.0217075108 -0.1280000061 -0.1522076129
0.0115829136 -0.1280000061 -0.1505083653
0.0237723654 -0.1280000061 -0.1456585960
0.0122122862 -0.1280000061 -0.0837663327
0.0134507605 -0.1280000061 -0.0358368532
0.0226269965 -0.1280000061 -0.1291223899
0.0195080592 -0.1280000061 -0.1213599052
0.0193331196 -0.1280000061 -0.1093065631
0.0174611898 -0.1280000061 -0.1257403147
0.0187606257 -0.1280000061 -0.1269276608
0.0132310503 -0.1280000061 -0.0612686492
0.0136627696 -0.1280000061 -0.0605104090
0.0172030670 -0.1280000061 -0.1223858157
0.0224597198 -0.1280000061 -0.1315427812
0.0131570610 -0.1280000061 -0.0722638602
0.0132145895 -0.1280000061 -0.0565775054
0.0210203463 -0.1280000061 -0.0144171453
0.0059744277 -0.1280000061 -0.0072114314
-0.0232542896 -0.1280000061 -0.0079561636
0.0070120198 -0.1280000061 -0.0084552612
0.0037601338 -0.1280000061 -0.0108225161
-0.0325372805 -0.1280000061 -0.0058744905
-0.0229720846 -0.1280000061 -0.0055959018
-0.0286290398 -0.1280000061 -0.0189775574
0.0057981979 -0.1280000061 -0.0052495893
-0.0004839076 -0.1280000061 -0.0185359828
0.0122783500 -0.1280000061 -0.0175794743
-0.0014767953 -0.1280000061 -0.0174084398
-0.0075900872 -0.1280000061 -0.0189300226
0.0044614554 -0.1280000061 -0.0217408966
-0.0337930203 -0.1280000061 -0.0945412572
-0.0340702365 -0.1280000061 -0.1005562903
0.0422891468 -0.1280000061 -0.0151867511
0.0480814505 -0.1280000061 -0.0166700469
0.0471905446 -0.1280000061 -0.0138647286
0.0540477206 -0.1280000061 -0.0065540692
0.0557776942 -0.1280000061 -0.0493195778
0.0552814726 -0.1280000061 -0.0224532760
0.0561838998 -0.1280000061 -0.0669118174
-0.0338445841 -0.1280000061 -0.0514954424
-0.0550968438 -0.1280000061 -0.0114140489
-0.0546584548 -0.1280000061 -0.0415739356
-0.0549335166 -0.1280000061 -0.0255476775
-0.0497484353 -0.1280000061 -0.0230694521
-0.0533868543 -0.1280000061 -0.0074394566
0.0286155556 -0.1280000061 -0.0309437462
0.0345893724 -0.1280000061 -0.0251474877
0.0410715970 -0.1280000061 -0.0307429570
0.0240592039 -0.1280000061 -0.0275540398
0.0335115213 -0.1280000061 -0.0081719954
0.0232302003 -0.1280000061 -0.0193731449
0.0391475385 -0.1280000061 -0.0313062947
0.0186761021 -0.1280000061 -0.0300158432
0.0241964420 -0.1280000061 -0.0531832655
0.0274287341 -0.1280000061 -0.0408945076
0.0292426569 -0.1280000061 -0.0578674159
0.0283284779 -0.1280000061 -0.0610730085
0.0212105179 -0.1280000061 -0.0311574124
0.0337729026 -0.1280000061 -0.0432045977
0.0263680908 -0.1280000061 -0.0388677269
0.0450623736 -0.1280000061 -0.0234007745
0.0455746493 -0.1280000061 -0.0446490275
0.0489803280 -0.1280000061 -0.0655376847
0.0525007995 -0.1280000061 -0.0832438267
0.0428009856 -0.1280000061 -0.0749527751
0.0531909110 -0.1280000061 -0.0879697208
0.0415159620 -0.1280000061 -0.0799531145
0.0467087295 -0.1280000061 -0.0930947536
0.0419670248 -0.1280000061 -0.0576839625
0.0426037872 -0.1280000061 -0.0644801439
0.0390902985 -0.1280000061 -0.0464390149
-0.0381497894 -0.1280000061 -0.0306866060
-0.0343089916 -0.1280000061 -0.0031816120
-0.0443217483 -0.1280000061 -0.0083099212
-0.0429103330 -0.1280000061 -0.0294979667
-0.0508128497 -0.1280000061 -0.0529293570
-0.0439561363 -0.1280000061 -0.0341777941
-0.0353237899 -0.1280000061 -0.0433944650
-0.0350914961 -0.1280000061 -0.0820979463
-0.0358619854 -0.1280000061 -0.0801032392
-0.0508728414 -0.1280000061 -0.0660313172
-0.0403138987 -0.1280000061 -0.0693248878
-0.0493577925 -0.1280000061 -0.0740930724
-0.0451963638 -0.1280000061 -0.0691995322
-0.0408339034 -0.1280000061 -0.0977974905
-0.0484584676 -0.1280000061 -0.0821241122
-0.0424221253 -0.1280000061 -0.0988926242
-0.0390195299 -0.1280000061 -0.0636176103
-0.0454323209 -0.1280000061 -0.0909124898
-0.0471268423 -0.1280000061 -0.0900670261
0.0375258022 -0.1280000061 -0.1236756314
0.0360627860 -0.1280000061 -0.1176445520
0.0317944747 -0.1280000061 -0.1353922247
0.0470621486 -0.1280000061 -0.1138045648
0.0365669401 -0.1280000061 -0.0912289231
0.0476282168 -0.1280000061 -0.1102707862
0.0441359004 -0.1280000061 -0.1165915126
0.0447486731 -0.1280000061 -0.1130723655
0.0428691920 -0.1280000061 -0.1085721108
0.0538479375 -0.1280000061 -0.1067828419
0.0476631153 -0.1280000061 -0.0368082167
0.0536671798 -0.1280000061 -0.0667436078
0.0551962600 -0.1280000061 -0.0866185174
0.0441963444 -0.1280000061 -0.1353789187
0.0350720717 -0.1280000061 -0.1424511378
0.0325703189 -0.1280000061 -0.1126487774
0.0265137001 -0.1280000061 -0.1115000322
0.0186521296 -0.1280000061 -0.0624381927
0.0188459675 -0.1280000061 -0.0642479373
0.0290623341 -0.1280000061 -0.0766999162
0.0283098974 -0.1280000061 -0.1350732131
0.0273599184 -0.1280000061 -0.1274154157
0.0347041625 -0.1280000061 -0.1006356398
0.0220978202 -0.1280000061 -0.0703997703
0.0318876359 -0.1280000061 -0.0872578306
0.0210375848 -0.1280000061 -0.0809721603
-0.0516416062 -0.1280000061 -0.0951627077
-0.0457364490 -0.1280000061 -0.1235820859
-0.0517632785 -0.1280000061 -0.0959570452
-0.0485466701 -0.1280000061 -0.1033657164
-0.0425929612 -0.1280000061 -0.1184380272
-0.0448008015 -0.1280000061 -0.1105223352
-0.0385661503 -0.1280000061 -0.1234189387
-0.0402254262 -0.1280000061 -0.1333408935
-0.0489446301 -0.1280000061 -0.1209462559
0.0492311788 -0.1280000061 -0.1367422448
0.0484933696 -0.1280000061 -0.1397118704
0.0550369558 -0.1280000061 -0.1372109474
0.0547069108 -0.1280000061 -0.1278484422
0.0517778517 -0.1280000061 -0.1510435851
-0.0561127731 -0.1280000061 -0.1210098113
-0.0547037291 -0.1280000061 -0.1427457149
-0.0524948487 -0.1280000061 -0.1429608673
-0.0540318061 -0.1280000061 -0.0571836487
-0.0493218986 -0.1280000061 -0.1323357547
-0.0514808531 -0.1280000061 -0.1204467487
-0.0516325933 -0.1280000061 -0.1382552088
-0.0420688987 -0.1280000061 -0.1438433473
-0.0451673636 -0.1280000061 -0.1526756964
0.0561318867 -0.1280000061 -0.1630915903
0.0514094037 -0.1280000061 -0.1632797334
0.0330533064 -0.1280000061 -0.1535723672
-0.0376283894 -0.1280000061 -0.1531320172
-0.0349457714 -0.1280000061 -0.1435614303
0.0213517542 -0.1280000061 -0.1594864618
0.0147528463 -0.1280000061 -0.1680685165
0.0309333011 -0.1280000061 -0.1683625280
-0.0049840463 -0.1280000061 -0.1630706759
-0.0082054124 -0.1280000061 -0.1620106412
0.0225221624 -0.1280000061 -0.1522177933
-0.0212877389 -0.1280000061 -0.1626888512
-0.0018521084 -0.1280000061 -0.1592955179
0.0391188213 -0.1280000061 -0.1413668133
0.0010507805 -0.1280000061 -0.1722225059
-0.0284571170 -0.1280000061 -0.1700988765
-0.0061427818 -0.1280000061 -0.1695827464
0.0114523007 -0.1280000061 -0.1711607413
0.0011993240 -0.1280000061 -0.1702339164
0.0418513530 -0.1212000027 -0.1626165410
0.0366197564 -0.1262920846 -0.1713218333
0.0454492621 -0.1226950716 -0.1675799215
0.0379437946 -0.1269540780 -0.1619133379
-0.0439441588 -0.1212000027 -0.1695955999
-0.0403003711 -0.1242868113 -0.1724737224
-0.0351036053 -0.1279480338 -0.1645357693
-0.0448034928 -0.1238905025 -0.1643365371
0.0401839034 -0.1171050472 -0.1394735162
0.0420725740 -0.1228644560 -0.1356404888
0.0377104084 -0.1151722418 -0.1360584285
-0.0393538683 -0.1203525232 -0.1393987261
-0.0382215636 -0.1190804492 -0.1352609516
-0.0423366193 -0.1243749276 -0.1362087352
-0.0391138185 -0.1170263222 -0.0393132826
-0.0383610351 -0.1218680605 -0.0351261747
-0.0424788382 -0.1161035086 -0.0371023884
0.0409628495 -0.1235699294 -0.0392791640
0.0413627940 -0.1193900071 -0.0349171865
0.0457870871 -0.1274904032 -0.1735096031
-0.0202053348 -0.1271940735 -0.1738059284
-0.0486535091 -0.1223930823 -0.1493715922
-0.0513212691 -0.1205325317 -0.1446179727
-0.0520554578 -0.1186999977 -0.1445811891
-0.0516158567 -0.1130349941 -0.1517237221
-0.0508327710 -0.1183095157 -0.1420731878
0.0508372498 -0.1191861086 -0.1496069817
0.0493573045 -0.1208228115 -0.1443478311
0.0496653916 -0.1186999977 -0.1438669534
0.0476089400 -0.1137118222 -0.1513809289
0.0508209608 -0.1161124504 -0.1420944188
0.0503967413 -0.1214661918 -0.0296859360
0.0504142213 -0.1206952623 -0.0243190551
0.0536033854 -0.1186999977 -0.0299088376
0.0465015258 -0.1169101627 -0.0305456863
0.0522022613 -0.1173581677 -0.0225310368
-0.0506330870 -0.1230861881 -0.0296573070
-0.0489813728 -0.1260489872 -0.0244708128
-0.0490268633 -0.1186999977 -0.0317140507
-0.0540359571 -0.1182094471 -0.0299201163
-0.0473042447 -0.1154296968 -0.0228069450
0.0155553016 -0.1184867111 -0.1269148049
0.0532047666 -0.1137823315 -0.0462998567
0.0145089344 -0.1185263091 -0.0471027505
-0.0234025465 -0.1218606773 -0.0220000017
-0.0196766894 -0.1147122697 -0.0220000017
-0.0077205135 -0.1174720636 -0.0220000017
-0.0185278154 -0.1202418552 -0.0220000017
-0.0086882335 -0.1235811679 -0.0220000017
0.0022735109 -0.1251904595 -0.0220000017
0.0013754446 -0.1205874214 -0.0220000017
0.0119995993 -0.1253346184 -0.0266264607
0.0120000001 -0.1265476224 -0.0265000776
0.0120000001 -0.1147245822 -0.0368084653
0.0120000001 -0.1138824854 -0.0783838439
0.0120000001 -0.1244509446 -0.0390682117
0.0120000001 -0.1172410945 -0.0323327914
0.0120000001 -0.1238515961 -0.1148581257
0.0120000001 -0.1278898000 -0.1169244648
0.0120000001 -0.1230236263 -0.1411532064
0.0120000001 -0.1270444312 -0.1446422434
0.0120000001 -0.1261730559 -0.1186907698
0.0120000001 -0.1185950873 -0.1165564651
0.0120000001 -0.1248537773 -0.1455133008
0.0120000001 -0.1223454856 -0.1060704689
0.0120000001 -0.1219553909 -0.1022331166
0.0120000001 -0.1232020188 -0.0944907581
0.0120000001 -0.1247109292 -0.1295459173
0.0120000001 -0.1217186147 -0.1271434024
0.0120000001 -0.1242298071 -0.0520312229
0.0120000001 -0.1197848226 -0.0822954840
0.0120000001 -0.1206546563 -0.0565328772
0.0120000001 -0.1167338323 -0.0718135950
0.0120000001 -0.1135675332 -0.1212247723
0.0120000001 -0.1167786860 -0.0734782087
0.0060750431 -0.1213897186 -0.1519999951
-0.0080580808 -0.1279530027 -0.1519999951
-0.0184823591 -0.1279633156 -0.1519999951
-0.0277980420 -0.1158268358 -0.1519999951
-0.0064304966 -0.1159679881 -0.1519999951
-0.0278762585 -0.1195809771 -0.1519999951
-0.0164371076 -0.1135961404 -0.1519999951
-0.0329999998 -0.1267754845 -0.0637975391
-0.0329999998 -0.1240767657 -0.0773053248
-0.0329999998 -0.1254017085 -0.0737226303
-0.0329999998 -0.1254594856 -0.1171646539
-0.0329999998 -0.1260915715 -0.0840995767
-0.0329999998 -0.1199783612 -0.1424442707
-0.0329999998 -0.1269092463 -0.0689826384
-0.0329999998 -0.1225830240 -0.1450205184
-0.0329999998 -0.1238269182 -0.0983999399
-0.0329999998 -0.1248142952 -0.1028499706
-0.0329999998 -0.1201320043 -0.1000666100
-0.0329999998 -0.1277778521 -0.1283544389
-0.0329999998 -0.1133172605 -0.1054398534
-0.0329999998 -0.1136042209 -0.1322746077
-0.0329999998 -0.1155539494 -0.0867314151
-0.0329999998 -0.1226526115 -0.0556876980
-0.0329999998 -0.1206128829 -0.0426678751
-0.0329999998 -0.1204629953 -0.0379121324
-0.0329999998 -0.1155618488 -0.0831263483
-0.0329999998 -0.1168834186 -0.0443610377
-0.0329999998 -0.1166710429 -0.0651652463
-0.0329999998 -0.1209512107 -0.0541226126
-0.0329999998 -0.1149243928 -0.0382298129
0.0117135273 -0.1227958572 -0.1501449872
-0.0315523268 -0.1196698803 -0.1515367869
-0.0317715888 -0.1260633775 -0.0226010125
0.0116015638 -0.1212002007 -0.0235634972
0.0035276194 -0.1180000007 -0.1732648515
0.0278170118 -0.1180000007 -0.1720922985
0.0454526639 -0.1180000007 -0.1683858918
-0.0224328928 -0.1180000007 -0.1699459621
-0.0347489052 -0.1180000007 -0.1722007032
-0.0129988157 -0.1180000007 -0.1712264185
0.0304511177 -0.1180000007 -0.1655627212
0.0029010973 -0.1180000007 -0.1624569811
0.0497812340 -0.1180000007 -0.1614179362
-0.0204407998 -0.1180000007 -0.1609722561
-0.0170664328 -0.1180000007 -0.1608973505
0.0544184336 -0.1180000007 -0.1601008905
-0.0240212059 -0.1180000007 -0.1664815598
0.0013817101 -0.1180000007 -0.1677229190
-0.0453460360 -0.1180000007 -0.1634049304
0.0244658456 -0.1180000007 -0.1680330011
0.0078387962 -0.1180000007 -0.1664846467
-0.0092748324 -0.1146230555 -0.1599999964
-0.0004831260 -0.1172208991 -0.1599999964
-0.0383024517 -0.1177066926 -0.1599999964
-0.0284447721 -0.1174029166 -0.1599999964
-0.0423568520 -0.1149019404 -0.1599999964
-0.0550463614 -0.1153140499 -0.1599999964
0.0465984393 -0.1135216733 -0.1599999964
-0.0180531509 -0.1186925225 -0.1685571876
-0.0221348133 -0.1273932379 -0.1657104958
0.0218412052 -0.1200506309 -0.1686699003
0.0182357972 -0.1260195429 -0.1652527200
0.0022631013 0.0423262519 -0.0027707738
0.0115104823 0.0408265206 -0.0061743368
0.0210908504 0.0367596503 -0.0030318917
0.0265930312 0.0329955128 -0.0035111410
0.0335962824 0.0259931037 -0.0022433462
0.0386212334 0.0174378631 -0.0004737445
0.0413963347 0.0092788964 -0.0072125531
0.0421167779 0.0046772319 -0.0050312418
0.0418825459 -0.0066119364 -0.0048155867
0.0389987547 -0.0167802494 -0.0059033104
0.0352048194 -0.0237158564 -0.0002766484
0.0294467176 -0.0304723503 -0.0042722250
0.0229383927 -0.0356735108 -0.0034173835
0.0155933295 -0.0395118626 -0.0030473696
0.0077681732 -0.0416779357 -0.0061550506
-0.0024841838 -0.0423752964 -0.0046476983
-0.0136201034 -0.0401363269 -0.0008308605
-0.0163557634 -0.0391868658 -0.0089993409
-0.0269257660 -0.0328688562 -0.0034043148
-0.0318099801 -0.0281694669 -0.0039512022
-0.0361103376 -0.0222974266 -0.0083480123
-0.0419044758 -0.0064988598 -0.0021159258
-0.0422299111 -0.0046047901 -0.0053507746
-0.0419933845 0.0057460798 -0.0075921514
-0.0393487688 0.0158149631 -0.0013049595
-0.0346258304 0.0244892637 -0.0003982622
-0.0308988993 0.0290198006 -0.0060897166
-0.0231374610 0.0355429324 -0.0064647788
-0.0130395711 0.0404321136 -0.0046185575
-0.0073717600 0.0417950220 -0.0054999420
0.0569379912 0.0009460749 -0.0081614499
0.0567290088 0.0041345175 -0.0038358135
0.0558273392 0.0108838085 -0.0017801253
0.0546947951 0.0158219845 -0.0038320516
0.0518706316 0.0234159290 -0.0106313100
0.0519657365 0.0232230751 -0.0014397781
0.0483169491 0.0300661946 -0.0005373909
0.0438387817 0.0362773201 -0.0136409874
0.0394473401 0.0410955725 -0.0044575028
0.0346749246 0.0452374982 -0.0062082764
0.0288466235 0.0491318499 -0.0027886345
0.0248198269 0.0511783095 -0.0027365437
0.0163493969 0.0545157601 -0.0137913181
0.0138371977 0.0552876921 -0.0047540487
0.0096228511 0.0561137888 -0.0035368712
0.0044893868 0.0567057552 -0.0053425484
-0.0006115622 0.0569659329 -0.0074214941
-0.0084848547 0.0563215789 -0.0028461203
-0.0137440477 0.0553110863 -0.0047118485
-0.0201070468 0.0532402073 -0.0057645333
-0.0244369342 0.0513671304 -0.0118638682
-0.0306852574 0.0479033124 -0.0077609352
-0.0328068129 0.0464857323 -0.0002180300
-0.0391434566 0.0413520022 -0.0069686745
-0.0448316562 0.0351439279 -0.0139113136
-0.0467189019 0.0324578415 -0.0070358488
-0.0509205881 0.0253424282 -0.0087041122
-0.0505326501 0.0261290894 -0.0001335477
-0.0535877937 0.0190830993 -0.0016264462
-0.0553978275 0.0132315438 -0.0082292657
-0.0568590641 0.0025063014 -0.0087525703
-0.0567667735 0.0041864370 -0.0045858708
0.0457817295 -0.0909747027 -0.0140000014
0.0419871254 -0.0880711771 -0.0140000014
0.0348114360 -0.0771968962 -0.0140000014
-0.0544782835 -0.0084467368 -0.0140000014
-0.0555562897 -0.0633990403 -0.0140000014
-0.0537942575 -0.0462784377 -0.0140000014
-0.0511037942 -0.0273010509 -0.0140000014
-0.0339002610 -0.0495620891 -0.0140000014
-0.0350035416 -0.0490730765 -0.0140000014
-0.0463427482 -0.0719224009 -0.0140000014
-0.0299679123 -0.0551040471 -0.0140000014
-0.0323275312 -0.0545452473 -0.0140000014
-0.0476352935 -0.0884363991 -0.0140000014
-0.0257856212 -0.0602689072 -0.0140000014
-0.0234006288 -0.0573551875 -0.0140000014
-0.0331831805 -0.0720857042 -0.0140000014
-0.0199996288 -0.0608495391 -0.0140000014
-0.0342300170 -0.0769577653 -0.0140000014
-0.0168159242 -0.0561385772 -0.0140000014
-0.0234766715 -0.0707820530 -0.0140000014
-0.0160958374 -0.0601794619 -0.0140000014
-0.0059844036 -0.0700331017 -0.0140000014
0.0041344848 -0.0777803397 -0.0140000014
0.0174769245 -0.0799511138 -0.0140000014
-0.0088540676 -0.0992457146 -0.0140000014
0.0337870776 -0.0868342027 -0.0140000014
-0.0329017537 -0.0903785763 -0.0140000014
-0.0055774537 -0.0894522993 -0.0140000014
-0.0452840697 -0.1013131384 -0.0140000014
-0.0020269207 -0.0855150671 -0.0140000014
0.0048835258 -0.1038009611 -0.0140000014
0.0255188016 -0.0963129780 -0.0140000014
-0.0027572051 -0.0821871949 -0.0140000014
-0.0144035917 -0.0828102475 -0.0140000014
0.0207657244 -0.0995929555 -0.0140000014
-0.0374161741 -0.1025318522 -0.0140000014
0.0114125437 -0.0781415081 -0.0140000014
0.0093608026 -0.0786002944 -0.0140000014
-0.0190284355 -0.0834798625 -0.0140000014
-0.0076086170 -0.0613694840 -0.0140000014
-0.0219839088 -0.0878771367 -0.0140000014
0.0047075360 -0.0825660703 -0.0140000014
-0.0065090167 -0.0700246439 -0.0140000014
-0.0069270323 -0.0911737458 -0.0140000014
-0.0020173198 -0.0761139320 -0.0140000014
-0.0283094104 -0.0805729604 -0.0140000014
-0.0070931738 -0.0608074252 -0.0140000014
-0.0184208511 -0.0803150202 -0.0140000014
0.0229208586 -0.1043129414 -0.0140000014
0.0006544459 -0.0915240512 -0.0140000014
-0.0133395606 -0.0686583791 -0.0140000014
0.0282889388 -0.0954835351 -0.0140000014
-0.0036939682 -0.0683652461 -0.0140000014
-0.0048392916 -0.0846432470 -0.0140000014
-0.0213056563 -0.0759949627 -0.0140000014
-0.0093274457 -0.0606609046 -0.0140000014
-0.0183697694 -0.0988599694 -0.0140000014
0.0310327326 -0.0810965411 -0.0140000014
0.0142315021 -0.0661224662 -0.0140000014
0.0342595573 -0.0808323055 -0.0140000014
0.0118492679 -0.0586843937 -0.0140000014
0.0485705213 -0.0966495936 -0.0140000014
-0.0548500994 -0.0824922387 -0.0140000014
-0.0484602153 -0.0276936649 -0.0140000014
-0.0469649481 -0.0492573502 -0.0140000014
-0.0475660610 -0.0605199499 -0.0140000014
-0.0527072595 -0.0847412616 -0.0140000014
-0.0536794293 -0.0925339232 -0.0140000014
-0.0401207727 -0.0397962762 -0.0140000014
0.0306423004 -0.0689877273 -0.0140000014
0.0402325034 -0.0806740381 -0.0140000014
0.0344111935 -0.0683197306 -0.0140000014
0.0292074291 -0.0471437461 -0.0140000014
0.0290994928 -0.0562680748 -0.0140000014
0.0365358968 -0.0585991936 -0.0140000014
0.0449818607 -0.0750917869 -0.0140000014
0.0381695648 -0.0460248806 -0.0140000014
0.0436088729 -0.0667744710 -0.0140000014
0.0431459675 -0.0420624251 -0.0140000014
0.0486054394 -0.0748966801 -0.0140000014
0.0425344650 -0.0436174861 -0.0140000014
0.0455882269 -0.0371657967 -0.0140000014
0.0449328345 -0.0337748064 -0.0140000014
0.0505427077 -0.0312014430 -0.0140000014
0.0490970411 -0.0352768618 -0.0140000014
0.0538810823 -0.0568996953 -0.0140000014
0.0508602028 -0.0292272851 -0.0140000014
0.0542391616 -0.0467550742 -0.0140000014
0.0564404805 -0.0855102677 -0.0140000014
0.0557484352 -0.0464193280 -0.0140000014
0.0539674153 0.0128495958 -0.0140000014
0.0340977659 0.0453478559 -0.0140000014
-0.0018652040 0.0552428515 -0.0140000014
-0.0413446274 0.0376651059 -0.0140000014
-0.0550619488 0.0032253854 -0.0140000014
0.0469916631 0.0283753415 -0.0107570940
0.0539848697 0.0098858338 -0.0105402051
0.0547798165 -0.0037211950 -0.0100505512
0.0519717516 -0.0177462755 -0.0121780671
0.0451472893 -0.0313720053 -0.0095041056
0.0344230472 -0.0427414924 -0.0135925989
0.0191761947 -0.0514755877 -0.0138431505
0.0011976114 -0.0548771769 -0.0101318093
-0.0114816805 -0.0537536846 -0.0118070625
-0.0282307987 -0.0470597626 -0.0095020489
-0.0405542217 -0.0370053569 -0.0126163138
-0.0481441983 -0.0263370935 -0.0119994753
-0.0536574722 -0.0115667597 -0.0127750472
-0.0547125976 0.0055715673 -0.0138433404
-0.0486113020 0.0256151534 -0.0093513763
-0.0421727708 0.0351685719 -0.0114526712
0.0326667207 0.0441384101 -0.0093933195
0.0169216549 0.0522155906 -0.0108500625
0.0023966460 0.0548395625 -0.0111495659
-0.0165644967 0.0523396091 -0.0126756230
-0.0287450062 0.0468305175 -0.0135908829
-0.0427370309 0.0118203501 -0.0089999987
0.0017870998 0.0520450458 -0.0089999987
-0.0267357898 0.0473637220 -0.0089999987
-0.0328739538 0.0382050242 -0.0089999987
-0.0446209241 0.0315772114 -0.0089999987
-0.0523228977 0.0083082855 -0.0089999987
-0.0519603860 -0.0171184716 -0.0089999987
-0.0329327075 -0.0340170779 -0.0089999987
-0.0123530130 -0.0495185803 -0.0089999987
-0.0161049430 -0.0514365828 -0.0089999987
0.0030597921 -0.0442997325 -0.0089999987
0.0041267665 -0.0486549473 -0.0089999987
0.0037670775 -0.0543966872 -0.0089999987
0.0325107008 -0.0408171415 -0.0089999987
0.0371589924 -0.0379452483 -0.0089999987
0.0291473415 -0.0383695318 -0.0089999987
0.0460793638 -0.0143343485 -0.0089999987
0.0535052104 0.0014299827 -0.0089999987
0.0342188883 0.0295997440 -0.0089999987
0.0368641107 0.0386291393 -0.0089999987
0.0138013615 0.0458609171 -0.0089999987
0.0239676337 0.0360171884 -0.0089999987
0.0239206011 -0.0350407016 -0.0089999987
-0.0224251392 0.0369856946 -0.0089999987
0.0295845278 0.0433954877 -0.0089999987
0.0439389139 0.0123610159 -0.0089999987
0.0445866626 -0.0227410920 -0.0089999987
-0.0259934746 -0.0447511018 -0.0089999987
-0.0424426972 -0.0081013616 -0.0089999987
-0.0478683240 0.0262001241 -0.0089999987
-0.0396871877 0.0325218448 -0.0089999987
-0.0220090761 0.0431820071 -0.0089999987
-0.0444189208 -0.0084275905 -0.0089999987
-0.0446938207 0.0109510155 -0.0089999987
-0.0110425231 0.0465687414 -0.0089999987
-0.0401949771 -0.0324095298 -0.0089999987
-0.0410367919 -0.0130900341 -0.0089999987
0.0130773528 -0.0437492232 -0.0089999987
0.0187138252 -0.0428946146 -0.0089999987
0.0454095921 -0.0262035953 -0.0089999987
0.0507119481 -0.0123983184 -0.0089999987
0.0388643044 -0.0210402820 -0.0089999987
0.0476590014 0.0092648562 -0.0089999987
-0.0026867860 0.0503967226 -0.0082020824
0.0013902460 0.0452158301 -0.0032975233
0.0001336530 0.0549804310 -0.0016301920
-0.0015626721 0.0452620312 -0.0029357141
0.0166628472 0.0420131387 -0.0057000020
0.0240033633 0.0451210451 -0.0016461896
0.0148856914 0.0488105818 -0.0042864637
0.0374609381 0.0370519033 -0.0069401298
0.0350347156 0.0384011367 -0.0057000020
0.0386207463 0.0391340906 -0.0051363783
0.0309934235 0.0329798140 -0.0021994366
0.0440933729 0.0174063406 -0.0064289874
0.0493428473 0.0152583857 -0.0009436919
0.0446670905 0.0238817310 -0.0030039699
0.0463118576 0.0141729243 -0.0036819431
0.0520543556 -0.0026933910 -0.0057000020
0.0549698992 0.0003440340 -0.0020928998
0.0451792599 0.0012537577 -0.0046986563
0.0464781306 -0.0164233326 -0.0078705419
0.0487962809 -0.0170044165 -0.0057000020
0.0486530491 -0.0147849587 -0.0046893457
0.0426573383 -0.0226266508 -0.0048987215
0.0353365295 -0.0380015224 -0.0062661732
0.0388572668 -0.0388975715 -0.0000383392
0.0326254226 -0.0311861993 -0.0020828320
0.0203660935 -0.0485963407 -0.0068449184
0.0157915154 -0.0491498403 -0.0057000020
0.0238654557 -0.0446063692 -0.0007054960
0.0141374232 -0.0461568040 -0.0006269855
-0.0011011390 -0.0475741810 -0.0087930064
0.0001796565 -0.0549842823 -0.0010264444
0.0012306012 -0.0451730538 -0.0021002029
-0.0026189689 -0.0542376276 -0.0038689520
-0.0172544323 -0.0432526151 -0.0057000020
-0.0147496173 -0.0485772567 -0.0011721542
-0.0223719597 -0.0423876054 -0.0019394009
-0.0326688175 -0.0357883948 -0.0082746878
-0.0374548675 -0.0310983194 -0.0057000020
-0.0311622787 -0.0326595882 -0.0020064672
-0.0402744126 -0.0362421040 -0.0028492263
-0.0488651776 -0.0187110157 -0.0057474003
-0.0448579501 -0.0239328675 -0.0029817303
-0.0460322131 -0.0141578540 -0.0019630299
-0.0475326807 -0.0239321507 -0.0049922765
-0.0508961043 -0.0046374362 -0.0057000020
-0.0451233961 -0.0010452697 -0.0028114289
-0.0539613627 0.0030266459 -0.0002047698
-0.0436839954 0.0201168675 -0.0082492638
-0.0462860081 0.0239847433 -0.0057000020
-0.0429529862 0.0229373423 -0.0045965304
-0.0506067196 0.0168113408 -0.0018685534
-0.0373275946 0.0335687821 -0.0062184260
-0.0324767535 0.0312902964 -0.0039649593
-0.0364427429 0.0402206567 -0.0009950480
-0.0359264760 0.0304389623 -0.0007392418
-0.0179594445 0.0430298782 -0.0057000020
-0.0141918496 0.0468532461 -0.0055379444
-0.0240479664 0.0471004543 -0.0032280086
-0.0033093370 -0.1267875881 -0.0017875862
0.0149995549 -0.1264556861 -0.0014556851
0.0560634144 -0.1270944164 -0.0020944137
0.0261191039 -0.1265671054 -0.0015671040
-0.0317444703 -0.1265147272 -0.0015147260
-0.0242753927 -0.1251038690 -0.0001038712
-0.0419765929 -0.1058858674 -0.0140775021
-0.0139122146 -0.1061443627 -0.0141001167
-0.0406160419 -0.1066190015 -0.0141831138
0.0308893910 -0.1072647931 -0.0143561531
-0.0465716862 -0.1083833516 -0.0147842480
0.0064350190 -0.1088339776 -0.0149943802
-0.0421449879 -0.1096161326 -0.0155032203
0.0444239667 -0.1099602811 -0.0157441961
-0.0340656117 -0.1107635198 -0.0164928677
0.0436658193 -0.1109118451 -0.0166411930
0.0002887003 -0.1112272383 -0.0169989235
0.0552845528 -0.1113423132 -0.0171632670
0.0443417084 -0.1119878297 -0.0181278715
0.0466694747 -0.1120949675 -0.0183576273
0.0397286837 -0.1125403051 -0.0193487845
0.0491304475 -0.1126830307 -0.0198814434
0.0198912680 -0.1129953406 -0.0219467654
-0.0043943021 -0.1129162580 -0.0210428134
-0.0492909642 -0.0077337935 -0.0033096905
-0.0472384330 -0.0107484017 -0.0016245673
-0.0505376561 0.0083120263 -0.0012786616
0.0092380417 0.0510599837 -0.0015172975
0.0116142284 0.0482405814 -0.0057000163
-0.0111991759 0.0475999812 -0.0075159890
