-0.0617028219 -0.0337491023 -0.0710000023
0.0859772724 -0.0199134448 -0.0710000023
0.1221599573 -0.0111979806 -0.0710000023
0.0735282995 -0.0128848509 -0.0710000023
0.1316137805 -0.0043272676 -0.0710000023
0.1788681411 0.0080207877 -0.0710000023
0.0069195020 0.0616290836 -0.0710000023
0.1645856826 -0.0131870532 -0.0710000023
0.0471094843 -0.0329392470 -0.0710000023
0.0561218671 -0.0353541798 -0.0710000023
0.0796901363 -0.0309056184 -0.0710000023
0.1075895943 -0.0267273546 -0.0710000023
-0.0542198150 0.0325598135 -0.0710000023
0.0061661964 0.0634023318 -0.0709807773
-0.0285171181 -0.0541934873 -0.0710000023
0.0046839442 -0.0584489424 -0.0710000023
0.1982625283 -0.0059430817 -0.0710000023
0.0551886633 0.0297993001 -0.0710000023
0.3945345618 -0.0515307242 -0.0710000023
0.3663510582 0.0231760545 -0.0710000023
0.3756413469 0.0271852420 -0.0710000023
0.0716566063 0.0249883703 -0.0710000023
0.0749304153 0.0070679374 -0.0710000023
0.0909262825 0.0151845351 -0.0710000023
-0.0429700633 -0.0508675117 -0.0710000023
0.3212836755 -0.0474253413 -0.0710000023
0.2704617930 -0.0469536864 -0.0710000023
0.3678293651 -0.0214722068 -0.0710000023
0.3557484128 0.0121238336 -0.0710000023
0.3561964319 -0.0443211139 -0.0710000023
0.2997463905 -0.0144241919 -0.0710000023
0.3175429856 -0.0094230255 -0.0710000023
0.2438407960 -0.0013225135 -0.0710000023
0.3605655269 -0.0318730699 -0.0710000023
0.3318108606 0.0179240515 -0.0710000023
0.2112602775 -0.0165342114 -0.0710000023
0.3322177427 -0.0320707522 -0.0710000023
0.3501452770 -0.0335804155 -0.0710000023
0.1627870310 -0.0298893629 -0.0710000023
0.2872383017 -0.0094230662 -0.0710000023
0.3119590245 0.0206888602 -0.0710000023
0.3018569557 -0.0235720016 -0.0710000023
0.2123457389 -0.0167353326 -0.0710000023
0.3113538900 0.0221054602 -0.0710000023
0.3089673268 -0.0361600572 -0.0710000023
0.3690775720 -0.0304306299 -0.0710000023
0.3050797203 0.0066731140 -0.0710000023
0.2712203714 -0.0306733677 -0.0710000023
0.1782122844 -0.0453187280 -0.0710000023
0.2115974454 -0.0446242352 -0.0710000023
0.2822324979 -0.0060142639 -0.0710000023
0.2715569006 -0.0286128589 -0.0710000023
0.1972871493 -0.0274799946 -0.0710000023
0.2417902570 -0.0044681099 -0.0710000023
0.2523537184 -0.0007776665 -0.0710000023
0.3781961240 -0.0235437255 -0.0710000023
-0.0588020045 0.0152731894 -0.0710000023
0.1762984038 -0.0196582870 -0.0710000023
0.1009940739 -0.0445839543 -0.0710000023
0.2108770225 -0.0027975431 -0.0710000023
0.1731315345 -0.0172403394 -0.0710000023
0.1106379659 -0.0421351164 -0.0710000023
0.1568566665 -0.0225267317 -0.0710000023
0.1459847807 -0.0087643825 -0.0710000023
0.1377635813 0.0092201621 -0.0710000023
0.2717155263 0.0254936396 -0.0710000023
0.0886605492 0.0009812145 -0.0710000023
0.1665251542 0.0124222878 -0.0710000023
0.1111845236 -0.0008756545 -0.0710000023
0.3925977693 0.0004670982 -0.0634120618
0.4100695136 0.0411009124 -0.0627585086
0.4517954993 0.0573042968 -0.0663373357
0.4954619625 0.0348899480 -0.0630456970
0.5069082439 -0.0071669194 -0.0621554566
0.4828739015 -0.0469150839 -0.0600882183
0.4499403797 -0.0574322873 -0.0685112956
0.4040824107 -0.0342578092 -0.0661296233
0.5093797484 -0.0340382802 -0.0644199180
0.4560705654 -0.0703859709 -0.0671352900
0.3887390641 -0.0058228387 -0.0671772977
0.4158841739 0.0507727242 -0.0656424611
0.4838397254 0.0607891050 -0.0675728850
0.1488197754 0.0177171294 0.0168469600
0.1386252142 0.0171089927 0.0423569200
0.1272806460 0.0166267605 -0.0502294476
0.1277968320 0.0166123501 0.0150500733
0.1330251982 0.0168570426 0.0119358790
0.1453272314 0.0175038012 0.0206566947
0.1252073823 0.0164853871 0.0165483915
0.1089309556 0.0155941161 0.0117584878
0.0762216499 -0.0155296232 0.0451188474
0.0838302841 0.0011968199 -0.0208333064
0.0870079028 0.0051386421 0.0223814000
0.0966580125 0.0122078025 -0.0265673116
0.1019533215 0.0142159808 0.0042845734
0.0802370177 -0.0052158303 0.0246099122
0.2809775468 0.0262126439 0.0045573943
0.3121849851 0.0282217925 -0.0294092607
0.1899921815 0.0203620644 0.0218079063
0.2933041550 0.0270039222 0.0178030991
0.3129803333 0.0282749394 -0.0526494607
0.2558897729 0.0246010739 -0.0095193618
0.2770174548 0.0259612831 -0.0325123342
0.2782541718 0.0260391122 -0.0132200342
0.2788175667 0.0260760060 -0.0210021407
0.2532491787 0.0244304508 0.0005034666
0.1793652441 0.0196793619 0.0165034978
0.3052122792 0.0277717863 -0.0091426321
0.2603995883 0.0248924262 -0.0260451376
0.2693177319 0.0254633086 0.0019399944
0.3117975113 0.0281919181 0.0277958236
0.3029366116 0.0276266798 -0.0228178935
0.1798983570 0.0197116618 -0.0205856346
0.2019073240 0.0211264568 -0.0471455926
0.2377919381 0.0234357656 -0.0550092101
0.2244902175 0.0225793273 -0.0579727073
0.2031832316 0.0212089112 -0.0426311797
0.2520303881 0.0243525949 -0.0507377102
0.1828915472 0.0199054908 -0.0044802521
0.2455199699 0.0239333789 -0.0527336359
0.1737115647 0.0193123591 -0.0353442992
0.2291528191 0.0228820590 -0.0218051422
0.1774547438 0.0195543811 -0.0203983589
0.1640532129 0.0186934956 0.0041221221
0.2491380913 0.0241680029 -0.0287269866
0.1748922407 0.0193918010 0.0124976984
0.1725836071 0.0192429441 0.0090043255
0.2397502574 0.0235621997 -0.0497559572
0.3164584319 0.0284982647 -0.0449333058
0.3674540805 0.0093994462 0.0208564023
0.3712976002 -0.0024788499 0.0070797057
0.3531652267 0.0252899829 0.0325070070
0.3445685410 0.0282304089 0.0258941084
0.3428713684 0.0284927176 0.0204420019
0.3238257217 0.0289730773 0.0297193129
0.3675180285 0.0102364294 0.0486698425
0.3727943825 -0.0069979301 0.0539110263
0.1204686327 0.0163631497 0.0502007940
0.0277878775 -0.0652940063 -0.0544783020
0.0540265347 -0.0456807027 -0.0497590705
0.0615971398 0.0349119305 -0.0577039051
0.0705465532 -0.0068072150 -0.0433621843
0.0414355262 0.0574121784 -0.0462623536
-0.0019785667 0.0709330239 -0.0469132654
0.0225245216 0.0672844820 -0.0440179935
-0.0704947035 -0.0065227911 -0.0488613596
-0.0672749066 0.0219793966 -0.0517319810
-0.0508431202 0.0492271904 -0.0431072635
-0.0273005232 0.0653201379 -0.0531964127
-0.0562102246 -0.0433492158 -0.0523788589
0.4163787575 0.0623242463 -0.0495752396
0.4435959158 0.0704430545 -0.0531129477
0.3791919457 -0.0029598557 -0.0440394696
0.3828744149 0.0230467070 -0.0521257561
0.3955358597 0.0454490629 -0.0438815861
0.3863802739 -0.0309073269 -0.0440343713
0.4008337796 -0.0508697879 -0.0455839157
0.4572649635 -0.0703558606 -0.0574037693
0.4185100281 -0.0633913920 -0.0453644562
0.4938779331 -0.0557313129 -0.0518994508
0.5132181185 0.0318669980 -0.0463043594
0.5206868618 -0.0031865997 -0.0486554400
0.5152405778 -0.0273785815 -0.0481506537
0.4972227045 -0.0528912115 -0.0536374767
0.4937237238 0.0558011459 -0.0535337727
0.4767444148 0.0657027672 -0.0534325810
0.0208173327 0.0738181749 0.0602831160
-0.0229979352 0.0734830702 0.0575978097
-0.0686580116 0.0340170490 0.0601736952
-0.0724012434 -0.0248306187 0.0622475876
-0.0343012699 -0.0689510712 0.0569076109
0.0744461649 -0.0225415988 0.0378670084
0.0288527192 -0.0718628446 0.0514853709
0.0038956386 0.0775522133 0.0417998320
-0.0219843320 0.0744057760 0.0460657040
-0.0522245613 0.0569222735 0.0532036520
-0.0701526073 0.0329852719 0.0463135666
-0.0773889018 -0.0004378081 0.0498837713
-0.0718659881 -0.0292278409 0.0447606605
-0.0546270005 -0.0547311976 0.0507079609
0.0257609789 0.0734005258 0.0290065299
0.0152224619 0.0762042844 0.0400833494
-0.0037285334 0.0776836883 0.0319805957
-0.0204114907 0.0752175456 0.0145568820
-0.0331084937 0.0704136054 0.0206477514
-0.0454561543 0.0630889760 0.0342140820
-0.0556531999 0.0543626913 0.0358171407
-0.0664068598 0.0407436916 0.0139919546
-0.0719827197 0.0296681132 0.0236818438
-0.0763172199 0.0146686719 0.0399074140
-0.0779056006 0.0012879126 0.0177297969
-0.0761739005 -0.0155805725 0.0375727769
-0.0714316980 -0.0307064326 0.0285956734
-0.0674687368 -0.0386415794 0.0327272054
-0.0523314090 -0.0576377376 0.0162039190
0.0368868397 -0.0685445086 0.0108659439
0.0543811727 -0.0556786499 0.0144317674
-0.0647507062 -0.0433968310 0.0022848731
-0.0765755832 -0.0140045090 0.0010641049
-0.0750332043 0.0210232551 0.0071962289
-0.0487262124 0.0607289161 0.0072261057
-0.0098019432 0.0773084371 0.0069431893
0.0410529399 -0.0662977626 0.0068741473
0.0478120732 -0.0614900383 0.0091791408
0.0600407230 -0.0495218461 0.0124688495
0.0669970974 -0.0394538950 0.0331368074
0.0716202626 -0.0304683031 0.0187504769
0.5020102926 0.0558048201 -0.0633503120
0.4174401676 0.0694798839 -0.0612897138
0.3414216329 0.0372453546 -0.0610380205
0.2332824062 0.0296796673 -0.0625499518
0.0195226657 0.0736245308 -0.0637040353
-0.0135724772 -0.0755708422 -0.0595481564
0.4700089076 -0.0738159019 -0.0617286518
0.5212488491 -0.0289786451 -0.0590749622
0.4226796134 0.0679099317 -0.0706536589
-0.0028027461 -0.0742506117 -0.0696872313
-0.0761443437 -0.0013300893 -0.0639633419
0.0719534550 0.0365207148 -0.0647808987
0.2290604437 0.0287823493 -0.0658746937
0.3929502072 0.0542877669 -0.0649412353
0.1972612846 -0.0565619403 -0.0708090178
0.3297824550 0.0327673630 -0.0707079154
-0.0267648083 0.0689053158 -0.0698791924
0.3140690140 -0.0497774967 -0.0703388516
-0.0004391683 0.0749697550 -0.0681131841
0.3547297849 0.0375258795 -0.0679062399
0.0756696405 0.0318063171 -0.0697557147
-0.0752610870 -0.0022991170 -0.0673674024
0.1308912073 -0.0627224270 -0.0681927916
0.4204982290 -0.0692167077 -0.0681477076
0.4742715758 0.0713309392 -0.0668860725
0.0683899590 -0.0668239133 -0.0683017843
0.4361159341 -0.0747878901 -0.0645675544
0.5209197834 0.0272293699 -0.0649603179
-0.0694618782 -0.0328985770 -0.0586445124
-0.0750078842 0.0169619678 -0.0580752830
-0.0415995256 0.0644156053 -0.0602712814
0.0218871992 0.0737173816 -0.0585379264
-0.0622592353 -0.0463214857 -0.0432159500
-0.0748559332 -0.0203153620 -0.0440706174
-0.0765481410 0.0105570870 -0.0524222331
-0.0674418379 0.0380800830 -0.0473688072
-0.0448770371 0.0635350142 -0.0412169070
-0.0170821299 0.0753926537 -0.0533512456
0.0148171834 0.0758733077 -0.0512343520
-0.0549956973 -0.0549050781 -0.0339076160
-0.0647816105 -0.0433477316 -0.0150795328
-0.0699778311 -0.0344129802 -0.0054764311
-0.0754884983 -0.0190250988 -0.0070084289
-0.0769609011 -0.0106100184 -0.0389328281
-0.0776451063 0.0050093165 -0.0345627725
-0.0753485183 0.0192711821 -0.0174326434
-0.0729187415 0.0269980078 -0.0241233351
-0.0678586157 0.0378344395 -0.0383233092
-0.0616879109 0.0473507672 -0.0265896421
-0.0557775914 0.0541456484 -0.0289657436
-0.0457069749 0.0630050351 -0.0366653746
-0.0323546848 0.0707668488 -0.0072494636
-0.0261395529 0.0733360803 -0.0106200456
-0.0153030202 0.0762391836 -0.0251679590
-0.0008084098 0.0778214457 -0.0180850590
0.0079522496 0.0773989869 -0.0138434194
0.0184208076 0.0755829597 -0.0213949899
0.0606104570 -0.0486958668 -0.0387624917
0.0643858374 -0.0427437003 -0.0537984943
0.0732267899 -0.0259994576 -0.0436172416
0.0531740638 -0.0569329275 -0.0254816710
0.0363710034 -0.0687217604 -0.0326821480
0.0680366484 -0.0378550218 -0.0031791146
0.0622735337 -0.0467849429 -0.0145692154
0.0537317374 -0.0562123715 -0.0418879698
0.0438415435 -0.0643526456 -0.0067883234
0.0341600476 -0.0689705756 -0.0595334178
0.5122303410 0.0456432795 0.0559415972
0.4788239094 0.0716983524 0.0538585968
0.4327108218 0.0749504662 0.0591219608
0.3980203986 0.0593504147 0.0488467524
0.3640586300 0.0416875281 0.0547904552
0.0413944296 0.0646846397 0.0602873812
0.0631947240 0.0465093872 0.0547021863
0.0930113023 0.0265461724 0.0515606838
0.1306361649 0.0239083255 0.0552313970
0.1667399143 0.0262965033 0.0519262806
0.1743920539 0.0266513817 0.0539606390
0.1763732218 0.0269405533 0.0513930627
0.2576166844 0.0319728995 0.0545739546
0.3108371167 0.0352550846 0.0568861453
0.3567987418 0.0398841859 0.0568050001
0.5170627783 0.0393154763 0.0337030547
0.5098585331 0.0495277963 0.0403921445
0.4950917055 0.0633016489 0.0332103210
0.4821809812 0.0709647395 0.0203747755
0.4661002125 0.0760762546 0.0288178847
0.4526464074 0.0777457446 0.0315877939
0.4345551950 0.0762832047 0.0323375030
0.4207455530 0.0721562549 0.0234817289
0.4053576676 0.0643124576 0.0314666103
0.3890465056 0.0536788660 0.0398931088
0.3764839079 0.0464999416 0.0475795003
0.3640252891 0.0424331145 0.0243650143
0.3404590667 0.0382186194 0.0348536256
0.3275891446 0.0371975924 0.0317545998
0.2147379485 0.0296753986 0.0451553920
0.2295046504 0.0306137270 0.0462920628
0.2713662227 0.0334345755 0.0351506516
0.2802878858 0.0340282907 0.0334435781
0.2418037780 0.0314808947 0.0395898435
0.2523418664 0.0323594001 0.0217452208
0.1713458351 0.0269148817 0.0421040212
0.1771696532 0.0274420952 0.0285170783
0.2613359591 0.0329109331 0.0242221414
0.1438591743 0.0251572337 0.0467167796
0.1424937784 0.0251699289 0.0380172439
0.1312085674 0.0244296057 0.0457199424
0.1156121069 0.0241170005 0.0434337019
0.0962914264 0.0261732423 0.0330568419
0.0834511326 0.0307153569 0.0355407314
0.0719050805 0.0388738401 0.0313521644
0.0581671735 0.0526133269 0.0199961845
0.0495888095 0.0598581875 0.0449975726
0.0315312820 0.0712357807 0.0269940375
0.5052116738 0.0550097820 0.0015286497
0.4943582672 0.0639858565 0.0173945516
0.4811387684 0.0715023978 0.0157939828
0.4396291637 0.0771576699 0.0075938641
0.3904774754 0.0548697562 0.0188952344
0.3828342103 0.0502104399 -0.0072544636
0.2247278521 0.0306108244 0.0064844583
0.1743936596 0.0273690400 -0.0072354822
0.2165659427 0.0300851549 0.0185956201
0.2275722781 0.0307940202 0.0069156181
0.2395656330 0.0315664548 0.0179845550
0.1784660309 0.0276313220 0.0075721116
0.1618099798 0.0265801406 0.0041551956
0.1687912077 0.0270131791 0.0155381756
0.1447240793 0.0255203195 -0.0119551911
0.1272122030 0.0245684557 0.0071040856
0.1180888369 0.0244026947 -0.0026429687
0.1069401204 0.0248111037 -0.0157496972
0.0939968269 0.0268957655 0.0132873384
0.0557004195 0.0548953198 0.0019117520
0.0503328519 0.0596661814 -0.0063516067
0.0340601819 0.0701171199 -0.0107450190
0.3804398345 -0.0332417620 0.0566128453
0.4268405073 -0.0734837181 0.0583062292
0.4526280537 -0.0770432364 0.0577037314
0.5173005113 -0.0384524171 0.0496584437
0.5265407017 -0.0105762351 0.0541955489
0.3796697445 -0.0327336433 0.0445335707
0.3938070280 -0.0536565060 0.0394916860
0.4106934357 -0.0670377823 0.0364959996
0.4422629192 -0.0772333261 0.0470409146
0.4702422360 -0.0749805862 0.0423165973
0.4954249969 -0.0629856476 0.0407999598
0.5168010135 -0.0396860111 0.0447081854
0.5267465858 -0.0131943909 0.0330722111
0.5267496582 0.0110772466 0.0458502729
0.5253063350 0.0199115306 0.0180005668
0.5276937138 0.0060731572 0.0049238363
0.5274782227 -0.0072073298 0.0200001716
0.5246752028 -0.0223120054 0.0171772110
0.5184883483 -0.0369432822 0.0299553008
0.5090928335 -0.0506837856 0.0011540579
0.5009466550 -0.0588106415 0.0244361930
0.4881176441 -0.0678997346 0.0191888816
0.4779534823 -0.0726243822 0.0238257207
0.4603238426 -0.0771923407 0.0069839525
0.4435614424 -0.0776891549 0.0100213606
0.4321003110 -0.0758120364 0.0154805960
0.4168688964 -0.0704610727 0.0245571131
0.4031874524 -0.0621784084 0.0105442146
0.3928869866 -0.0529884274 0.0132370372
0.3829028086 -0.0394434494 0.0124156818
0.3773840630 -0.0282197752 0.0183919053
0.3737415692 -0.0159787216 0.0284993590
-0.0211573592 0.0731188605 0.0645264837
0.1800835806 0.0260772027 0.0637273491
0.2684938355 0.0319405122 0.0625830787
0.4044811656 0.0624296615 0.0615978182
0.4839626344 0.0685692888 0.0615575237
0.5258062996 0.0084654983 0.0632251882
0.5101432589 -0.0479925171 0.0587660407
0.4371075835 -0.0750764071 0.0639731270
0.2948566509 0.0302120835 0.0709409934
0.2733145258 -0.0522828562 0.0703707238
0.2519783041 -0.0540292389 0.0700014587
0.3993108437 0.0560060337 0.0699509483
-0.0695091598 0.0241757326 0.0703768291
0.0052262602 -0.0751532540 0.0678578941
0.1538288417 -0.0613181402 0.0680578256
0.4955446015 -0.0587356005 0.0693238264
0.4732180898 0.0716963832 0.0673127013
0.3169959492 0.0333782104 0.0687617871
0.1174085611 0.0215162560 0.0680824841
-0.0705132297 0.0255431944 0.0680361603
0.2539598946 -0.0552652173 0.0670497411
0.4725679714 -0.0726573164 0.0650147360
0.4926771013 0.0629941083 0.0644907107
0.3557858768 0.0384636753 0.0658781777
0.1779234758 0.0251787581 0.0669719644
0.0684505206 0.0392630225 0.0663008482
-0.0735578352 0.0178018938 0.0659584237
0.2729173378 0.0256953124 0.0528722559
0.2325204342 0.0230971828 0.0554575714
0.2426836544 0.0237504583 0.0536629252
0.2854674438 0.0265054803 0.0612998020
0.2904803386 0.0268277952 0.0607035560
0.1824795154 0.0198860863 0.0503609209
0.1682331025 0.0189778330 0.0448588602
0.2500369002 0.0242232331 0.0459115593
0.2706219413 0.0255466446 0.0426685691
0.2159653037 0.0220325996 0.0514532971
0.1206707277 0.0232475625 -0.0609461911
0.4153891044 0.0693974838 -0.0506998050
0.4294992111 0.0742290165 -0.0575052489
0.4884623235 0.0667324885 -0.0577633631
0.5046918030 0.0549934315 -0.0493596668
0.0443461704 0.0641091658 -0.0138618576
0.0646110464 0.0461215636 0.0130054586
0.0780562859 0.0341617956 0.0067058534
0.0932018398 0.0271139920 -0.0049097731
0.3093929975 0.0360637010 0.0071681617
0.2553731417 0.0325845407 -0.0068710843
0.2402553344 0.0316108751 -0.0076489646
0.3023932696 0.0356128820 0.0137486835
0.3025339059 0.0356219397 -0.0087444605
0.3181569772 0.0366281469 -0.0128407365
0.3301530576 0.0375476078 -0.0018970690
0.3422074227 0.0386068913 -0.0139139378
0.3523495479 0.0399862613 -0.0121849158
0.3610943337 0.0417235710 0.0126998959
0.3985048726 0.0601531662 -0.0036462206
0.4096308369 0.0670059425 -0.0037239231
0.4225208341 0.0728900361 -0.0117844156
0.4324495760 0.0759601071 -0.0124191412
0.4524702056 0.0778832308 0.0101627000
0.4665029415 0.0760932722 -0.0155651487
0.4908030081 0.0663816509 -0.0052567919
0.5165400325 0.0406282352 0.0186552009
0.5235619220 0.0255419148 -0.0046537504
0.5199189421 0.0339515417 -0.0365906214
0.5071586531 0.0524688704 -0.0427094704
0.4975172206 0.0617863288 -0.0224783974
0.4811437049 0.0712833008 -0.0372508329
0.4717213509 0.0747989673 -0.0251495675
0.4526950638 0.0776613319 -0.0392112986
0.4417149323 0.0773828901 -0.0236338900
0.4175094061 0.0708892592 -0.0256077375
0.4048932893 0.0639811602 -0.0350173156
0.3899776484 0.0542339459 -0.0429280787
0.3807210070 0.0490058057 -0.0253114388
0.3638619340 0.0424135650 -0.0223373224
0.3435512077 0.0384577117 -0.0467252212
0.3241511492 0.0368331875 -0.0393966347
0.2566320111 0.0323889517 -0.0437842269
0.3041630959 0.0356323204 -0.0275183854
0.2470586836 0.0317758716 -0.0434722171
0.2390089202 0.0313535534 -0.0348861663
0.2136375795 0.0296542152 -0.0407175505
0.2087775588 0.0294793626 -0.0283783196
0.2873129915 0.0345768098 -0.0248633634
0.2034065829 0.0291703380 -0.0250832309
0.2470168209 0.0320406580 -0.0195822082
0.1631885716 0.0263903220 -0.0436686005
0.1406885889 0.0251005187 -0.0342147679
0.1387984528 0.0250394606 -0.0291954269
0.1156425856 0.0241814920 -0.0376743609
0.0960273325 0.0260625834 -0.0466567764
0.0858211058 0.0296244532 -0.0306613404
0.0712720409 0.0393439630 -0.0363894425
0.0619257329 0.0486062564 -0.0331454073
0.0468486604 0.0618595811 -0.0473178328
0.0380811021 0.0677807646 -0.0299555354
0.3438915376 0.0383147250 -0.0506393523
0.2385825820 0.0307453285 -0.0546005095
0.2218310911 0.0293721255 -0.0592775791
0.2214977231 0.0296747861 -0.0541267351
0.1986794984 0.0284576792 -0.0501141094
0.1564420936 0.0253247325 -0.0572193267
0.1213039572 0.0238354765 -0.0518749750
0.0838262893 0.0297807146 -0.0562816095
0.0549203977 0.0547874765 -0.0521658817
0.4269615269 -0.0739799822 -0.0490977982
0.5228307045 -0.0263932838 -0.0490634308
0.5018162415 -0.0576100672 -0.0487403335
0.4677274779 -0.0750667828 -0.0548597065
0.4025880574 -0.0609768356 -0.0530396112
0.3750940681 -0.0199210913 -0.0490207260
0.5273051198 -0.0069975538 -0.0414700709
0.5212221151 -0.0309587946 -0.0471766282
0.5014486221 -0.0580852299 -0.0428871726
0.4858192872 -0.0689993918 -0.0347868941
0.4571994946 -0.0773964453 -0.0355014658
0.4276704840 -0.0744150953 -0.0379747781
0.4004283441 -0.0597168808 -0.0456263879
0.3823596252 -0.0384335029 -0.0333875741
0.3736707750 -0.0149787870 -0.0392579562
0.3766197381 -0.0262418031 -0.0064757607
0.3843528511 -0.0418733770 -0.0025113248
0.3883356843 -0.0474387514 -0.0307891034
0.4030259733 -0.0620475346 -0.0140651131
0.4098879496 -0.0666785496 -0.0243181029
0.4248736199 -0.0737777088 -0.0082549434
0.4404734305 -0.0772738645 -0.0113150141
0.4590459666 -0.0773263311 -0.0031066670
0.4638554965 -0.0766350358 -0.0286166781
0.4815484034 -0.0712608777 -0.0255698285
0.4961812750 -0.0626612860 -0.0320634175
0.5067594083 -0.0533205623 -0.0078719032
0.5163645300 -0.0407534278 -0.0276856676
0.5217764284 -0.0303775578 -0.0132973451
0.5262945919 -0.0152991194 -0.0309693220
0.5278542990 -0.0004599080 -0.0230624874
0.5264991803 0.0145511002 -0.0115139012
0.3259181785 0.0290519735 -0.0279671803
0.3471879333 0.0275908966 -0.0246024422
0.3602763741 0.0202724466 -0.0004302114
0.3691095333 0.0054980882 -0.0163240467
0.3729968770 -0.0122595610 -0.0236102739
0.3582279021 0.0226376935 -0.0555723454
0.3730258016 -0.0114609108 -0.0387870100
0.3615123112 0.0191175330 -0.0382120606
0.3667006358 0.0121783973 -0.0514253494
0.3189593436 0.0286580501 -0.0344987213
0.0881439221 0.0071590856 -0.0574751099
0.0789286249 -0.0083449043 -0.0088660058
0.1046879883 0.0148767921 -0.0269329609
0.1156003289 0.0162074580 -0.0068588916
0.0751917980 -0.0200273748 -0.0402252812
0.0898110506 0.0080124271 -0.0382471414
0.2924692789 0.0065907391 0.0710000023
0.3537575050 -0.0274215914 0.0710000023
0.3347937962 0.0089648394 0.0710000023
0.3289219690 -0.0232741552 0.0710000023
0.3650490052 -0.0317350619 0.0710000023
0.2234430065 0.0222774735 0.0710000023
0.2179955272 0.0097795216 0.0710000023
0.3224537378 0.0046319901 0.0710000023
0.3346856096 -0.0166996458 0.0710000023
0.2766604971 0.0058817927 0.0710000023
0.2329866879 0.0260365213 0.0710000023
0.2983779362 0.0235437809 0.0710000023
0.2601290176 0.0245006442 0.0710000023
0.2555311999 -0.0026892536 0.0710000023
0.3640157520 -0.0472034340 0.0710000023
0.3872112611 -0.0368762167 0.0710000023
0.4584802042 0.0711942107 0.0709556702
0.0454824167 -0.0555340766 0.0710000023
0.3765318508 0.0396111960 0.0710000023
0.3759431977 0.0193095348 0.0710000023
0.3762273551 -0.0113864990 0.0710000023
0.3735718587 -0.0240337709 0.0710000023
0.5039975583 0.0480821968 0.0709116740
0.0845589455 0.0112347901 0.0710000023
0.2712861360 -0.0358569739 0.0710000023
0.1296378912 -0.0144422893 0.0710000023
0.2844615192 -0.0394951056 0.0710000023
0.2209664986 0.0006147854 0.0710000023
0.3133546191 -0.0374980204 0.0710000023
0.1738885771 -0.0120480583 0.0710000023
0.3271407362 -0.0386250093 0.0710000023
0.3186283296 -0.0408094974 0.0710000023
0.2970910314 -0.0287881896 0.0710000023
0.1477593421 0.0042526537 0.0710000023
0.2451621556 -0.0112957484 0.0710000023
0.1096691018 0.0062542575 0.0710000023
0.2572177772 -0.0169809286 0.0710000023
0.1685586471 -0.0051749969 0.0710000023
0.2551332276 -0.0209331281 0.0710000023
0.1878033962 0.0076472193 0.0710000023
0.2323840026 -0.0128627016 0.0710000023
0.1848201641 -0.0113332683 0.0710000023
0.0918413648 -0.0477347687 0.0710000023
0.2411927608 -0.0488007268 0.0710000023
0.0884406719 -0.0513631172 0.0710000023
0.1357062510 -0.0543873216 0.0710000023
0.2724344433 -0.0505225816 0.0710000023
0.3057603183 -0.0492382129 0.0710000023
0.0633610951 -0.0369123085 0.0710000023
0.0928419096 -0.0615317687 0.0710000023
0.1375464775 -0.0533229507 0.0710000023
0.1088243393 -0.0367199174 0.0710000023
0.1040423716 -0.0281581844 0.0710000023
0.1883538403 -0.0387881397 0.0710000023
0.2272644116 -0.0410373356 0.0710000023
0.1245338802 -0.0213425381 0.0710000023
0.0851183147 -0.0153965859 0.0710000023
0.1538364522 -0.0253885790 0.0710000023
-0.0655243888 0.0283544957 0.0709721253
0.2025984072 -0.0298860085 -0.0630000010
0.2974794251 -0.0377908736 -0.0630000010
0.3104597360 -0.0368960530 -0.0630000010
0.1999038256 -0.0292366414 -0.0630000010
0.1538661210 -0.0379850157 -0.0630000010
0.2404632440 -0.0358582004 -0.0630000010
0.0684891481 -0.0405724658 -0.0630000010
0.2370340158 -0.0355357594 -0.0630000010
0.0651694383 -0.0501148442 -0.0629972655
0.2001678815 -0.0003759422 -0.0630000010
0.3274643997 -0.0122060268 -0.0630000010
0.2935031168 0.0040143384 -0.0630000010
0.2402579861 0.0003569871 -0.0630000010
0.3003341819 0.0116269902 -0.0630000010
0.3089606309 -0.0083103359 -0.0630000010
0.1424503127 0.0122188866 -0.0630000010
0.1269135820 0.0065234631 -0.0630000010
0.3428858659 -0.0285365520 -0.0630000010
0.3224409294 0.0192474518 -0.0630000010
0.1557921062 0.0135284912 -0.0630000010
0.2989180354 -0.0238830009 -0.0630000010
0.2881346875 -0.0066481346 -0.0630000010
0.3633409683 -0.0206441280 -0.0630000010
0.2825085632 -0.0175232045 -0.0630000010
0.3579155628 -0.0321953427 -0.0630000010
0.3180768229 -0.0443514683 -0.0630000010
0.1792022576 -0.0420058483 -0.0630000010
0.2865176789 -0.0460848870 -0.0630000010
0.3675917603 -0.0441617922 -0.0630000010
0.3547488503 0.0051253703 -0.0630000010
0.1897891071 -0.0499598848 -0.0630000010
0.1133676357 -0.0568868542 -0.0630000010
0.1177935345 -0.0523192894 -0.0630000010
0.1372506700 -0.0599039819 -0.0630000010
0.0769509411 -0.0526845335 -0.0630000010
0.1975452726 -0.0557960845 -0.0630000010
0.3574662534 0.0113425032 -0.0629996583
0.3220746556 -0.0334058795 -0.0630000010
0.0941413449 -0.0151011038 -0.0630000010
0.2273334116 -0.0183362087 -0.0630000010
0.2451334536 -0.0297696939 -0.0630000010
0.1652215776 -0.0251526764 -0.0630000010
0.1345082965 -0.0220878705 -0.0630000010
0.1432486096 -0.0095703808 -0.0630000010
0.2156476483 -0.0143438010 -0.0630000010
0.1040034362 0.0040292675 -0.0630000010
0.2895949456 -0.0230801779 -0.0630000010
0.4026290463 -0.0606657807 -0.0613120179
0.0724460311 -0.0264135841 0.0579101538
0.0796784629 0.0096681748 0.0630000010
0.3488300026 0.0030601006 0.0630000010
0.1558697722 0.0144985253 0.0630000010
0.2924558679 -0.0181336942 0.0630000010
0.3388271209 0.0053744462 0.0630000010
0.2683428220 0.0064804939 0.0630000010
0.2712421405 0.0111445091 0.0630000010
0.2834978230 -0.0092999185 0.0630000010
0.2971885387 0.0262527142 0.0630000010
0.3638582347 -0.0232858824 0.0630000010
0.3306293818 0.0136987072 0.0630000010
0.3378347632 -0.0252527855 0.0630000010
0.2262762754 0.0045914974 0.0630000010
0.2494321943 0.0071027194 0.0630000010
0.2550821655 0.0023683849 0.0630000010
0.2974985618 0.0248763735 0.0630000010
0.3049044064 -0.0046675606 0.0630000010
0.3545227030 -0.0448478960 0.0630000010
0.0975096870 -0.0244669531 0.0630000010
0.2848310850 -0.0312107596 0.0630000010
0.1962587487 -0.0254648457 0.0630000010
0.0919786020 -0.0181910696 0.0630000010
0.3369987217 -0.0327323755 0.0630000010
0.1323512807 -0.0296060570 0.0630000010
0.2124034807 -0.0247144362 0.0630000010
0.1243619577 -0.0265530346 0.0630000010
0.1256210186 -0.0102698075 0.0630000010
0.1160818112 -0.0346689333 0.0630000010
0.1083465581 -0.0258229142 0.0630000010
0.1862438513 -0.0248986557 0.0630000010
0.2262906737 -0.0198662576 0.0630000010
0.2481923574 -0.0208556016 0.0630000010
0.2956795093 -0.0247329188 0.0630000010
0.1794957671 -0.0031874607 0.0630000010
0.1886828591 -0.0046142340 0.0630000010
0.3693305682 -0.0364973017 0.0630000010
0.1301288518 0.0047682546 0.0630000010
0.1496071721 0.0091452390 0.0630000010
0.3616284199 0.0224681604 0.0630000010
0.3670924042 -0.0118269023 0.0630000010
0.2877492792 -0.0390744985 0.0630000010
0.2798922767 -0.0386393705 0.0630000010
0.2196073201 -0.0431293866 0.0630000010
0.0906150479 -0.0556155799 0.0630000010
0.1048734154 -0.0540761730 0.0630000010
0.1592893361 -0.0521190871 0.0630000010
0.1819438245 -0.0507565986 0.0630000010
0.1184864743 -0.0538233812 0.0630000010
0.0770218569 -0.0635374758 0.0630000010
0.0717342018 -0.0577099062 0.0630000010
0.0565039877 -0.0652522160 0.0630017192
0.0124247245 -0.0622585214 -0.0595417163
-0.0626600695 -0.0156543156 -0.0637999997
0.0640084427 -0.0171144755 -0.0672324509
0.0150470649 0.0552787648 -0.0669574810
-0.0242539344 0.0518981880 -0.0663184816
-0.0510161568 0.0262182263 -0.0704354538
-0.0551690736 -0.0154123134 -0.0703683460
-0.0377141127 -0.0432259516 -0.0613832626
-0.0039296826 -0.0571469427 -0.0642916794
0.0332083356 -0.0466740342 -0.0613143796
0.0565143774 -0.0101699820 -0.0631289205
0.0532409801 0.0214741559 -0.0706311409
0.0236176909 0.0521858013 -0.0653037023
-0.0474992174 0.0480475521 -0.0665339067
-0.0696610318 -0.0117204221 -0.0665790036
-0.0452007291 -0.0434189197 -0.0707814908
0.0162879456 -0.0675733228 -0.0675181593
0.0659828390 0.0076591919 -0.0644646866
-0.0456220535 -0.0453460659 -0.0590000004
-0.0562013433 -0.0263051310 -0.0590000004
-0.0571631567 0.0367219623 -0.0590000004
-0.0382985133 0.0506346114 -0.0590000004
0.0068895121 0.0646119835 -0.0590000004
0.0325280056 0.0589092597 -0.0590000004
0.0646640063 0.0166155337 -0.0590000004
0.0547618723 -0.0411032558 -0.0590000004
0.0361507255 -0.0449541167 -0.0590000004
-0.0044277094 -0.0717809053 -0.0590000004
-0.0290321528 -0.0640681333 -0.0590000004
0.0600949087 -0.0045532158 -0.0590000004
0.4518099301 0.0607278867 -0.0590000004
0.3962390844 0.0280678637 -0.0590000004
0.3893458341 -0.0235400065 -0.0590000004
0.4749329493 0.0548374682 -0.0590000004
0.5003952407 0.0449314881 -0.0590000004
0.5120402091 0.0000426939 -0.0590000004
0.4391792810 -0.0678110483 -0.0590000004
0.4603438863 -0.0699591490 -0.0590000004
0.3867381356 0.0059480238 -0.0590000004
0.4345890311 0.0686021933 -0.0590000004
0.5157494676 0.0016995545 -0.0611095987
0.4199775535 -0.0561607651 -0.0637999997
0.4446461271 0.0681204721 -0.0599382430
-0.0460096613 -0.0563804738 0.0357817594
0.0263974701 -0.0695532685 -0.0525197527
0.0258864432 -0.0682067934 -0.0018490566
-0.0203163214 -0.0706777764 0.0529999994
-0.0594539833 -0.0391100475 0.0161068877
-0.0550208525 -0.0451332568 0.0005767292
-0.0535912528 -0.0469208368 -0.0054735060
-0.0520499488 -0.0485903028 0.0415592800
-0.0460235142 -0.0543011343 0.0154197468
-0.0495321545 -0.0511135929 0.0066897126
-0.0074379762 -0.0706231323 0.0707196811
-0.0272574793 -0.0655681148 0.0680886107
0.0712371754 0.0007281109 -0.0370434354
0.0712426073 0.0006531016 -0.0022925995
0.0706524134 0.0068085391 -0.0308880410
0.0289670627 -0.0650279218 -0.0116037864
0.0281253472 -0.0653216121 0.0260587164
0.0707640639 -0.0065800956 0.0427019643
0.0703463712 -0.0112311277 0.0011794232
0.0702959169 -0.0115471374 0.0336579287
0.0677698289 -0.0215178514 -0.0307169480
0.0673629984 -0.0231236507 -0.0084568425
0.0648945228 -0.0287551125 0.0340586820
0.0668297901 -0.0244523286 -0.0330429339
0.0637961502 -0.0311971834 0.0204400260
0.0616076263 -0.0356280115 0.0042369663
0.0570430958 -0.0423402850 -0.0347023168
0.0607751275 -0.0368522249 -0.0290993133
0.0544672702 -0.0458029488 -0.0000627647
0.0469006382 -0.0535793241 0.0113222745
0.0482757567 -0.0521660880 -0.0292051363
0.0430024407 -0.0564996273 0.0121014743
0.0366704669 -0.0610635667 0.0373834640
0.0383269336 -0.0598696241 -0.0239965397
0.0324553496 -0.0633691055 -0.0304289016
0.0704745660 0.0085871639 -0.0088188636
0.0694919512 0.0150990797 0.0182494073
0.0674764799 0.0222295908 0.0387805929
0.0683190569 0.0192486482 0.0214296386
0.0648325907 0.0289690963 -0.0035325548
0.0656126653 0.0273542271 0.0571258672
0.0649802668 0.0286633849 0.0503429703
0.0591619687 0.0393087291 0.0189087479
0.0575787548 0.0415052676 0.0617985603
0.0547832584 0.0453837174 0.0121114842
0.0483698404 0.0519696125 -0.0016834770
0.0476448843 0.0526750151 -0.0012025449
0.0478093811 0.0525149551 0.0272430119
0.0443461829 0.0556790301 -0.0346145588
0.0387706507 0.0594705453 0.0355595584
0.0350239167 0.0620184274 0.0203349589
0.0274976612 0.0654600879 -0.0232421281
0.0286067187 0.0649612661 0.0388576581
0.0284659212 0.0650245927 0.0264570673
0.0158463174 0.0692067164 -0.0307021522
0.0120050008 0.0701799169 -0.0204284867
0.0178634730 0.0686956684 0.0579247044
0.0072537259 0.0706367172 0.0170438322
0.0097741603 0.0704508840 0.0059456782
0.0098078187 0.0704484023 0.0592060527
-0.0027947379 0.0710589319 -0.0040555399
-0.0050753674 0.0708279494 0.0080240193
-0.0047081248 0.0708651438 0.0498285955
-0.0170377520 0.0689439767 -0.0115533910
-0.0158727329 0.0692732746 0.0226988475
-0.0194573760 0.0682600590 0.0152594811
-0.0255653133 0.0664768134 0.0575121676
-0.0264900652 0.0660301051 0.0131438372
-0.0363118071 0.0612856395 0.0377525403
-0.0402934655 0.0584521936 -0.0123501302
-0.0369066516 0.0608933303 0.0396558550
-0.0446274735 0.0553283414 0.0538086029
-0.0476291081 0.0528306613 0.0403225605
-0.0488578634 0.0515678456 0.0032996613
-0.0501895368 0.0501992589 0.0278048942
-0.0552321895 0.0450032750 0.0578454161
-0.0571679714 0.0421566520 -0.0290350389
-0.0616759705 0.0355275094 0.0113663358
-0.0651619931 0.0281604316 -0.0211824250
-0.0640044750 0.0307340037 -0.0295317951
-0.0651465882 0.0281946819 0.0612369755
-0.0674465456 0.0227938818 -0.0303561775
-0.0694799101 0.0147679954 -0.0375738976
-0.0689697810 0.0167815242 0.0101665696
-0.0707115335 0.0062390004 -0.0026050611
-0.0708853237 0.0038819035 -0.0396248430
-0.0712303813 -0.0007980746 -0.0099030364
-0.0711171830 -0.0022195901 -0.0331683570
-0.0706814033 -0.0065223052 0.0166688627
-0.0700048903 -0.0132019244 -0.0051479523
-0.0681403468 -0.0198809043 -0.0288742400
-0.0688601713 -0.0173342461 0.0129246774
-0.0677617380 -0.0212203799 0.0699928240
-0.0665118689 -0.0254927433 0.0540674603
-0.0626284899 -0.0335319092 -0.0381231970
-0.0632039856 -0.0323405483 0.0130821177
-0.0594749979 -0.0392139076 0.0599357725
0.3855285965 0.0297664080 -0.0269964073
0.3863064548 0.0317344184 0.0345084503
0.3810615987 0.0169054207 -0.0306350241
0.3871100192 0.0332814520 0.0686273118
0.3802216626 0.0139673715 0.0510326183
0.3791340364 0.0041444054 0.0012604628
0.3788560682 0.0003742285 -0.0417018693
0.3791688385 0.0046164375 0.0581618579
0.3793069998 -0.0064076637 -0.0056797278
0.3788639027 -0.0020326726 -0.0274157291
0.3793003190 -0.0063416997 0.0310803701
0.3800113908 -0.0133419298 -0.0199406752
0.3804975269 -0.0150618262 0.0085803953
0.3831947584 -0.0246043364 0.0419575784
0.3838508943 -0.0262437039 -0.0302783331
0.3837579523 -0.0260512997 0.0423050975
0.3861222022 -0.0309456590 0.0461804881
0.3903614569 -0.0386475406 0.0320330134
0.3890615771 -0.0368441011 -0.0072265605
0.3938134428 -0.0434367897 0.0371870476
0.3983437082 -0.0487717980 -0.0190474131
0.3979343934 -0.0483735229 0.0294599241
0.4048001142 -0.0550540681 -0.0315063652
0.3998636450 -0.0502507406 0.0617112314
0.4131765757 -0.0607947283 -0.0238742205
0.4128970064 -0.0606046130 0.0212229671
0.4094560284 -0.0582646471 0.0294704354
0.4213590271 -0.0649458618 -0.0315532588
0.4233404713 -0.0658370533 0.0394519434
0.4209482172 -0.0647610924 0.0253880330
0.4315640826 -0.0685506385 -0.0044210359
0.4269257581 -0.0673755110 0.0684713479
0.4377417764 -0.0701157678 0.0650389770
0.4388653691 -0.0703505825 0.0103666022
0.4414904962 -0.0705441329 0.0620322915
0.4467071916 -0.0709287595 0.0288185709
0.4539784965 -0.0709390402 -0.0057300835
0.4600574642 -0.0703233566 0.0206000294
0.4623193375 -0.0700942719 -0.0201951322
0.4678932224 -0.0687021659 -0.0419481466
0.4657549248 -0.0693065654 0.0485987486
0.4735567097 -0.0671013556 -0.0204668344
0.4761836778 -0.0661780994 0.0474467263
0.4823846391 -0.0631826803 0.0497589813
0.4803865657 -0.0641478641 0.0323204839
0.4873988759 -0.0605385404 -0.0329446255
0.4894204438 -0.0590814433 0.0387793554
0.4913825484 -0.0576672060 0.0483833327
0.4992989601 -0.0511145212 -0.0002196869
0.5016297655 -0.0487191040 0.0522149424
0.5009681121 -0.0493990990 0.0263483711
0.5054746362 -0.0446467397 -0.0277509480
0.5080999632 -0.0407861366 0.0468946183
0.5118264372 -0.0353062717 0.0509165375
0.5141823469 -0.0303385411 -0.0299402340
0.5148022188 -0.0289603360 0.0493441143
0.5141958384 -0.0303085444 0.0528093593
0.5179483191 -0.0208132884 -0.0056052605
0.5194412193 -0.0149207375 0.0312052713
0.5200571945 -0.0124894525 0.0275862949
0.5209941050 -0.0024064564 -0.0351919377
0.5212348604 0.0008589893 0.0259935468
0.5210648376 -0.0014470864 0.0531466491
0.5204067781 0.0092337750 -0.0325288875
0.5200780990 0.0124790379 -0.0073265293
0.5201525656 0.0117437804 0.0490575086
0.5185193442 0.0185399997 0.0142009185
0.5172943220 0.0228739621 -0.0221955610
0.5197224457 0.0142835893 0.0632763318
0.5152746599 0.0280538982 0.0397101539
0.5146555382 0.0293355755 0.0061787051
0.5129819396 0.0328001825 0.0461675007
0.5076939326 0.0413454474 0.0018981970
0.5079958043 0.0409266341 -0.0081762835
0.5050237279 0.0450500587 0.0102775802
0.4957760465 0.0544934405 -0.0346491175
0.4997312917 0.0506448660 -0.0417644532
0.4953187441 0.0549384098 0.0608682157
0.4903260940 0.0584128065 0.0171312937
0.4928833369 0.0566738046 0.0232141520
0.4873658059 0.0604258914 0.0090718680
0.4799436068 0.0643599842 -0.0345882959
0.4839863417 0.0625416826 -0.0234059320
0.4777549637 0.0653443706 0.0050495809
0.4661035500 0.0691415523 -0.0311812094
0.4713431368 0.0678140972 0.0122857641
0.4623040394 0.0701041624 0.0640724461
0.4556147874 0.0707575571 -0.0152820666
0.4603634960 0.0704074380 -0.0243810193
0.4528494810 0.0709614413 0.0281591806
0.4398107579 0.0703100130 -0.0230008087
0.4488362418 0.0712241117 -0.0334789409
0.4403726865 0.0703669250 0.0270113158
0.4353250845 0.0696118416 0.0329918852
0.4277860815 0.0674809129 -0.0326102376
0.4273191490 0.0673489326 0.0109206483
0.4175516516 0.0631519216 -0.0026388168
0.4220770870 0.0653379629 -0.0351098582
0.4206119462 0.0646302170 0.0382423938
0.4080734089 0.0572750761 -0.0229730836
0.4123063801 0.0603261159 -0.0178826266
0.4059135493 0.0557182931 -0.0102765662
0.4030108338 0.0534883279 -0.0227868700
0.3988398035 0.0492016805 -0.0269743872
0.3977579245 0.0480898128 0.0514413416
0.3915817946 0.0403181491 0.0177276043
0.3925493160 0.0417409114 0.0293434085
0.3905634899 0.0388207088 0.0314483051
0.3871286553 0.0335104125 0.0213079524
0.1395485028 -0.0627029793 0.0667678567
0.2895187646 -0.0529962585 0.0650434703
0.3320352956 -0.0498819592 0.0641489140
0.0677204468 -0.0648772271 0.0630526791
0.2252415859 -0.0572438379 0.0654864186
0.1507478472 -0.0620534914 -0.0661617532
0.3740979765 -0.0500288092 -0.0638313528
0.0514283375 -0.0688456376 -0.0654275120
0.3396015858 -0.0499496564 -0.0656787282
0.0819766166 0.0038602462 0.0379999988
0.2694554252 0.0127705487 0.0379999988
0.1639027895 0.0057492956 0.0379999988
0.1162188906 0.0083063153 0.0379999988
0.1679447761 0.0051171676 0.0379999988
0.1217783507 0.0092997749 0.0379999988
0.2595168538 0.0230796703 0.0379999988
0.2438742914 0.0220948941 0.0379999988
0.3748921186 0.0238028246 0.0379999988
0.3563840570 0.0291025890 0.0379999988
0.3847056182 0.0328788678 0.0436602248
0.3403364302 0.0300277767 0.0471798690
0.3403874609 0.0300361249 0.0618538469
0.3642750424 0.0175365661 0.0562200619
0.0778007619 0.0131491987 0.0491972479
0.0984963675 0.0144796347 0.0535802443
0.2775518902 0.0119614910 0.0353486059
0.1555358560 0.0041175737 0.0375711820
0.1189287981 0.0017642542 0.0352151290
0.1435171953 0.0173807301 0.0337726237
0.2969330255 0.0134670757 0.0330000035
0.1938519281 0.0069954692 0.0330000035
0.2163336229 0.0117168444 0.0330000035
0.2450967728 0.0154328550 0.0330000035
0.2939103052 0.0161858042 0.0330000035
0.0657490474 -0.0432587523 0.0625531755
0.3745423948 -0.0188267046 0.0620430643
0.2423301528 0.0194428029 0.0329094572
0.1828856036 0.0175648807 0.0322521360
0.2632275208 0.0242047909 0.0308409537
0.2980721816 0.0273011712 0.0285322952
0.3601503206 0.0206268613 -0.0608482731
0.2175843771 0.0219135366 -0.0610654623
0.2256067651 0.0208140189 -0.0627061140
0.1263707081 0.0139821409 -0.0629015093
0.0574014211 -0.0520429138 -0.0611783618
0.4029835753 -0.0405486758 -0.0689999983
0.4087342701 0.0573921518 -0.0689999983
0.4974935682 0.0358190139 -0.0689999983
0.4788274154 -0.0549078463 -0.0689999983
0.5134085505 -0.0242762286 -0.0689999983
0.4508675619 0.0616867098 -0.0689999983
0.4393918039 -0.0585441585 -0.0689999983
0.3970652912 0.0313099329 -0.0689999983
0.4180902417 -0.0481062269 -0.0689999983
0.5002359011 -0.0310921616 -0.0689999983
0.4836436017 0.0626958369 -0.0697354863
0.3989608533 -0.0493722980 -0.0693610136
0.3808102903 -0.0361616229 -0.0697696679
0.5171427012 -0.0302297430 0.0704458967
-0.0397270011 -0.0603463866 -0.0709565875
0.4409581199 0.0726517484 -0.0706718903
