-0.0474999994 0.0353006784 0.1722909043
-0.0474999994 0.0038614857 0.1662879877
-0.0474999994 0.0183698343 0.1698096785
-0.0474999994 0.0092598011 0.1701789149
-0.0474999994 0.0270807492 0.1729443099
0.0286979511 0.0117828726 0.1764899939
0.0451700701 -0.0202676117 0.1764899939
0.0428652013 -0.0173075673 0.1764899939
0.0469103482 -0.0209613209 0.1764899939
0.0388310774 -0.0268413477 0.1764899939
-0.0345105686 0.0038350169 0.1764899939
-0.0418996168 -0.0001836898 0.1764899939
0.0141264356 0.0051607791 0.1764899939
-0.0081260172 0.0088362646 0.1764899939
0.0050481199 -0.0215634073 0.1764899939
0.0279103827 -0.0248232717 0.1764899939
0.0181280903 -0.0090341731 0.1764899939
0.0290962045 0.0034634213 0.1764899939
0.0181483432 -0.0049948538 0.1764899939
0.0342286235 0.0193019970 0.1764899939
0.0405495280 0.0182257830 0.1764899939
0.0399630348 0.0167806973 0.1764899939
0.0136289533 0.0177839940 0.1764899939
-0.0039800056 0.0268556352 0.1764899939
-0.0078203945 0.0304770841 0.1764899939
-0.0222054859 0.0205623675 0.1764899939
-0.0251997120 0.0155689963 0.1764899939
-0.0435535194 0.0041826250 0.1764899939
-0.0389619924 0.0085854490 0.1764899939
-0.0388656110 -0.0106606361 0.1764899939
-0.0394256309 -0.0083718391 0.1764899939
-0.0385208685 -0.0065013390 0.1764899939
-0.0290486906 -0.0092076224 0.1764899939
-0.0261118229 -0.0153392335 0.1764899939
-0.0288793528 -0.0186720927 0.1764899939
-0.0309768879 -0.0286101648 0.1764899939
-0.0045752413 -0.0215758020 0.1764899939
-0.0034645322 -0.0275624995 0.1764899939
0.0341748243 -0.0304382415 0.1764899939
-0.0075183951 -0.0123521415 0.1764899939
-0.0086819599 -0.0220307233 0.1764899939
0.0096304703 -0.0173734632 0.1764899939
0.0165003434 0.0006769095 0.1764899939
0.0175590626 0.0120462502 0.1764899939
-0.0055038815 0.0205625711 0.1764899939
0.0065574230 0.0124644188 0.1764899939
-0.0114223152 0.0051017187 0.1764899939
-0.0138821247 -0.0060498918 0.1764899939
-0.0238628244 0.0308834688 0.1764899939
-0.0267751932 0.0210796709 0.1764899939
-0.0431728662 0.0244238739 0.1764899939
0.0328506772 0.0303139504 0.1764899939
0.0238772654 0.0292646406 0.1764899939
0.0464261301 0.0102061796 0.1764899939
0.0463784469 0.0110835024 0.1764899939
-0.0095521857 0.0028407660 0.1763535527
-0.0029799657 0.0095148873 0.1757355242
0.0074037236 0.0066845969 0.1703935406
0.0095517846 -0.0028422631 0.1717419313
0.0007324482 -0.0099359191 0.1726486124
-0.0082811965 -0.0055413503 0.1687740989
0.0334739039 0.0474999994 0.1653859181
0.0296669102 0.0474999994 0.1672255156
-0.0052815406 0.0474999994 0.1715432331
0.0147297566 0.0474999994 0.1701813638
-0.0253972615 0.0474999994 0.1724379500
0.0309385647 0.0474999994 0.1705790338
-0.0195244308 0.0474999994 0.1667734063
0.0015682957 0.0474999994 0.1652667977
0.0474999994 0.0412464007 0.1691556623
0.0474999994 0.0276029815 0.1760147760
0.0474999994 0.0129269268 0.1730285327
0.0474999994 0.0145191115 0.1687494027
0.0474999994 0.0012748825 0.1675920903
0.0474999994 -0.0013661778 0.1723952244
0.0474999994 -0.0051801459 0.1758546805
0.0474999994 -0.0240090048 0.1724016397
0.0474999994 -0.0366625145 0.1646821490
0.0474999994 -0.0227899332 0.1690062347
-0.0343473053 -0.0474999994 0.1716673009
-0.0287782695 -0.0474999994 0.1673802470
-0.0290306952 -0.0474999994 0.1720628884
-0.0354655936 -0.0474999994 0.1724980484
0.0299060335 -0.0474999994 0.1730013111
0.0084678457 -0.0474999994 0.1677690718
0.0227719385 -0.0474999994 0.1664932216
0.0281638740 -0.0474999994 0.1692533713
-0.0474999994 -0.0389310785 0.1643438704
-0.0474999994 -0.0145876035 0.1672964428
-0.0474999994 -0.0149494781 0.1651612053
-0.0474999994 -0.0030863474 0.1677603997
-0.0474999994 -0.0273077803 0.1764073460
-0.0191360582 0.0303180038 0.1634899974
-0.0230745754 0.0273229252 0.1634899974
0.0306391894 0.0292363168 0.1634899974
0.0306677726 0.0304807293 0.1634899974
0.0141685665 0.0333216972 0.1634899974
0.0268207318 0.0144576094 0.1634899974
0.0325383553 0.0102778937 0.1634899974
0.0253750982 0.0210280563 0.1634899974
0.0340956409 -0.0358752272 0.1634899974
0.0264908216 -0.0288172391 0.1634899974
0.0254565908 -0.0186171092 0.1634899974
0.0398607533 0.0007803180 0.1634899974
0.0408419200 0.0066487457 0.1634899974
0.0369463953 -0.0055813207 0.1634899974
0.0313427242 -0.0055705993 0.1634899974
0.0390641704 0.0146014491 0.1634899974
-0.0020045048 -0.0356581842 0.1634899974
-0.0300496724 -0.0297766001 0.1634899974
-0.0085424675 -0.0288994579 0.1634899974
-0.0239273870 -0.0409834858 0.1634899974
-0.0139813713 -0.0442120360 0.1634899974
-0.0222832560 -0.0417894816 0.1634899974
-0.0277636963 -0.0322473567 0.1634899974
-0.0249182747 -0.0352121833 0.1634899974
-0.0305690188 -0.0060603717 0.1634899974
0.0291886686 0.0422942705 0.1634899974
0.0213912061 0.0452031116 0.1634899974
0.0456357303 -0.0408251089 0.1634899974
-0.0450275461 0.0182082330 0.1634899974
-0.0399184811 -0.0080222606 0.1634899974
0.0220241226 -0.0433585337 0.1634899974
0.0064203166 -0.0431567641 0.1634899974
0.0230547097 -0.0400456391 0.1634899974
0.0080621102 -0.0453758204 0.1634899974
0.0293135479 -0.0450379253 0.1634899974
-0.0372683140 0.0437442907 0.1634899974
-0.0307065455 0.0431969222 0.1634899974
-0.0098919859 0.0465419405 0.1634899974
-0.0415235115 -0.0296287118 0.1634899974
-0.0442545147 -0.0328314913 0.1634899974
-0.0339941543 -0.0258231451 0.1634899974
0.0068858964 0.0443101374 0.1634899974
0.0055615071 0.0402318975 0.1634899974
0.0145538883 0.0404366286 0.1634899974
-0.0106640745 0.0359429950 0.1634899974
0.0082612860 0.0333403455 0.1634899974
-0.0473702513 0.0162289927 0.1634899974
-0.0294129489 0.0276837830 0.1634899974
-0.0368169387 0.0269103806 0.1634899974
-0.0350525048 -0.0157258912 0.1634899974
-0.0349397361 -0.0073586562 0.1634899974
-0.0326207445 -0.0086905815 0.1634899974
-0.0361728448 0.0371763646 0.1634899974
0.0463601082 -0.0002362595 0.1634899974
-0.0353953871 -0.0354631891 0.1634899974
0.0389093304 -0.0360585327 0.1634899974
0.0420050031 -0.0181946351 0.1634899974
0.0428394045 -0.0415103845 0.1634899974
-0.0445547628 0.0454452371 0.1657943052
0.0447064213 -0.0452935785 0.1653977484
-0.0430976720 -0.0469023278 0.1728403326
0.0005201342 0.0167841782 0.1669899970
-0.0016390132 -0.0143005625 0.1669899970
-0.0117710326 -0.0072030645 0.1669899970
-0.0235105841 -0.0137793299 0.1669899970
0.0009548251 -0.0292103062 0.1669899970
0.0175969103 -0.0186345980 0.1669899970
0.0214020152 0.0181301186 0.1669899970
0.0028087898 0.0253091135 0.1669899970
-0.0170466266 0.0146623060 0.1669899970
0.0014373513 -0.0187369341 0.1669899970
0.0025870323 -0.0225836788 0.1669899970
-0.0113657527 0.0150136936 0.1669899970
-0.0033906780 0.0174346360 0.1669899970
0.0105481110 0.0215576299 0.1669899970
0.0071211070 0.0123836930 0.1669899970
-0.0200196937 0.0052925936 0.1669899970
-0.0229260693 -0.0117500562 0.1669899970
0.0182487887 0.0086242056 0.1669899970
0.0200561296 -0.0091024465 0.1669899970
-0.0122550757 -0.0141621417 0.1669899970
0.0163320239 -0.0016936615 0.1669899970
0.0162306883 -0.0154709039 0.1669899970
-0.0270406772 0.0128503388 0.1640120425
-0.0043316868 -0.0296594739 0.1656834136
0.0234097063 -0.0186880256 0.1639552894
0.0289545066 0.0076119922 0.1660601117
0.0078627662 0.0288955009 0.1648319809
-0.0287665697 -0.0083694515 0.1640201709
-0.0014556715 -0.0274074770 0.1670742288
-0.0022938779 -0.0288574446 0.1719335099
0.0111805107 -0.0247916276 0.1760839319
0.0111730443 -0.0265502860 0.1742686923
0.0133349559 -0.0204611332 0.1749649194
0.0206345728 -0.0148330217 0.1700900048
0.0215237063 -0.0188361749 0.1756401485
0.0268119307 -0.0056001484 0.1736435043
0.0262558953 0.0012706154 0.1670917886
0.0241695572 -0.0008710309 0.1748699497
0.0284729416 0.0092298726 0.1751361781
0.0279211611 0.0063856632 0.1726309881
0.0201090667 0.0182980950 0.1717796677
0.0173834050 0.0215499667 0.1694575874
0.0150536359 0.0189815726 0.1735130939
0.0098798354 0.0281837043 0.1714972613
0.0009431415 0.0282258321 0.1685018780
-0.0029169426 0.0271984814 0.1743539477
-0.0079167899 0.0231499464 0.1700900048
-0.0065888505 0.0233582173 0.1715885022
-0.0158411776 0.0248000227 0.1750851854
-0.0222604621 0.0144192190 0.1679304169
-0.0241652193 0.0140152677 0.1715261380
-0.0231987278 0.0098369754 0.1759539910
-0.0227917768 0.0082900406 0.1746742687
-0.0295290346 0.0015611353 0.1748129664
-0.0273371309 -0.0089584247 0.1700900048
-0.0249559388 -0.0112115221 0.1720880286
-0.0222187517 -0.0129157520 0.1748796430
-0.0173883476 -0.0215059758 0.1688000423
-0.0180029214 -0.0238551371 0.1736537567
-0.0055499553 -0.0246757167 0.1721596481
-0.0058831116 -0.0272960660 0.1739729706
-0.0395798770 0.0379686603 0.1645354675
0.0418602139 0.0390758264 0.1683699641
0.0413233323 -0.0384115354 0.1729078154
-0.0412233584 -0.0383502796 0.1688480987
-0.0419760162 -0.0405431909 0.1669490942
-0.0276070444 0.0248321875 0.1746596091
-0.0455754995 0.0004995059 0.1716391580
-0.0024200242 -0.0401623313 0.1734900028
-0.0424817750 -0.0441981895 0.1734900028
-0.0199013692 -0.0453287243 0.1734900028
0.0318973358 -0.0412503751 0.1734900028
-0.0349376103 -0.0358595092 0.1734900028
-0.0038924152 -0.0373231559 0.1734900028
0.0082094353 -0.0456526856 0.1734900028
0.0067523270 -0.0325081946 0.1734900028
-0.0147871158 -0.0356614246 0.1734900028
-0.0113622987 -0.0349441749 0.1734900028
0.0074123588 -0.0343073614 0.1734900028
-0.0062629709 -0.0417930848 0.1734900028
0.0444524254 -0.0418700434 0.1734900028
0.0174257744 -0.0324999988 0.1752695579
0.0005521179 -0.0324999988 0.1752751459
-0.0332416542 -0.0324999988 0.1757118585
-0.0041311300 0.0406257134 0.1734900028
0.0347187504 0.0390963838 0.1734900028
0.0235130458 0.0425364959 0.1734900028
0.0045196554 0.0467178395 0.1734900028
-0.0010578432 0.0468803019 0.1734900028
0.0011021203 0.0452852748 0.1734900028
-0.0256263385 0.0440136281 0.1734900028
-0.0271144798 0.0392307096 0.1734900028
-0.0072506101 0.0375019652 0.1734900028
0.0048955185 0.0358247329 0.1734900028
-0.0406295700 0.0364426865 0.1734900028
-0.0384275846 0.0377688244 0.1734900028
-0.0407463574 0.0461581479 0.1734900028
-0.0006941200 0.0324999988 0.1736562369
0.0386448344 0.0324999988 0.1739785737
0.0338656246 -0.0421025231 0.1677494186
0.0443013127 0.0331494632 0.1730855108
-0.0350802363 0.0434385142 0.1677459971
-0.0248370847 0.0448221719 0.1634900570
-0.0359121701 0.0382257228 0.1634900570
-0.0421190214 -0.0326228867 0.1634900570
-0.0435927993 -0.0304182084 0.1634900570
0.0344448731 0.0396056509 0.1634900570
0.0447552929 0.0300541517 0.1634900570
0.0397896757 -0.0344710930 0.1634900570
0.0362570284 -0.0366291610 0.1366185442
0.0383005002 -0.0358492397 0.1228752926
0.0374068021 -0.0359630241 0.1312118668
0.0474814477 0.0265937547 0.0946432897
0.0491290442 0.0241630812 0.0906849043
0.0451956866 0.0231111022 0.1468944394
0.0384740018 -0.0340192594 0.1386571662
0.0396282822 -0.0316170801 0.1482359179
0.0424856859 -0.0324937625 0.1081182275
0.0449120957 -0.0299606213 0.1016083885
0.0415344123 -0.0281782587 0.1553935644
0.0464620410 -0.0269262760 0.1046755322
0.0428246407 -0.0277621176 0.1435503431
0.0463849642 -0.0245271660 0.1230505202
0.0441179482 -0.0235509319 0.1580478091
0.0479442195 -0.0211120717 0.1233402414
0.0484108047 -0.0208149383 0.1189282982
0.0505074346 -0.0189651214 0.1020929025
0.0487141673 -0.0183056443 0.1293716969
0.0510363265 -0.0155922345 0.1094356493
0.0507984331 -0.0163338063 0.1096269856
0.0486220343 -0.0155956044 0.1422866624
0.0506852467 -0.0125723223 0.1268512430
0.0518907956 -0.0122538100 0.1111508994
0.0514487921 -0.0114910701 0.1192539985
0.0507432716 -0.0066329279 0.1413970787
0.0504493320 -0.0079486363 0.1421746600
0.0535233126 -0.0047928284 0.1043660587
0.0532261016 -0.0057307007 0.1077086793
0.0512889894 -0.0016100515 0.1389577784
0.0502170120 0.0001857624 0.1552587391
0.0531610493 0.0019151754 0.1120588238
0.0520575890 0.0007647819 0.1286228862
0.0504043519 0.0036455754 0.1499572492
0.0503798430 0.0059821465 0.1478783576
0.0516964927 0.0063080772 0.1287916638
0.0526373441 0.0091192918 0.1088941087
0.0498223404 0.0070697728 0.1536061078
0.0495415298 0.0115871016 0.1457801660
0.0525923986 0.0144629729 0.0927467825
0.0513684642 0.0136304322 0.1130105417
0.0482576542 0.0164005395 0.1444821697
0.0501020622 0.0213929811 0.0936937773
0.0489988363 0.0191756455 0.1201595314
0.0474605108 0.0187924879 0.1427361771
0.0462175780 0.0213022423 0.1454943299
0.0374348621 0.0375402624 0.1153169980
0.0350596864 0.0408580056 0.1034670034
-0.0244263824 0.0438341500 0.1555625971
-0.0267140983 0.0467803802 0.1027194612
-0.0237993959 0.0480053031 0.1073840201
0.0345167349 0.0367083132 0.1522193532
0.0338715933 0.0413009469 0.1099286949
0.0343460858 0.0418915253 0.0991119981
0.0324597379 0.0436408524 0.0949560980
0.0298845388 0.0411159008 0.1458953307
0.0278912874 0.0439456078 0.1291826100
0.0247622403 0.0485452876 0.0943787310
0.0287996822 0.0460368547 0.0967687611
0.0241422305 0.0477698346 0.1083047447
0.0226861158 0.0474223329 0.1217002686
0.0220821066 0.0498208648 0.0934771785
0.0240813246 0.0487441421 0.0963243535
0.0188662000 0.0473790327 0.1438870289
0.0169556225 0.0519956127 0.0908076862
0.0161246622 0.0488234142 0.1373241263
0.0145698137 0.0494227512 0.1359543944
0.0120710887 0.0499346449 0.1388745044
0.0124004556 0.0518683292 0.1110937640
0.0104384098 0.0518682671 0.1160576070
0.0097205804 0.0491396205 0.1564113634
0.0065516821 0.0526962779 0.1143706219
0.0049473317 0.0526193152 0.1170280323
0.0062770019 0.0539620227 0.0967793966
0.0017620415 0.0523599943 0.1238317358
-0.0035656620 0.0530886771 0.1117823937
-0.0006875106 0.0528678439 0.1169050706
-0.0051220634 0.0531188846 0.1102911987
-0.0027836355 0.0516549854 0.1326608705
-0.0073606434 0.0520413891 0.1210187862
-0.0057702818 0.0512519652 0.1357180777
-0.0098719560 0.0490825454 0.1567082886
-0.0112436134 0.0518571342 0.1146985583
-0.0114575260 0.0489496131 0.1544779762
-0.0174894021 0.0516961754 0.0932289492
-0.0172309893 0.0514020443 0.0982737993
-0.0151671196 0.0501098475 0.1240383232
-0.0214978885 0.0490492606 0.1071387551
-0.0191396284 0.0484573302 0.1278966781
-0.0200205892 0.0471536890 0.1402302063
-0.0231495038 0.0491462896 0.0968157797
-0.0232692937 0.0475778794 0.1162662473
-0.0398142750 0.0363072370 0.1023457764
-0.0433563788 -0.0250327563 0.1570423383
-0.0450212713 -0.0227190688 0.1517999464
-0.0470678287 -0.0237466639 0.1192377865
-0.0465973921 -0.0253728715 0.1140093112
-0.0365532691 0.0348302070 0.1508567278
-0.0406269578 0.0328579156 0.1259940569
-0.0404222200 0.0330391290 0.1268079342
-0.0441805654 0.0292083022 0.1160671408
-0.0416018793 0.0309396715 0.1309991755
-0.0453442280 0.0269108753 0.1186013655
-0.0441796384 0.0271800808 0.1310612311
-0.0444256731 0.0238234747 0.1517044145
-0.0441852193 0.0255182771 0.1427286600
-0.0494747540 0.0228546217 0.0936289392
-0.0475160924 0.0221864135 0.1232207628
-0.0491172381 0.0190911923 0.1195722731
-0.0486066208 0.0188296887 0.1276871133
-0.0497740426 0.0176384150 0.1184771821
-0.0510339126 0.0139124760 0.1167405815
-0.0518512562 0.0156679567 0.0981625290
-0.0502894955 0.0124450494 0.1325771348
-0.0505821227 0.0106240268 0.1342371430
-0.0499022961 0.0097225515 0.1462602228
-0.0508919502 0.0103377928 0.1306194877
-0.0494716626 0.0074306016 0.1576172194
-0.0520754952 0.0045586052 0.1250905469
-0.0529071277 0.0035630527 0.1142313464
-0.0537399346 0.0013417226 0.1045887252
-0.0517364202 0.0005905995 0.1336382299
-0.0543490697 -0.0006432951 0.0959348995
-0.0536462970 -0.0011734170 0.1055319372
-0.0529145906 -0.0045276426 0.1138053396
-0.0519761984 -0.0080868780 0.1202947994
-0.0527244677 -0.0061638790 0.1142360543
-0.0506336612 -0.0092954905 0.1366087835
-0.0503504288 -0.0104170116 0.1381922988
-0.0527642988 -0.0130872399 0.0956982689
-0.0511486664 -0.0163534058 0.1050943520
-0.0481343037 -0.0135691411 0.1571158926
-0.0503432269 -0.0152573181 0.1203533220
-0.0492207921 -0.0182052160 0.1224205976
-0.0490078022 -0.0218716761 0.1054355444
-0.0477510556 -0.0178596263 0.1435324360
-0.0458735471 -0.0201095237 0.1559838155
-0.0369330743 -0.0402893463 0.0912874471
-0.0350224480 -0.0416085358 0.0959398834
0.0261913438 -0.0466972194 0.1071481387
0.0250833687 -0.0466939987 0.1147345495
0.0256662418 -0.0446552652 0.1363496384
-0.0342519758 -0.0383472266 0.1379031220
-0.0331212211 -0.0386027856 0.1459617587
-0.0339335904 -0.0416131292 0.1056669389
-0.0339062053 -0.0418129603 0.1036138844
-0.0295840039 -0.0419489114 0.1388438012
-0.0279900587 -0.0422790310 0.1483187651
-0.0287607237 -0.0448170843 0.1119648171
-0.0290828929 -0.0453471872 0.1031621669
-0.0247725232 -0.0436427371 0.1548145532
-0.0247796392 -0.0463971752 0.1207293277
-0.0231858281 -0.0482122978 0.1081910562
-0.0206653814 -0.0491622684 0.1099735978
-0.0193843214 -0.0463942173 0.1532168611
-0.0193186636 -0.0504021061 0.1013805541
-0.0176819318 -0.0511182317 0.0997613114
-0.0171735298 -0.0477583223 0.1475542883
-0.0140625356 -0.0506836034 0.1205252598
-0.0115147085 -0.0495506883 0.1459771914
-0.0084356167 -0.0536789850 0.0958803681
-0.0099821469 -0.0516702790 0.1202432529
-0.0070336622 -0.0509190781 0.1380258852
-0.0047301397 -0.0498382222 0.1574236355
-0.0047186542 -0.0539170585 0.0989738095
-0.0056134000 -0.0543492505 0.0919278247
-0.0007595404 -0.0522271595 0.1265306812
0.0000784541 -0.0530678003 0.1147384262
0.0018991543 -0.0538216476 0.1027443425
0.0018548727 -0.0511694058 0.1410051289
0.0044688865 -0.0512633939 0.1373543049
0.0062031581 -0.0524639270 0.1177951956
0.0094280023 -0.0529580942 0.1034567732
0.0086319357 -0.0512422804 0.1295216374
0.0107591433 -0.0499643309 0.1424974417
0.0140048433 -0.0524280579 0.0967314088
0.0124872941 -0.0515161232 0.1150684491
0.0146326457 -0.0480352100 0.1552608652
0.0168729322 -0.0499217582 0.1200498706
0.0180719708 -0.0493111328 0.1220262612
0.0207100672 -0.0492125266 0.1090606759
0.0200808064 -0.0458626865 0.1571074272
0.0209279234 -0.0454123248 0.1582619903
0.0395839974 -0.0415569949 0.1068719634
0.0297600178 -0.0477066133 0.1007174888
0.0286442600 -0.0464085950 0.1343216487
0.0277742088 -0.0452949806 0.1578462185
0.0382190027 -0.0391724768 0.1164599170
-0.0399859932 -0.0388098345 0.1120174579
-0.0491290907 -0.0352714615 0.0919467508
-0.0469858366 -0.0290952506 0.1065912541
-0.0441979128 -0.0269170855 0.1354604203
-0.0364852415 -0.0361195032 0.1558575354
-0.0376262725 -0.0370109753 0.1266980172
-0.0392057499 0.0406337418 0.1172814820
-0.0302693806 0.0481180489 0.0935262450
-0.0273247716 0.0447197264 0.1496744227
-0.0267562812 0.0439920919 0.1510985522
-0.0373735936 0.0380904028 0.1250286430
-0.0379126520 0.0387803673 0.1423447615
0.0425387275 0.0397782322 0.0967077731
0.0474352135 0.0295069335 0.1080282368
0.0458890471 0.0282383436 0.1112660072
0.0445092066 0.0271602954 0.1547826592
0.0379370877 0.0372538110 0.1218198447
0.0535065469 -0.0127007464 0.1442720841
0.0470061348 0.0290730480 0.1404683202
0.0385713277 -0.0381235896 0.1547763371
0.0409436463 -0.0394449507 0.1172804103
0.0418702742 -0.0370928030 0.1306663032
0.0481588013 0.0302181868 0.1179955577
0.0497349774 -0.0285880413 0.1094490414
0.0491065718 -0.0262041305 0.1343976658
0.0482508346 -0.0292598437 0.1227155105
0.0453085257 -0.0298264044 0.1548653591
0.0459441722 -0.0322350385 0.1276985268
0.0451726034 -0.0356922539 0.1065349415
0.0436844352 -0.0333487836 0.1440096241
0.0432264049 -0.0371664590 0.1158221847
0.0552245693 -0.0177935579 0.1001385469
0.0561221486 -0.0162747766 0.0943231913
0.0519546409 -0.0154442091 0.1551940847
0.0526364991 -0.0195658778 0.1278917837
0.0532138027 -0.0240755642 0.0946140529
0.0523633189 -0.0214256544 0.1209080510
0.0501394515 -0.0212608145 0.1512548936
0.0513205695 -0.0254857850 0.1113581071
0.0549670106 -0.0101183388 0.1304613941
0.0539394596 -0.0072143643 0.1520938051
0.0570081456 -0.0094022558 0.1036433101
0.0567394547 -0.0106877868 0.1041053772
0.0557427444 -0.0056987173 0.1293459511
0.0567500315 -0.0039253682 0.1166772314
0.0546650561 -0.0039095933 0.1468523957
0.0552786805 -0.0004626894 0.1402510998
0.0559354109 -0.0000245970 0.1309748886
0.0548081030 0.0032520872 0.1453751399
0.0572307804 0.0053459888 0.1086486529
0.0564289505 0.0063535150 0.1189721762
0.0553544650 0.0083224978 0.1300049412
0.0568056835 0.0083638979 0.1092402589
0.0547358877 0.0093288605 0.1363650615
0.0541253490 0.0110431668 0.1406913769
0.0523127358 0.0149616010 0.1521983359
0.0563576287 0.0139791387 0.1005346473
0.0560296007 0.0142003908 0.1041631722
0.0516462559 0.0188804181 0.1444713411
0.0514011270 0.0198363982 0.1425476275
0.0522193229 0.0250281610 0.1024201595
0.0517778954 0.0217101380 0.1273946539
0.0530341317 0.0243056939 0.0957699978
0.0510348233 0.0270682087 0.1045306424
0.0490828169 0.0255613750 0.1391507036
0.0113953095 0.0529329863 0.1561128181
0.0417268761 0.0406935643 0.0970017063
0.0383939377 0.0394414883 0.1430646492
0.0393640071 0.0414540443 0.1128104039
0.0404271260 0.0394954729 0.1226156406
-0.0292748766 0.0492493582 0.1111154784
0.0290734487 0.0498413220 0.1046328502
0.0295419017 0.0499272384 0.1001889087
0.0283077025 0.0472214893 0.1427441512
0.0302540696 0.0470471424 0.1308636509
0.0333947346 0.0480313025 0.0941661546
0.0346896816 0.0459003892 0.1069929843
0.0333534333 0.0442574137 0.1372094370
0.0339847487 0.0421686399 0.1561561001
0.0136786920 0.0539653870 0.1344510901
0.0159513404 0.0555616250 0.1032810923
0.0170328284 0.0531019756 0.1325493057
0.0167664581 0.0517440145 0.1527876884
0.0239414467 0.0516981339 0.1150544601
0.0194608901 0.0514590588 0.1439549546
0.0194051304 0.0505968991 0.1554985807
0.0258689463 0.0503521050 0.1214814108
0.0102584447 0.0539827117 0.1445599515
0.0096615248 0.0570910229 0.1018224851
0.0117538729 0.0566278279 0.1029358007
0.0057103080 0.0551598620 0.1375606095
0.0017923782 0.0562121532 0.1264071781
0.0014454509 0.0576972646 0.1052409401
0.0017024244 0.0568167498 0.1177434309
0.0017591981 0.0558870463 0.1310323600
-0.0028144824 0.0540228417 0.1569342440
-0.0025884930 0.0550571823 0.1423005015
-0.0033541514 0.0564288727 0.1218414444
-0.0057122628 0.0538587353 0.1560654055
-0.0067184510 0.0545876365 0.1441286806
-0.0110458975 0.0552354679 0.1249482658
-0.0109762416 0.0547392827 0.1322024741
-0.0122297487 0.0530709171 0.1518474407
-0.0150238735 0.0538318572 0.1311946668
-0.0165534717 0.0545796979 0.1144810127
-0.0149465965 0.0563237796 0.0969794961
-0.0179956260 0.0519675968 0.1441989553
-0.0199841507 0.0540808147 0.1065884380
-0.0222235709 0.0540561372 0.0942039219
-0.0222440020 0.0514263563 0.1289837885
-0.0250592273 0.0495296649 0.1371122042
-0.0257560078 0.0497579818 0.1294516018
-0.0252962590 0.0488521291 0.1438485655
-0.0536212512 0.0128486240 0.1422414557
-0.0418019191 0.0402361817 0.1004876758
-0.0391591985 0.0392317896 0.1378056840
-0.0420285552 0.0366344155 0.1335047413
-0.0404842937 0.0401795371 0.1148015466
-0.0493524228 0.0294775349 0.1076723154
-0.0505873260 0.0289621620 0.0963327666
-0.0488386993 0.0254453993 0.1431665965
-0.0471866292 0.0282623513 0.1435169176
-0.0473731843 0.0310093508 0.1211800493
-0.0466153965 0.0324433542 0.1183363707
-0.0450563031 0.0358938309 0.1061045011
-0.0443244161 0.0337852322 0.1326781777
-0.0422877318 0.0349985632 0.1456820272
-0.0544392837 0.0187576471 0.1067535393
-0.0546037792 0.0196544905 0.1007664541
-0.0523935502 0.0131197857 0.1582041455
-0.0515713386 0.0167685185 0.1550925120
-0.0519544909 0.0214880063 0.1258542288
-0.0540948339 0.0203825115 0.1044451242
-0.0496997633 0.0224776686 0.1503727596
-0.0501250630 0.0245307819 0.1326642779
-0.0554166611 0.0119368126 0.1197778425
-0.0569179726 0.0084125322 0.1074353965
-0.0573459793 0.0074377837 0.1039532811
-0.0551662930 0.0052402616 0.1380796411
-0.0578201207 0.0022933650 0.1026889073
-0.0563289015 0.0024185058 0.1241461693
-0.0549568501 0.0003707001 0.1448539068
-0.0545606304 -0.0025282203 0.1494276730
-0.0560747364 -0.0043824410 0.1261452436
-0.0577689130 -0.0021968628 0.1033747175
-0.0575383383 -0.0042164700 0.1050996080
-0.0577297750 -0.0066202955 0.1002702270
-0.0545485493 -0.0082854609 0.1413847384
-0.0562736739 -0.0114606183 0.1090980013
-0.0548954762 -0.0094182153 0.1338646804
-0.0551701311 -0.0126986740 0.1213575475
-0.0533561299 -0.0145802888 0.1393697357
-0.0540121033 -0.0164048382 0.1229704158
-0.0547889232 -0.0182070503 0.1047008231
-0.0529986363 -0.0188702681 0.1263688466
-0.0505396855 -0.0191867338 0.1573467013
-0.0496816781 -0.0222335064 0.1521963961
-0.0541990012 -0.0207213321 0.1009631984
-0.0486255407 -0.0244739867 0.1522569031
-0.0481391558 -0.0256441922 0.1502343595
-0.0479056875 -0.0283043300 0.1345840018
-0.0123212687 -0.0538535682 0.1405930921
-0.0417406918 -0.0410013796 0.0936208290
-0.0386593099 -0.0400443039 0.1342075787
-0.0401151646 -0.0394475601 0.1261615835
0.0298155181 -0.0494436117 0.1047758432
-0.0300620121 -0.0487740421 0.1104967073
-0.0280709518 -0.0511995993 0.0953177062
-0.0285170536 -0.0476318435 0.1359866547
-0.0285706592 -0.0477589046 0.1339751375
-0.0346278123 -0.0457585624 0.1091253514
-0.0320900710 -0.0454925082 0.1340396721
-0.0327590211 -0.0462423459 0.1198135862
-0.0311504445 -0.0441255437 0.1578502305
-0.0361103965 -0.0432901693 0.1246836350
-0.0164536763 -0.0536830452 0.1266601979
-0.0186035552 -0.0542718573 0.1096699529
-0.0141162290 -0.0527673106 0.1489206965
-0.0183403349 -0.0510026031 0.1554529410
-0.0203225481 -0.0527582553 0.1221345895
-0.0233187453 -0.0536205343 0.0936936785
-0.0236985622 -0.0499962873 0.1394529674
-0.0250395555 -0.0488132984 0.1462404258
-0.0116768793 -0.0554956135 0.1192075171
-0.0072652938 -0.0560846768 0.1220075861
-0.0094845999 -0.0575351634 0.0960732817
-0.0064421169 -0.0546748608 0.1434588852
-0.0031118229 -0.0558063359 0.1310719216
-0.0036107597 -0.0556449924 0.1329499488
-0.0010174816 -0.0566060057 0.1211868254
0.0002244162 -0.0555892627 0.1357803020
0.0036470420 -0.0581345786 0.0969264735
0.0025459471 -0.0555340246 0.1354346244
0.0063774564 -0.0564213637 0.1190496194
0.0073417366 -0.0549243214 0.1380976390
0.0092998737 -0.0560503032 0.1176815702
0.0114984689 -0.0555632630 0.1191405913
0.0073024122 -0.0573368153 0.1043122795
0.0156812927 -0.0524752893 0.1472647806
0.0140820425 -0.0555594543 0.1111233371
0.0193292136 -0.0544626620 0.1045571249
0.0170212929 -0.0529367810 0.1353180081
0.0198894768 -0.0513597269 0.1428053763
0.0200755377 -0.0509617256 0.1470272949
0.0207304251 -0.0539216458 0.1045913554
0.0237318379 -0.0521869739 0.1103181606
0.0250395892 -0.0506568084 0.1228332973
0.0256107827 -0.0497768592 0.1302302380
-0.0098835797 0.0702504554 0.1027105514
0.0037918488 0.0708023594 0.0990388714
0.0268406948 0.0657264996 0.0975703486
0.0707043476 0.0064657210 0.0982642998
0.0702167543 -0.0100859259 0.1002098853
0.0660891660 -0.0257938509 0.1013173434
0.0007669397 -0.0708952271 0.0995226643
-0.0189679339 -0.0683678901 0.1028167010
-0.0700319504 -0.0113814564 0.0982007239
-0.0708941578 0.0008882966 0.0996569330
-0.0673937567 0.0220960868 0.0996719450
0.0318993042 0.0633179909 0.1031230475
0.0381835156 0.0597404750 0.0978014105
0.0482356999 0.0520404383 0.0963913402
0.0563202560 0.0430986291 0.0960321215
0.0604490611 0.0370758323 0.0958362691
0.0651081228 0.0283180130 0.0937577581
0.0694274375 0.0146801337 0.0969510452
-0.0590572966 0.0393287136 0.0988937298
-0.0549755031 0.0448189752 0.0976049839
-0.0482487650 0.0520451819 0.1020065389
-0.0408204339 0.0579812495 0.0941302110
-0.0278497957 0.0652158327 0.0967361072
-0.0198204422 0.0680739363 0.1019317866
-0.0373714444 -0.0602966035 0.1029033723
-0.0439840906 -0.0556811778 0.0952750005
-0.0528608933 -0.0472487859 0.1023301839
-0.0570812650 -0.0420611973 0.1020155448
-0.0631179015 -0.0324313595 0.0957870959
-0.0684738168 -0.0185901846 0.1027974668
0.0639857870 -0.0307212370 0.0946578036
0.0599018289 -0.0380129957 0.1030667931
0.0553484571 -0.0443675208 0.0946185711
0.0438119760 -0.0557542539 0.1000569789
0.0354561455 -0.0614130217 0.0955618705
0.0283847652 -0.0649939189 0.0968587611
0.0162845640 -0.0690060911 0.1016583016
-0.0186826432 -0.0631356731 0.0847085550
-0.0341566219 -0.0578385275 0.0861064803
-0.0474853257 -0.0492665484 0.0874077486
-0.0548212122 -0.0390630421 0.0862228952
-0.0635551476 -0.0254445633 0.0874358106
-0.0671291889 -0.0090739904 0.0866965889
-0.0652775665 0.0037110655 0.0842205548
-0.0630105708 0.0225577905 0.0858106094
-0.0568710493 0.0329660384 0.0846107564
-0.0484488321 0.0451839026 0.0851452876
-0.0356323809 0.0578162178 0.0868333302
-0.0231238744 0.0609730484 0.0840678975
-0.0036650189 0.0679776181 0.0870433551
0.0088696814 0.0688211622 0.0883783031
0.0242983041 0.0618333933 0.0853391746
0.0362239653 0.0561954899 0.0857372010
0.0495586998 0.0480842454 0.0880245118
0.0609565427 0.0329196423 0.0882844808
0.0641745768 0.0215129536 0.0865989072
0.0663333420 0.0025763725 0.0852639818
0.0645876261 -0.0098770863 0.0841988384
0.0595736189 -0.0256992730 0.0837063349
0.0538054384 -0.0385876143 0.0851026147
0.0440582811 -0.0518903417 0.0870015695
0.0317891921 -0.0564935691 0.0836653395
0.0144465111 -0.0659646733 0.0864774857
0.0011895342 -0.0674109091 0.0863398990
-0.0155816799 -0.0701333599 0.0912191066
-0.0309497759 -0.0644107039 0.0907857747
-0.0390040734 -0.0580195014 0.0890036009
-0.0539882944 -0.0471640144 0.0910348444
-0.0600778806 -0.0355948844 0.0889043160
-0.0662754863 -0.0210544363 0.0885748585
-0.0734602000 -0.0061032724 0.0933589227
-0.0702177325 0.0091293767 0.0900060737
-0.0671313343 0.0242676000 0.0906452733
-0.0595884966 0.0431632634 0.0932042100
-0.0488537186 0.0526364667 0.0911916523
-0.0368956649 0.0598924495 0.0894584224
-0.0234073943 0.0669220984 0.0901143413
-0.0092113372 0.0698811402 0.0896699553
0.0055452394 0.0708430343 0.0903291999
0.0198900188 0.0693891250 0.0915819337
0.0347632932 0.0620423504 0.0903762866
0.0473701895 0.0532440801 0.0905286777
0.0600569049 0.0410446794 0.0922549916
0.0654202061 0.0286289578 0.0907044291
0.0687148395 0.0146411272 0.0894104223
0.0694123986 -0.0017055633 0.0884582613
0.0681582636 -0.0162893150 0.0892053882
0.0613387142 -0.0331678974 0.0887545369
0.0559594736 -0.0446676791 0.0909474163
0.0444782579 -0.0567825831 0.0915564917
0.0308172220 -0.0638982568 0.0901908963
0.0162638733 -0.0692047733 0.0903549608
0.0040967031 -0.0713721453 0.0908214807
-0.0216398753 -0.0598952376 0.0834900066
-0.0606263922 0.0166825935 0.0834900066
0.0081045429 -0.0618533593 0.0834900066
0.0526842129 -0.0358925073 0.0834900066
0.0270388515 -0.0581214088 0.0834900066
0.0551207266 0.0334004732 0.0834900066
-0.0617896121 -0.0131313378 0.0834900066
0.0609978710 0.0185600879 0.0834900066
0.0063331830 0.0641547929 0.0834900066
0.0465829479 0.0443875235 0.0834900066
-0.0499129523 0.0398493359 0.0834900066
-0.0366640283 0.0339174801 0.1611075035
0.0327584077 -0.0376800892 0.1624882563
0.0417114644 0.0273843501 0.1628290848
0.0473442965 -0.0159929025 0.1633852670
0.0413056507 -0.0281422850 0.1592990556
0.0022770559 -0.0499368927 0.1621150845
-0.0201056932 -0.0456878232 0.1603111694
-0.0453111988 -0.0210273148 0.1599670960
-0.0499330225 -0.0016963938 0.1598020251
-0.0471777774 0.0164684659 0.1608948277
-0.0130547075 0.0482047016 0.1601288872
-0.0048231592 0.0497480158 0.1589747144
0.0170990312 0.0469635163 0.1599035569
0.0451108758 0.0214601626 0.1606981790
0.0498236935 0.0033048652 0.1609208320
-0.0431700386 0.0323778217 0.1610728890
-0.0511369815 0.0172856820 0.1635905911
-0.0533023713 0.0083992505 0.1641562940
-0.0535757254 -0.0061837775 0.1640084548
-0.0492470127 -0.0221275960 0.1590785060
0.0326065963 0.0430020478 0.1600444657
0.0190373378 0.0504287436 0.1662985856
0.0050695157 0.0536992001 0.1651034594
-0.0063160302 0.0535739456 0.1628489013
-0.0217497542 0.0494019008 0.1620316763
0.0438174948 -0.0314960981 0.1597922123
0.0495603459 -0.0213067544 0.1660960284
0.0536454071 -0.0058071973 0.1622031859
0.0534974922 0.0069969601 0.1622764109
0.0493477704 0.0218818027 0.1619248018
-0.0526705337 -0.0377015928 0.0892953519
0.0629853727 0.0205990292 0.0909584406
0.0471438566 0.0452976772 0.0899938540
0.0327061327 0.0588721906 0.0921271904
0.0028414035 0.0659656863 0.0906888942
-0.0218511366 0.0616100746 0.0899659359
-0.0370526444 0.0549360454 0.0909583534
-0.0615350118 0.0211845404 0.0896267527
-0.0661393548 0.0047246169 0.0909710639
-0.0588565960 -0.0268982829 0.0892509284
-0.0424539326 -0.0519304384 0.0918284750
-0.0320899749 -0.0570117207 0.0900320459
0.0000494019 -0.0673283161 0.0921122850
0.0362189145 -0.0546538929 0.0901684862
0.0581816566 -0.0306084103 0.0903739662
0.0660059976 -0.0031697448 0.0907153730
0.0153472572 0.0662099067 0.0927786677
-0.0666686064 -0.0068713430 0.0917828443
-0.0047015071 -0.0660568418 0.0909150456
0.0236052566 -0.0485408633 0.1658169168
-0.0239245077 -0.0483836228 0.1655448339
-0.0100984821 -0.0530403271 0.1624548001
0.0003653261 -0.0539829782 0.1589270238
0.0254940849 -0.0475628090 0.1587280484
0.0374477114 -0.0416249585 0.1607199875
0.0370480118 -0.0421184626 0.1584900618
0.0418490739 0.0375280208 0.1616779008
0.0450796487 0.0366387106 0.1584900618
-0.0341229968 0.0411369660 0.1584900618
-0.0472961662 -0.0334071186 0.1611071145
0.0407804826 0.0371984303 0.1634380737
0.0421390681 0.0349819907 0.1591096119
-0.0442008045 -0.0324588509 0.1626179450
0.0678824108 0.0017977207 0.1014509947
0.0672968876 -0.0093824586 0.0982679830
-0.0214321697 -0.0645241146 0.0933389277
0.0001400628 -0.0679552750 0.1012770836
-0.0207075144 -0.0647496106 0.0979575871
-0.0678067531 -0.0043059704 0.0998339243
-0.0677247063 0.0055538787 0.0977485806
-0.0662852313 -0.0148231054 0.1004149915
0.0274213712 0.0621865352 0.0985175216
-0.0005119993 0.0678970305 0.1013648333
0.0146310674 0.0663068661 0.0976398387
0.0591450533 -0.0335350570 0.0929162024
0.0553489165 -0.0394020346 0.0939988965
0.0499611486 -0.0460361654 0.0999885682
0.0382763211 -0.0561788158 0.0942565402
0.0343459996 -0.0586487259 0.0974406808
0.0291837841 -0.0614172859 0.0949578561
0.0182403807 -0.0654566789 0.0991832172
-0.0340230542 -0.0588613738 0.1001589019
-0.0412748048 -0.0540204086 0.1013765011
-0.0509078207 -0.0450187392 0.1015337228
-0.0549638125 -0.0399395880 0.0982112455
-0.0613153850 -0.0293074221 0.0941335257
-0.0656212435 -0.0178205778 0.0961507051
-0.0577664316 0.0357388541 0.1003176275
-0.0544583115 0.0406440883 0.0984872088
-0.0480513162 0.0480620485 0.0966917362
-0.0456903046 0.0503511355 0.0929765789
-0.0298446285 0.0610407041 0.0973762620
-0.0200987498 0.0649447533 0.1016955909
-0.0182371149 0.0654913279 0.0952154830
0.0311528820 0.0604346430 0.0990165946
0.0454459976 0.0505345785 0.0966207832
0.0510430763 0.0448189022 0.1005301219
0.0560194733 0.0384471956 0.0982017559
0.0627915583 0.0259495083 0.0954147278
0.0664888814 0.0142268679 0.1032527471
0.0113482653 -0.0698994380 0.1034899876
0.0382306083 -0.0579084861 0.1034899876
0.0639261162 -0.0291333430 0.1034899876
0.0696819793 0.0039240459 0.1034899876
0.0584353484 0.0364788531 0.1034899876
0.0353082035 0.0599163507 0.1034899876
0.0015163865 0.0681825954 0.1034899876
-0.0345690092 0.0599033042 0.1034899876
-0.0579334737 0.0399770539 0.1034899876
-0.0682826995 0.0042052023 0.1034899876
-0.0654809201 -0.0262350592 0.1034899876
-0.0395139051 -0.0564876024 0.1034899876
-0.0131583076 -0.0685362522 0.1034899876
-0.0675817304 0.0110396299 0.0934899971
-0.0622736982 0.0381183048 0.0934899971
-0.0706901040 0.0167178071 0.0934899971
-0.0241617172 -0.0668672898 0.0934899971
-0.0489526077 -0.0528966396 0.0934899971
-0.0164706812 0.0705487349 0.0934899971
0.0644163581 -0.0309871963 0.0934899971
0.0701070085 -0.0134551804 0.0934899971
-0.0004914224 -0.0682374142 0.0934899971
-0.0341709656 -0.0638467258 0.0934899971
-0.0307053084 0.0665392734 0.0934899971
0.0139247452 0.0701438590 0.0934899971
0.0573402287 0.0433335359 0.0934899971
0.0626182685 -0.0371915149 0.0934899971
0.0317818193 0.0636721462 0.0934899971
0.0385938999 -0.0622609665 0.0934899971
0.0678926613 0.0022102742 0.0974899456
-0.0226868476 -0.0645645469 0.0974839631
-0.0680018580 -0.0052008083 0.0974899456
-0.0640097863 0.0255290489 0.0974899456
0.0124981043 0.0692537220 0.0974899456
-0.0262384226 -0.0643585968 0.0935458458
0.0067263722 -0.0643248054 0.0892830566
0.0275812672 -0.0585239911 0.0894922211
0.0482211570 -0.0430995284 0.0903787054
0.0602271751 -0.0234618979 0.0916400514
0.0645342758 0.0035588899 0.0920846511
0.0589522587 0.0265850634 0.0912788847
0.0425472741 0.0486768343 0.0905116382
0.0270259840 0.0587306965 0.0914858648
0.0044280253 0.0645369900 0.0892381590
-0.0229006607 0.0604632814 0.0914113186
-0.0402145722 0.0506621536 0.0931088716
-0.0578689470 0.0289227649 0.0912280500
-0.0645496266 0.0031598560 0.0925964337
-0.0633263519 -0.0131327132 0.0902821295
-0.0508704614 -0.0399604029 0.0913431760
-0.0346408178 -0.0546292645 0.0924531122
-0.0134294241 -0.0632579422 0.0918607022
0.0538259192 0.0331488476 0.0934899971
0.0504333311 0.0374723523 0.0934899971
-0.0491897277 0.0413673844 0.0934899971
0.0516140672 -0.0305662668 0.0934899971
0.0580581591 -0.0153490087 0.0934899971
0.0603521751 0.0018187292 0.0934899971
0.0566182481 0.0184817680 0.0934899971
-0.0472644260 -0.0388373055 0.0934899971
0.0316009368 0.0514058962 0.0934899971
0.0194208836 0.0602141733 0.0934899971
-0.0048636495 0.0588598347 0.0934899971
-0.0188995734 0.0584047261 0.0934899971
-0.0415746825 -0.0464918623 0.0934899971
-0.0255110100 -0.0531300015 0.0934899971
-0.0121895650 -0.0616599491 0.0934899971
0.0103565532 -0.0586401481 0.0934899971
0.0253327064 -0.0550221318 0.0934899971
-0.0491834494 0.0348757956 0.0934899971
-0.0560295713 0.0204665675 0.0934899971
-0.0626371641 0.0015289937 0.0934899971
-0.0581651289 -0.0168109046 0.0934899971
-0.0542533471 -0.0303583504 0.0934899971
-0.0233904705 -0.0573231634 0.0860478565
-0.0354096557 -0.0507988986 0.0877346671
-0.0481108946 -0.0389774309 0.0901225550
-0.0557235829 -0.0270004042 0.0894714686
-0.0605942039 -0.0128784838 0.0901903158
-0.0619495609 0.0018181423 0.0881243130
-0.0609947264 0.0107433583 0.0847505440
-0.0558913003 0.0266059538 0.0860691891
-0.0475010934 0.0397366240 0.0882413278
-0.0360358724 0.0504514725 0.0881523102
-0.0226929613 0.0576430273 0.0849294851
-0.0098149773 0.0612029582 0.0858717138
0.0088171904 0.0612811181 0.0889514430
0.0228705444 0.0575442474 0.0841521734
0.0330003272 0.0523788843 0.0840347852
0.0447298333 0.0427868419 0.0868349767
0.0525951712 0.0326636893 0.0835905481
0.0591380107 0.0182844979 0.0871517620
0.0618498902 -0.0024715453 0.0896116320
0.0598476660 -0.0158082886 0.0896208433
0.0534285822 -0.0313387117 0.0900990526
0.0474090771 -0.0398236973 0.0890179865
0.0373537611 -0.0493862229 0.0837414741
0.0218594956 -0.0579426913 0.0879196239
0.0082477942 -0.0613747498 0.0838109283
-0.0072458264 -0.0615580616 0.0891348414
-0.0385789613 -0.0434241803 0.0904899761
0.0494186848 0.0353788093 0.0904899761
0.0016672842 -0.0606998324 0.0904899761
-0.0090718124 -0.0599859095 0.0904899761
-0.0282853254 -0.0505135761 0.0904899761
0.0148779255 -0.0536498070 0.0904899761
0.0512750723 0.0231939183 0.0904899761
0.0562431272 0.0136979590 0.0904899761
0.0575337535 -0.0022426479 0.0904899761
0.0569071071 -0.0133651536 0.0904899761
0.0510252895 -0.0252755718 0.0904899761
0.0347537448 0.0507211381 0.0904899761
0.0016403203 0.0596223253 0.0904899761
0.0519642871 0.0254872868 0.0904899761
0.0236959856 0.0554105468 0.0904899761
0.0351916258 0.0434971596 0.0904899761
-0.0549385252 -0.0272864769 0.0904899761
-0.0416084013 0.0389810170 0.0904899761
-0.0546649164 -0.0087775797 0.0904899761
-0.0583158405 0.0072163458 0.0904899761
-0.0558623276 0.0207026424 0.0904899761
-0.0509372113 0.0338361309 0.0904899761
0.0088603912 -0.0485040362 0.1634900570
0.0129893386 -0.0476999999 0.1661390708
0.0145532569 -0.0500222135 0.1664899588
-0.0018331721 -0.0532817866 0.1664899588
0.0476999991 0.0120587749 0.1635196393
0.0476999998 -0.0133235920 0.1643389367
0.0490483720 0.0186144827 0.1664899588
0.0531356176 -0.0050668848 0.1664899588
0.0031321499 0.0476999991 0.1636050188
0.0078558630 0.0477000006 0.1655570671
0.0140144298 0.0506323221 0.1664899588
0.0002033959 0.0521481133 0.1664899588
-0.0476999991 -0.0141356711 0.1637434909
-0.0476999997 0.0167304867 0.1635592514
-0.0492042611 -0.0058003651 0.1664899588
-0.0524295568 -0.0101401328 0.1664899588
