0.0263119035 0.0488562301 0.0562650935
0.0247777561 0.0496472456 -0.0416722040
0.0346943882 0.0432142375 -0.0443264409
0.0405770584 0.0377497182 -0.0371587487
0.0454622492 0.0317409070 -0.0317667980
0.0428847790 0.0352143532 -0.0230183298
0.0481249053 0.0274405369 -0.0433450100
0.0457460704 0.0313809688 0.0337709914
0.0488133291 0.0261863264 0.0634934688
0.0479600772 0.0277389693 0.0621798447
0.0406789881 0.0376028643 0.0599226407
0.0420894797 0.0361475238 0.0436357243
0.0446840905 0.0327140419 0.0494805803
0.0451033438 0.0322793183 0.0295624519
0.0312657538 0.0457853624 0.0562101370
0.0343307579 0.0434869425 0.0615391021
0.0366019487 0.0416679751 0.0496856659
0.0238587571 0.0500189813 0.0520377820
0.0114789536 0.0542635407 0.0496113614
0.0174303938 0.0526640324 0.0452570611
-0.0002363744 0.0554927607 0.0512893167
0.0069213892 0.0550655359 0.0593283943
-0.0197111356 0.0518668975 0.0462526736
-0.0167777326 0.0528043609 0.0619797280
-0.0251427429 0.0494308568 0.0537805672
-0.0315153761 0.0456063423 0.0631221336
-0.0339571457 0.0438809919 0.0435431957
-0.0364169639 0.0418662750 0.0306034958
-0.0405394295 0.0378441361 0.0351000565
-0.0396878785 0.0386747550 0.0552434319
-0.0451669304 0.0321477107 0.0376502915
-0.0446530907 0.0327901273 0.0592480074
-0.0492171544 0.0254910162 0.0430388985
-0.0498315274 0.0243346762 0.0624536900
-0.0459558918 0.0311074925 0.0220967038
-0.0485138905 0.0267419987 -0.0289099837
-0.0494954336 0.0249600410 -0.0375494816
-0.0408684526 0.0375348667 -0.0258352756
-0.0429048827 0.0351869582 -0.0206977430
-0.0351874848 0.0427782337 -0.0446978718
-0.0194766684 0.0519097742 -0.0473535082
-0.0496673120 0.0246587012 -0.0082756147
-0.0489759124 0.0259495457 0.0274509526
-0.0524808000 0.0179153245 -0.0390075814
-0.0504233240 0.0231119110 -0.0240743235
-0.0504269562 0.0231027372 -0.0457843453
-0.0524562493 0.0179773324 0.0430030301
-0.0519886883 0.0191582556 0.0103834301
-0.0511906148 0.0211739575 0.0361459656
-0.0529379957 0.0165492595 0.0108947642
-0.0537042512 0.0135648869 -0.0223451599
-0.0531870108 0.0155794080 -0.0132571364
-0.0536067508 0.0139446264 0.0503236995
-0.0539245073 0.0127070444 0.0589917222
-0.0539933132 0.0124390630 0.0587249349
-0.0550898634 0.0058645299 -0.0458842472
-0.0547453433 0.0085916798 -0.0385654859
-0.0548955795 0.0074024409 -0.0240683662
-0.0550906401 0.0058583813 0.0087270791
-0.0550372621 0.0062809109 0.0630375507
-0.0550592984 0.0061064761 0.0438724747
-0.0553904846 0.0021634656 -0.0148135081
-0.0553904846 0.0008813133 -0.0010271206
-0.0553904846 0.0000628323 -0.0255988514
-0.0553904846 -0.0011788372 0.0128728955
-0.0553904846 -0.0027516200 0.0498739267
-0.0553904846 -0.0014560030 -0.0114186399
-0.0551036648 -0.0057552806 -0.0174987809
-0.0552352735 -0.0047134931 -0.0468597027
-0.0552809773 -0.0043517114 0.0021357037
-0.0548133308 -0.0080535049 -0.0052167709
-0.0551578895 -0.0053260492 0.0640987709
-0.0548703505 -0.0076021484 0.0349420516
-0.0543242493 -0.0111501500 -0.0245077810
-0.0535182193 -0.0142894343 -0.0352575449
-0.0544550211 -0.0106408267 0.0554831654
-0.0538132314 -0.0131404362 0.0327082790
-0.0529902741 -0.0163456481 0.0517968547
-0.0537397688 -0.0134265545 0.0246577459
-0.0523241299 -0.0183110276 -0.0471426922
-0.0521251271 -0.0188136508 -0.0076390433
-0.0525727175 -0.0176831675 -0.0314449711
-0.0504724098 -0.0229879347 -0.0329931818
-0.0503432858 -0.0233140642 0.0508916387
-0.0516857405 -0.0199234137 0.0499278135
-0.0494215198 -0.0250793624 0.0045309603
-0.0499746663 -0.0240731926 -0.0079874959
-0.0471469043 -0.0292168728 0.0290868917
-0.0481382893 -0.0274135501 0.0618115578
-0.0474213408 -0.0287176747 0.0393989112
-0.0467142829 -0.0299392241 0.0280445891
-0.0434608973 -0.0344171287 -0.0467847770
-0.0454219563 -0.0317179604 -0.0288360308
-0.0437124162 -0.0340709423 0.0570875853
-0.0445569109 -0.0329085943 0.0629844998
-0.0442315174 -0.0333564603 0.0043465772
-0.0414924922 -0.0367305041 -0.0248522572
-0.0396509124 -0.0386915868 -0.0452485850
-0.0424277681 -0.0357345368 0.0373910006
-0.0385727800 -0.0398396807 -0.0207783864
-0.0380980330 -0.0403452348 0.0580945783
-0.0397078497 -0.0386309547 0.0409151218
-0.0342995417 -0.0435127273 -0.0208585405
-0.0354768731 -0.0425387545 -0.0223678262
-0.0350019625 -0.0429316346 -0.0224925473
-0.0346237900 -0.0432444859 0.0295848516
-0.0370333286 -0.0412511431 0.0596067457
-0.0329265389 -0.0446485735 0.0063614644
-0.0290079642 -0.0471940315 -0.0096028754
-0.0308793910 -0.0460063878 -0.0167117665
-0.0326084266 -0.0449091083 -0.0469240425
-0.0271774515 -0.0483557103 0.0258799805
-0.0293763286 -0.0469602603 0.0452616577
-0.0276017068 -0.0480864697 0.0307185457
-0.0240781446 -0.0498863378 -0.0410495247
-0.0233555041 -0.0502263866 -0.0448190084
-0.0236550966 -0.0500854091 -0.0252141682
-0.0210973568 -0.0512889900 -0.0033956495
-0.0244112822 -0.0497295752 0.0429393997
-0.0209549031 -0.0513560236 0.0010784116
-0.0165644637 -0.0528588793 -0.0158828111
-0.0198208261 -0.0518008237 0.0013439795
-0.0178541304 -0.0524398415 0.0031918229
-0.0186341479 -0.0521863986 0.0556342553
-0.0161584347 -0.0529908061 -0.0018079773
-0.0192634520 -0.0519819255 0.0480972500
-0.0132543816 -0.0538608827 0.0407290863
-0.0114102674 -0.0542126664 -0.0343457512
-0.0135351579 -0.0538073217 0.0443419272
-0.0091887083 -0.0546364516 0.0039504024
-0.0122350495 -0.0540553307 0.0450830142
-0.0120121960 -0.0540978423 0.0363596227
-0.0007066836 -0.0554555398 -0.0458909490
-0.0058963011 -0.0551290353 0.0297203997
-0.0040658224 -0.0552441998 -0.0137136689
-0.0024292261 -0.0553471661 0.0523365228
-0.0017711295 -0.0553885702 0.0050752920
-0.0033109742 -0.0552916910 0.0579665641
0.0028606283 -0.0553200245 0.0013994759
0.0029167252 -0.0553164951 0.0000247251
0.0012423360 -0.0554218392 0.0357944091
0.0067985338 -0.0550722714 0.0514313311
0.0055376865 -0.0551515975 0.0569682208
0.0052547028 -0.0551694014 0.0641548966
0.0070733778 -0.0550399727 -0.0422710925
0.0088343543 -0.0547040483 -0.0062873042
0.0084547682 -0.0547764583 -0.0107314717
0.0137563907 -0.0537651193 -0.0084223173
0.0119227650 -0.0541149022 0.0241935347
0.0168675003 -0.0527604168 -0.0335771914
0.0153297272 -0.0532600693 -0.0012678355
0.0150668648 -0.0533454784 0.0021444825
0.0200002715 -0.0517425184 0.0515523915
0.0202527313 -0.0516604893 0.0166654814
0.0200656809 -0.0517212656 -0.0342133734
0.0235036584 -0.0501566705 -0.0402270611
0.0225695920 -0.0505962087 -0.0293318286
0.0228843298 -0.0504481044 0.0100100625
0.0258053752 -0.0490735648 0.0500664049
0.0232296012 -0.0502856320 0.0217614370
0.0254349115 -0.0492478918 0.0094365166
0.0287193612 -0.0473771846 -0.0077351759
0.0288277165 -0.0473084202 -0.0112844544
0.0300732048 -0.0465180092 -0.0364778632
0.0319513259 -0.0453261171 0.0265655964
0.0287850083 -0.0473355236 0.0327892342
0.0288288573 -0.0473076962 0.0438981962
0.0359901861 -0.0421141053 -0.0145036198
0.0327805249 -0.0447693667 -0.0033064377
0.0330936082 -0.0445103618 -0.0463046427
0.0375591579 -0.0408161395 -0.0064004957
0.0365211410 -0.0416748613 0.0607085982
0.0359964387 -0.0421089327 0.0313157580
0.0401817090 -0.0381263460 0.0065733638
0.0385272336 -0.0398881827 0.0123234344
0.0405699953 -0.0377128632 -0.0307199744
0.0397734708 -0.0385610753 0.0364184759
0.0421292109 -0.0360524678 -0.0048345500
0.0404010082 -0.0378928161 0.0351108303
0.0430146068 -0.0350313953 -0.0112608342
0.0436166725 -0.0342027224 -0.0304587068
0.0438965231 -0.0338175408 -0.0444432091
0.0466246359 -0.0300626127 -0.0150945796
0.0433819959 -0.0345257272 0.0578621840
0.0454511542 -0.0316777729 0.0259536200
0.0486920536 -0.0264062565 -0.0231843927
0.0472642460 -0.0290034291 -0.0425283689
0.0468889182 -0.0296861479 0.0500612906
0.0487877209 -0.0262322384 0.0149639667
0.0501076473 -0.0238313010 0.0323217011
0.0479545700 -0.0277477342 0.0365226156
0.0519637924 -0.0192211354 -0.0353497743
0.0512288617 -0.0210773569 -0.0471618579
0.0502885587 -0.0234522891 -0.0177988420
0.0526800878 -0.0174119815 0.0420494309
0.0514113313 -0.0206164915 0.0613838770
0.0522194730 -0.0185753604 0.0484682636
0.0528986618 -0.0167024552 0.0073665140
0.0532360591 -0.0153883774 -0.0019121156
0.0538522237 -0.0129885711 -0.0348125264
0.0541111047 -0.0119802947 0.0348846178
0.0532973262 -0.0151497574 0.0403060615
0.0540205534 -0.0123329693 -0.0133719435
0.0545778866 -0.0099172329 -0.0222554263
0.0549350381 -0.0070900949 0.0017331205
0.0549235493 -0.0071810379 -0.0192824433
0.0547667696 -0.0084220732 0.0355209548
0.0552381770 -0.0046905100 0.0381886567
0.0551177716 -0.0056436138 0.0215044791
0.0553904846 -0.0017954414 0.0366930066
0.0553904846 -0.0032901707 0.0181869661
0.0553904846 0.0028309981 0.0151441857
0.0553904846 0.0012309807 0.0535637607
0.0553904846 0.0005787504 0.0207553770
0.0553353796 0.0039210736 0.0461417297
0.0551155097 0.0056615189 0.0101004072
0.0547458279 0.0085878437 -0.0409503946
0.0549224315 0.0071898859 0.0564599950
0.0546183267 0.0095971174 0.0260851848
0.0549318872 0.0071150369 0.0491601315
0.0538973374 0.0128128646 0.0230216040
0.0537096705 0.0135437801 -0.0289643572
0.0534282384 0.0146398874 -0.0427718425
0.0533271332 0.0150336668 0.0095579671
0.0529326006 0.0165702721 0.0464318866
0.0532410465 0.0153689526 -0.0083571304
0.0521835825 0.0186660095 -0.0200616047
0.0519160935 0.0193416089 0.0206837778
0.0513237603 0.0208376705 -0.0416853851
0.0505371966 0.0228243019 -0.0095461859
0.0508030144 0.0221529234 -0.0065007314
0.0506853654 0.0224500705 0.0165761221
0.0489969574 0.0259105439 0.0236261549
0.0489080210 0.0260766094 -0.0176121644
0.0490281114 0.0258523720 -0.0092367049
-0.0363027079 0.0473669886 0.0305984253
-0.0044764303 0.0610220561 -0.0472586219
-0.0097158427 0.0677964274 -0.0464931777
-0.0205750405 0.0690089149 -0.0427694593
-0.0143634167 0.0574489995 -0.0452545056
-0.0253835429 0.0714357239 -0.0400549468
-0.0295826417 0.0712307544 -0.0370519029
-0.0354128568 0.0565548039 -0.0316013530
-0.0326956756 0.0478655185 -0.0344438310
-0.0386950903 0.0452639935 -0.0275061540
-0.0432529213 0.0390642316 -0.0195911055
-0.0425492571 0.0693448909 -0.0209291977
-0.0399953342 0.0389366078 -0.0255605749
-0.0435956383 0.0757187078 -0.0188490440
-0.0450837272 0.0749161132 -0.0146727134
-0.0460951357 0.0334552574 -0.0113488461
-0.0465070352 0.0379887683 -0.0095655774
-0.0472507385 0.0765727787 -0.0036526467
-0.0473301735 0.0755243264 -0.0025263484
-0.0472190529 0.0496187807 0.0048700651
-0.0473333640 0.0604655926 0.0029824904
-0.0474656056 0.0472039320 0.0009549780
-0.0465695445 0.0351945152 0.0092860202
-0.0462636823 0.0691314315 0.0103775082
-0.0459345792 0.0559461707 0.0120060537
-0.0444078172 0.0500342327 0.0167587804
-0.0438043704 0.0581290743 0.0183205657
-0.0406097457 0.0505744587 0.0246334216
-0.0421433709 0.0577307375 0.0217845233
-0.0372520096 0.0558959212 0.0293997606
-0.0393052297 0.0529354875 0.0266045141
-0.0366418861 0.0743407929 0.0302084220
-0.0259980536 0.0730214036 0.0396530231
-0.0288501505 0.0702399211 0.0376188070
-0.0311594743 0.0507392292 0.0358142673
-0.0112843445 0.0655352698 0.0460521198
-0.0207937136 0.0735056194 0.0426340473
-0.0019214872 0.0704922462 0.0474245023
-0.0061609134 0.0728733282 0.0469877981
0.0073982306 0.0599531505 0.0469035188
0.0115707700 0.0642672303 0.0460294933
0.0177969593 0.0619383113 0.0440111754
0.0148399562 0.0559389638 0.0451019234
0.0248294704 0.0749688044 0.0403772422
0.0279793979 0.0740124654 0.0383457904
0.0361203994 0.0504558822 0.0308108867
0.0336387277 0.0683905762 0.0334201811
0.0373685826 0.0511698616 0.0292973112
0.0434472164 0.0447334321 0.0191835961
0.0429376984 0.0560718542 0.0202553179
0.0411604735 0.0633361072 0.0236393707
0.0437325878 0.0524385484 0.0185097400
0.0453397821 0.0663335742 0.0140242695
0.0460853631 0.0450218518 0.0114015620
0.0465021656 0.0533244778 0.0094266441
0.0474166315 0.0651570674 0.0016525905
0.0473190148 0.0529378109 0.0034876356
0.0473261968 0.0311786592 -0.0038419848
0.0473151144 0.0620416072 -0.0032407250
0.0474387689 0.0439809468 -0.0018290473
0.0469600842 0.0553280483 -0.0070671315
0.0463896795 0.0702079306 -0.0097732657
0.0460704882 0.0569356542 -0.0114614165
0.0444248333 0.0673469604 -0.0165911889
0.0446597408 0.0330394949 -0.0161619212
0.0409649326 0.0447724409 -0.0240072487
0.0418750190 0.0761128554 -0.0222013768
0.0376861112 0.0655468652 -0.0287890522
0.0389959075 0.0475670585 -0.0270695654
0.0305872460 0.0660341585 -0.0362147648
0.0338929671 0.0633041055 -0.0331405223
0.0195641363 0.0650252719 -0.0431972099
0.0145402510 0.0603971934 -0.0451984166
0.0238769848 0.0631573666 -0.0409447071
-0.0019931450 0.0596187380 -0.0473895950
0.0075477394 0.0625086366 -0.0468669434
0.0115898694 0.0585979430 -0.0459912242
-0.0650777436 0.0150681842 0.0122929342
-0.0577787982 0.0296816448 0.0603387390
-0.0568162485 -0.0315368232 0.0123443366
-0.0651343120 0.0026083935 0.0148486669
-0.0650776872 -0.0022317647 0.0046016111
-0.0645830436 -0.0069986853 0.0263401634
-0.0642588775 -0.0091347661 0.0316191053
-0.0629160325 -0.0163897348 -0.0035042539
-0.0629039952 -0.0162398209 0.0346334986
-0.0605290627 -0.0235982834 0.0086393045
-0.0626148211 -0.0171075886 0.0267316060
-0.0650519007 0.0119377044 0.0148402422
-0.0648783705 0.0074001408 0.0212193750
-0.0647097740 0.0159873772 0.0169359094
-0.0646827497 0.0061192286 0.0534494725
-0.0649338216 -0.0021687197 0.0399208134
-0.0641979610 -0.0099620275 0.0168493771
-0.0634920578 0.0164697734 0.0306545648
-0.0619510111 0.0195661170 0.0573481313
-0.0587931520 0.0275864582 0.0587818215
-0.0573783701 0.0316433827 0.0458979891
-0.0202606497 0.0618293500 0.0662377780
-0.0514912261 0.0403574225 0.0534415020
-0.0476544095 0.0456717089 0.0529305327
-0.0648592483 0.0213762427 0.0128517667
-0.0614523144 0.0242323683 0.0347616299
-0.0472462862 0.0447081718 0.0631893173
-0.0418187041 0.0497487380 0.0669715750
-0.0463503338 0.0758880217 0.0461471430
-0.0105552898 0.0719133059 0.0646300354
-0.0339359525 0.0667441426 0.0560021228
-0.0432224091 0.0567194687 0.0502615612
-0.0492164301 0.0484256609 0.0465778727
-0.0293654937 0.0626481285 0.0592247305
-0.0654399019 0.0717163434 0.0026145161
-0.0652699194 0.0765309073 0.0051107912
-0.0653664369 0.0354274851 0.0043803265
-0.0641967896 0.0440254704 0.0139366596
-0.0633570279 0.0141847734 0.0552638310
-0.0651477107 0.0271864797 0.0086711679
-0.0593668681 0.0480372624 0.0286983779
-0.0632017634 0.0337999892 0.0201911443
-0.0594629213 0.0552180887 0.0277702706
-0.0559188061 0.0457810857 0.0362039560
-0.0472777075 0.0457910171 0.0539128635
-0.0624202272 0.0348369504 0.0231748788
-0.0474460093 0.0477109844 0.0500747246
-0.0525719909 0.0571052984 0.0393575284
-0.0544425243 0.0701387089 0.0363822070
-0.0582915082 0.0715604205 0.0297836217
-0.0629560588 0.0759497229 0.0178227186
-0.0642132969 0.0512223538 0.0131903315
-0.0653655623 0.0296993037 0.0048952103
0.0245223639 0.0600198187 0.0679146214
0.0649343223 -0.0023155534 0.0518829644
0.0486013850 0.0430903469 0.0650268290
0.0654559536 0.0175463409 0.0024897791
0.0649929371 -0.0015285236 0.0201291712
0.0647942750 0.0043893312 0.0300978078
0.0579219308 0.0300380447 0.0482288069
0.0641494363 0.0125689899 0.0284392222
0.0649337140 -0.0020120041 0.0467473992
0.0643625347 0.0089569120 0.0359155426
0.0623982558 0.0205888450 0.0336657526
0.0638985696 0.0117304313 0.0520197252
0.0640612054 0.0108980844 0.0543409014
0.0648605772 0.0039365116 0.0480651171
0.0571694308 0.0363199396 0.0389414672
0.0587911206 0.0275522499 0.0572761465
0.0537308887 0.0368019014 0.0548018162
0.0278567327 0.0585975424 0.0664531390
0.0476888153 0.0441763497 0.0616540476
0.0531496106 0.0393932802 0.0482554000
0.0352856980 0.0659168387 0.0552535333
0.0459601738 0.0463121273 0.0586560144
0.0284406749 0.0711875103 0.0590160266
0.0333802692 0.0600128355 0.0574734594
0.0135883557 0.0659958395 0.0647970903
0.0346181182 0.0549614996 0.0647438330
0.0647468764 0.0752131010 0.0095254061
0.0654651549 0.0698803858 0.0007209386
0.0636083427 0.0645079537 0.0157253856
0.0628698242 0.0761691211 0.0181133045
0.0496457343 0.0709502244 0.0426871506
0.0557088631 0.0621590193 0.0344402234
0.0592109275 0.0662804700 0.0279775264
0.0579088553 0.0560382241 0.0308859094
0.0626175614 0.0571375723 0.0193702040
0.0583026309 -0.0287211474 0.0186894362
0.0625163245 -0.0177695255 0.0042778059
0.0645889771 0.0243697471 0.0148124441
0.0634276664 -0.0142281751 0.0108489738
0.0639401668 0.0277329049 0.0182754579
0.0651506898 -0.0008196096 0.0038113129
0.0643440868 0.0256796939 0.0164411114
0.0654215137 0.0346580419 0.0039700658
0.0621682054 0.0439106987 0.0219090695
0.0644288513 0.0352130733 0.0135204132
0.0537809784 0.0544471601 0.0379812961
0.0651308295 0.0030153938 0.0152866812
0.0603359830 -0.0241326299 0.0269768243
0.0570586236 0.0389261941 0.0370506237
0.0546750175 0.0497480121 0.0373543021
0.0641872747 0.0179206934 0.0209164911
0.0552984818 0.0554246282 0.0354166357
0.0045738123 0.0774184246 0.0652752423
0.0453212179 0.0629499709 0.0474143322
-0.0626310287 -0.0173308732 0.0431303547
-0.0579817112 -0.0292404245 0.0502512714
-0.0573284946 -0.0305437006 0.0256964457
-0.0550976801 -0.0344095826 0.0638372899
-0.0546924917 -0.0349882265 0.0446496847
-0.0618859379 -0.0197008008 0.0446146672
-0.0591347288 -0.0269075263 0.0675920340
-0.0606864619 -0.0232181496 0.0317503921
-0.0641995884 -0.0101009401 0.0491520345
-0.0649725289 -0.0008933639 0.0576708204
-0.0646279597 -0.0065700828 0.0649780222
-0.0642633647 0.0092535381 0.0662469851
0.0562083590 0.0325630844 0.0638059788
0.0648645016 0.0028859775 0.0644809652
0.0645545837 -0.0067458157 0.0620839987
0.0642271511 -0.0098401111 0.0526478165
0.0635337991 -0.0133405077 0.0642432915
0.0618180088 -0.0198374119 0.0472649689
0.0615334072 -0.0206404558 0.0537659976
0.0581972092 -0.0287638010 0.0478136292
0.0598890927 -0.0252512946 0.0347997216
0.0537805684 -0.0364001655 0.0568359699
0.0556431213 -0.0335385093 0.0431412347
0.0534915692 -0.0368311656 0.0399477026
0.0529845505 -0.0376016178 0.0596512713
0.0508337784 -0.0403408775 0.0432680408
0.0522575043 -0.0386054339 0.0097579050
0.0497644597 -0.0417314797 0.0479346806
0.0482924914 -0.0434624098 0.0198341072
0.0436718260 -0.0480251402 0.0155531291
0.0450019321 -0.0467458812 0.0042272040
0.0453589445 -0.0464533720 0.0567820043
0.0425965397 -0.0490880208 0.0349800038
0.0402238218 -0.0509327363 0.0077683210
0.0383264185 -0.0523694020 0.0224272017
0.0387249817 -0.0521598793 0.0578996750
0.0376011378 -0.0529642312 0.0588199565
0.0353056506 -0.0545220566 0.0123331346
0.0327416623 -0.0560293777 0.0244963872
0.0302957526 -0.0575007272 0.0376392520
0.0244931936 -0.0601096179 0.0028362268
0.0265513281 -0.0592092005 0.0221481484
0.0240059784 -0.0603256691 0.0153822014
0.0232481922 -0.0606801939 0.0533025453
0.0190127458 -0.0620394954 0.0012101210
0.0209999694 -0.0614365851 0.0446104190
0.0197381671 -0.0618593846 0.0494535332
0.0172598332 -0.0625980417 0.0579988848
0.0135274383 -0.0634979867 0.0442761955
0.0079505584 -0.0644939788 0.0004595200
0.0097599489 -0.0641937177 0.0275825899
0.0094784329 -0.0642877816 0.0631879232
0.0048882159 -0.0647116846 0.0090081327
0.0038340974 -0.0647738371 0.0333636594
0.0042241423 -0.0647741406 0.0425981081
0.0014015310 -0.0649421304 0.0606118591
-0.0042074231 -0.0647518070 0.0009758355
-0.0050591932 -0.0647015428 0.0192028133
-0.0033069628 -0.0648180056 0.0451459144
-0.0047042200 -0.0647808327 0.0554508474
-0.0105460658 -0.0640304846 0.0266572834
-0.0096749883 -0.0641860983 0.0050293159
-0.0117116730 -0.0638881217 0.0476772334
-0.0152529951 -0.0631820952 0.0249680079
-0.0157921398 -0.0630305597 0.0442102033
-0.0186973174 -0.0621362950 0.0035060941
-0.0215746760 -0.0613047282 0.0393001136
-0.0192180412 -0.0620045850 0.0453168538
-0.0254153530 -0.0597062163 0.0322024580
-0.0241019477 -0.0602808987 0.0031994402
-0.0249081921 -0.0599844949 0.0604574003
-0.0292229346 -0.0580506663 0.0066914636
-0.0328094193 -0.0559811803 0.0234758098
-0.0315113189 -0.0567422657 0.0363594346
-0.0543103877 -0.0355391524 0.0206383476
-0.0540346882 -0.0359658193 0.0297838123
-0.0514071224 -0.0397644816 0.0565678209
-0.0493749694 -0.0421308998 0.0489192568
-0.0497955486 -0.0416064712 0.0353591700
-0.0482500786 -0.0434905069 0.0542797851
-0.0451261625 -0.0467168963 0.0626792428
-0.0456475567 -0.0461302242 0.0266582531
-0.0446411233 -0.0470929316 0.0023935876
-0.0419018736 -0.0496803262 0.0256809924
-0.0401489242 -0.0510789546 0.0505102274
-0.0377917874 -0.0527743206 0.0440268500
-0.0367114346 -0.0535924214 0.0180390452
-0.0359693469 -0.0541309063 0.0093315476
-0.0359155167 -0.0541633256 0.0138251482
0.0654944904 0.0422731326 -0.0000027813
0.0648899430 0.0154082430 -0.0150159236
0.0621138994 0.0190977425 -0.0647770694
0.0653694318 0.0053313241 -0.0012958784
0.0650283282 -0.0002795645 -0.0219813467
0.0647433903 -0.0053416358 -0.0189697484
0.0635268966 -0.0137918809 0.0033287126
0.0617508780 -0.0202730249 -0.0125712611
0.0602463098 -0.0243047640 -0.0166321018
0.0605497938 -0.0235556746 -0.0266971834
0.0575670638 -0.0300876607 -0.0213169169
0.0647079302 -0.0055162186 -0.0300363257
0.0649986472 0.0035073836 -0.0198854719
0.0647008799 0.0065808785 -0.0292397835
0.0642559405 0.0123154215 -0.0273273284
0.0646678939 0.0059168468 -0.0504824057
0.0647532079 -0.0052499330 -0.0403929799
0.0639141361 -0.0119290308 -0.0115144538
0.0629047551 0.0176312834 -0.0358453635
0.0598519501 0.0252551871 -0.0631498609
0.0551778418 0.0343234119 -0.0577717459
0.0578533116 0.0308127207 -0.0452529300
0.0505600554 0.0437396964 -0.0483674821
0.0528979379 0.0384082677 -0.0528342240
0.0539573090 0.0404815088 -0.0436558601
0.0638251126 0.0261401057 -0.0192837281
0.0407434905 0.0506925084 -0.0637468720
0.0520919084 0.0391492159 -0.0557380429
0.0552629534 0.0341769910 -0.0622652235
0.0443574907 0.0738520107 -0.0481040391
0.0139534418 0.0734932804 -0.0639238922
0.0279350518 0.0679349176 -0.0593217524
0.0489498135 0.0567757414 -0.0440663466
0.0413400520 0.0553810616 -0.0525200759
0.0423913911 0.0563098151 -0.0510981145
0.0653679478 0.0635813195 -0.0041023814
0.0654655654 0.0295903235 -0.0020966806
0.0652944770 0.0485546524 -0.0055453796
0.0645624812 0.0563154346 -0.0112767043
0.0647044605 0.0107546053 -0.0206373301
0.0631934586 0.0548020759 -0.0174049855
0.0615334102 0.0407999090 -0.0246502323
0.0596721740 0.0403631314 -0.0297085336
0.0610701906 0.0546235188 -0.0241067025
0.0591159327 0.0348468394 -0.0338813122
0.0543764884 0.0376195824 -0.0467473224
0.0628668494 0.0331098754 -0.0218785007
0.0247023154 0.0624431852 -0.0620861401
0.0519577980 0.0685937108 -0.0398446841
0.0551937406 0.0748804871 -0.0352079344
0.0603475846 0.0723964977 -0.0253746793
0.0627138493 0.0660174478 -0.0188581376
0.0651610070 0.0492369723 -0.0068686941
-0.0381451600 0.0765591464 -0.0531284745
-0.0637707751 -0.0122173563 -0.0401499636
-0.0496059574 0.0419702515 -0.0643727415
-0.0649811533 0.0239573196 -0.0114854297
-0.0641457242 -0.0105558376 -0.0088410051
-0.0637372134 -0.0126227552 -0.0376030917
-0.0569262912 0.0326292601 -0.0465476580
-0.0639908171 0.0138257545 -0.0282352698
-0.0648289951 -0.0046612809 -0.0185362067
-0.0644210466 0.0085726752 -0.0333097199
-0.0624508178 0.0208314381 -0.0328336072
-0.0631125311 0.0153713820 -0.0580970371
-0.0627676147 0.0167369526 -0.0508773620
-0.0647678235 0.0046860249 -0.0385852314
-0.0579967894 0.0359991438 -0.0363579982
-0.0588466102 0.0275324514 -0.0613626800
-0.0485941187 0.0433177954 -0.0586656957
-0.0203938073 0.0614851637 -0.0685491413
-0.0557545322 0.0333940633 -0.0670899672
-0.0420851982 0.0550208743 -0.0519940064
-0.0481011681 0.0464760077 -0.0502560910
-0.0493215534 0.0436965451 -0.0522813627
-0.0463670769 0.0481031864 -0.0517686673
-0.0314625710 0.0617127931 -0.0581796083
-0.0378359944 0.0539302130 -0.0585882392
-0.0288891429 0.0589177635 -0.0628939374
-0.0651232879 0.0757585071 -0.0064625911
-0.0653438902 0.0505807602 -0.0044873230
-0.0654799527 0.0344506856 -0.0007154537
-0.0639622155 0.0744624715 -0.0137855786
-0.0632786452 0.0742052596 -0.0167641717
-0.0527828786 0.0638169826 -0.0387832804
-0.0560893111 0.0759599163 -0.0336842595
-0.0597367640 0.0652230491 -0.0267450976
-0.0595998190 0.0543878008 -0.0274879108
-0.0573745255 -0.0305238210 0.0017549893
-0.0624971610 -0.0178312729 -0.0029095979
-0.0653393610 0.0121485242 -0.0059344587
-0.0624753218 -0.0179088321 -0.0193042234
-0.0648244382 0.0150299661 -0.0155470499
-0.0599811631 -0.0249590799 -0.0091904274
-0.0652472476 0.0066211657 -0.0091306891
-0.0653902835 0.0376706705 -0.0043812370
-0.0595070286 0.0500721793 -0.0281056951
-0.0638461406 0.0502117890 -0.0149295836
-0.0649657967 0.0479909063 -0.0087420974
-0.0630993479 0.0211096332 -0.0275284720
-0.0581226082 -0.0290593261 -0.0200599567
-0.0581027713 0.0382699313 -0.0347404145
-0.0551781559 0.0472676808 -0.0371676254
-0.0640237992 0.0196883404 -0.0212927087
-0.0543239767 0.0554953814 -0.0369412155
-0.0020211758 0.0774799113 -0.0653579892
-0.0422391136 0.0604231968 -0.0504314297
-0.0615584022 -0.0207906369 -0.0332317846
0.0578409673 -0.0295855052 -0.0365142661
0.0536786658 -0.0365353293 -0.0571307095
0.0614957663 -0.0208565284 -0.0477939108
0.0616652311 -0.0202951119 -0.0622836229
0.0594337581 -0.0262233201 -0.0583307913
0.0588865351 -0.0274208073 -0.0451518920
0.0639102901 -0.0116112975 -0.0515940007
0.0631952384 -0.0150710788 -0.0447617492
0.0649733037 0.0012964293 -0.0513755205
0.0645352265 -0.0072468644 -0.0581614973
0.0638489969 0.0119618229 -0.0680332224
-0.0643088721 0.0092174833 -0.0678454329
-0.0648590493 -0.0038135205 -0.0535767098
-0.0649338569 0.0024850136 -0.0613494400
-0.0624987419 -0.0178459372 -0.0533954104
-0.0628216343 -0.0164999365 -0.0616582964
-0.0607086467 -0.0231204024 -0.0606252275
-0.0573866007 -0.0304786149 -0.0276766188
-0.0573704523 -0.0305093455 -0.0442645406
-0.0591843927 -0.0267765032 -0.0666250405
-0.0564277718 -0.0322605042 -0.0312458177
-0.0553226832 -0.0339912803 -0.0370727345
-0.0428874063 -0.0488032660 -0.0530600845
-0.0441420287 -0.0476078186 -0.0289751148
-0.0458128370 -0.0459659007 -0.0355905567
-0.0454654353 -0.0463000524 -0.0035950774
-0.0478826119 -0.0439507260 -0.0488252665
-0.0495564326 -0.0419033824 -0.0267392706
-0.0510721743 -0.0400501778 -0.0277484215
-0.0505783720 -0.0406521569 -0.0253080820
-0.0543157890 -0.0355788295 -0.0312338561
-0.0372271640 -0.0532018847 -0.0113217598
-0.0411694705 -0.0502165589 -0.0014382536
-0.0376316107 -0.0529779521 -0.0522919762
-0.0371932426 -0.0532297505 -0.0128890447
-0.0343629038 -0.0550703618 -0.0061406605
-0.0344620576 -0.0550122278 -0.0164085768
-0.0319322831 -0.0565371994 -0.0341677644
-0.0325456983 -0.0562360571 -0.0563862856
-0.0260553118 -0.0594336213 -0.0179810575
-0.0278209907 -0.0586690190 -0.0373024251
-0.0252002054 -0.0598164207 -0.0319545225
-0.0245082942 -0.0601551380 -0.0592760847
-0.0196113208 -0.0618578513 -0.0235921287
-0.0221701503 -0.0610813815 -0.0377632176
-0.0190725840 -0.0621224442 -0.0674548488
-0.0160696686 -0.0629631074 -0.0308257681
-0.0118148577 -0.0638038231 -0.0245728420
-0.0139550140 -0.0634214945 -0.0230373173
-0.0127506216 -0.0636990602 -0.0581929380
-0.0084402185 -0.0644183538 -0.0194224357
-0.0068080600 -0.0645983428 -0.0245590193
-0.0048805096 -0.0647120905 -0.0247291535
-0.0049628707 -0.0647572033 -0.0655048084
-0.0011627001 -0.0649759057 -0.0301336038
0.0009292652 -0.0649451118 -0.0114457155
0.0035510113 -0.0647905298 -0.0172864619
0.0036113332 -0.0648335302 -0.0466782633
0.0075096032 -0.0645598364 -0.0018207743
0.0118561510 -0.0638005996 -0.0235351496
0.0102323175 -0.0640929247 -0.0367454185
0.0115050238 -0.0638946142 -0.0527135430
0.0137894593 -0.0635156887 -0.0579125425
0.0172176975 -0.0625841014 -0.0043534569
0.0174692569 -0.0625077797 -0.0007833707
0.0178285717 -0.0624506046 -0.0574042264
0.0219982501 -0.0611487848 -0.0640110156
0.0274248716 -0.0588270333 -0.0121380333
0.0260331164 -0.0594359164 -0.0258664016
0.0264663381 -0.0592997097 -0.0579737826
0.0293078503 -0.0580161307 -0.0609052227
0.0352150132 -0.0545709247 -0.0045892309
0.0298847050 -0.0576957634 -0.0041260193
0.0304179010 -0.0574040229 -0.0651222784
0.0358055726 -0.0542391607 -0.0134671416
0.0382469461 -0.0524295784 -0.0209347247
0.0546975986 -0.0349518385 -0.0403372508
0.0538692258 -0.0362430549 -0.0223292905
0.0513930028 -0.0397248042 -0.0414713885
0.0521571369 -0.0387358738 -0.0648008955
0.0479938089 -0.0438026493 -0.0316054793
0.0486569943 -0.0429942598 -0.0135051493
0.0475913500 -0.0442672834 -0.0359200693
0.0459124900 -0.0458962905 -0.0316155709
0.0427661721 -0.0488961744 -0.0233972101
0.0423905621 -0.0492574280 -0.0578382534
0.0400956194 -0.0510848014 -0.0357209728
0.0415639727 -0.0499350014 -0.0524106419
-0.0413892953 0.0671888629 0.0507671284
-0.0573475660 0.0793365371 0.0311472059
0.0256458026 0.0788350228 0.0600525428
0.0616028453 0.0785883791 0.0216731114
0.0571016542 0.0801875763 -0.0313927986
-0.0261159243 0.0791293254 -0.0598311242
-0.0607086671 0.0805506253 -0.0233401460
-0.0642754193 0.0820116184 0.0057114726
-0.0523401784 0.0780726877 0.0391356597
-0.0374395129 0.0736555433 0.0536761185
-0.0242517734 0.0749081657 0.0607903596
-0.0090938018 0.0770666594 0.0647583121
0.0148957242 0.0779893394 0.0636555683
0.0330575253 0.0755130482 0.0564246429
0.0653002772 0.0774648222 0.0038837092
0.0586163150 0.0786944354 -0.0287278835
0.0417840866 0.0727087263 -0.0503611926
0.0242055171 0.0822358912 -0.0596183788
0.0077768564 0.0791011322 -0.0647759058
-0.0060781869 0.0784449656 -0.0650546125
-0.0223022477 0.0774270483 -0.0614764643
-0.0586123524 0.0795001369 -0.0285399306
-0.0608481393 0.0824899971 -0.0002588151
-0.0491923536 0.0824899971 -0.0360967055
-0.0306441995 0.0824899971 -0.0560256296
0.0250092021 0.0824899971 -0.0559374974
0.0120808106 0.0824899971 -0.0605984013
-0.0542120137 0.0824899971 0.0274925135
0.0471600630 0.0824899971 -0.0409091689
0.0166921373 0.0824899971 0.0585926288
-0.0436690017 0.0824899971 0.0459441737
0.0604816208 0.0824899971 0.0076369464
-0.0253320447 0.0824899971 0.0560578704
0.0441501549 0.0824899971 0.0437545940
-0.0600192913 0.0120570133 0.0709840030
0.0105715872 0.0604218166 0.0709909249
0.0345676682 -0.0379482817 -0.0709972628
-0.0455851698 -0.0110320840 -0.0710000023
-0.0512731377 -0.0067945962 -0.0709976570
0.0356002744 0.0342920427 -0.0710000023
0.0485821512 0.0353030303 -0.0709933154
0.0602580873 0.0089532908 -0.0709938804
0.0571050758 0.0182134823 -0.0709918786
0.0375817019 -0.0371832033 -0.0709968607
0.0437686586 -0.0431542335 -0.0709934124
0.0487882399 -0.0268164045 -0.0709984556
-0.0069053921 -0.0481806163 -0.0709992712
0.0137739619 -0.0593714071 -0.0709909715
-0.0160214761 -0.0563485540 -0.0709954537
-0.0088922170 -0.0433666769 -0.0710000023
-0.0358178920 -0.0339567418 -0.0709979863
-0.0418722102 -0.0163870861 -0.0710000023
-0.0397011919 0.0248502874 -0.0710000023
-0.0356781996 0.0467340278 -0.0710000023
-0.0283344086 0.0385793137 -0.0710000023
0.0230955533 0.0383770545 -0.0710000023
0.0298041604 -0.0414226434 -0.0709991910
0.0228095493 -0.0502205661 -0.0709980605
0.0343538733 0.0506305435 -0.0710000023
-0.0137437276 0.0559797375 -0.0710000023
-0.0280486966 0.0504091944 -0.0710000023
-0.0505209981 0.0341251300 -0.0709981760
-0.0539267189 0.0062315853 -0.0709988932
-0.0479012598 0.0129090912 -0.0709989566
-0.0492119641 -0.0325242436 -0.0709961566
-0.0202304213 -0.0498701740 -0.0709979083
-0.0047993870 0.0595568991 -0.0710000023
-0.0073656092 0.0465152352 -0.0710000023
0.0133151148 0.0495282111 -0.0710000023
0.0063897303 0.0540206607 -0.0710000023
-0.0325149592 -0.0480082988 -0.0709953608
-0.0377627300 -0.0440965520 -0.0709945113
0.0434176576 -0.0131137625 -0.0710000023
0.0582339153 -0.0168923867 -0.0709882167
0.0571521345 -0.0024902959 -0.0709951055
0.0161745402 0.0408124042 -0.0685204509
-0.0019159690 0.0438629665 -0.0683633697
-0.0178589356 0.0401812033 -0.0697936830
-0.0301472706 0.0319195825 -0.0676956801
-0.0399518346 0.0184100682 -0.0662776578
-0.0438400144 0.0022368792 -0.0695268274
-0.0428250500 -0.0096042429 -0.0648965790
-0.0363885085 -0.0246252970 -0.0672369874
-0.0243303443 -0.0366093072 -0.0647136586
-0.0114837201 -0.0424161951 -0.0705814458
0.0029064171 -0.0437921280 -0.0634749128
0.0201281370 -0.0390136980 -0.0665230489
0.0313470582 -0.0307197948 -0.0662264567
0.0400810070 -0.0181249020 -0.0636009881
0.0438470033 -0.0021391620 -0.0668437035
0.0414894801 0.0143486398 -0.0671955790
0.0358781995 0.0253069900 -0.0640785702
0.0220790027 0.0379484447 -0.0686552985
0.0451767596 -0.0312852400 -0.0561445846
0.0405716667 -0.0369666081 -0.0551657206
0.0126805067 0.0535083865 -0.0607252848
0.0206463407 0.0508558139 -0.0565079306
0.0339278919 0.0431666826 -0.0477056110
0.0375762738 0.0400165167 -0.0515328769
0.0419234636 0.0354615462 -0.0590331460
0.0480693004 0.0265838728 -0.0602379737
0.0518678258 0.0181457965 -0.0584634943
0.0539220014 0.0103770711 -0.0535920600
0.0548410253 0.0023134392 -0.0568164329
0.0548936532 -0.0025723237 -0.0608348625
0.0520414047 -0.0175112692 -0.0493374941
0.0489759108 -0.0247871095 -0.0485943555
-0.0064298059 0.0545123161 -0.0503707328
-0.0004163166 0.0549866493 -0.0546279019
0.0075866446 0.0543631580 -0.0612153912
-0.0499975270 -0.0228439137 -0.0499829745
-0.0538578612 -0.0106932200 -0.0482139600
-0.0543087970 -0.0086349708 -0.0541897832
-0.0548258953 0.0027852479 -0.0590800164
-0.0536543371 0.0120326669 -0.0570635259
-0.0508280251 0.0207745927 -0.0477129424
-0.0483946470 0.0260471795 -0.0487936364
-0.0430152533 0.0340924854 -0.0620865731
-0.0357051985 0.0418285526 -0.0524805319
-0.0266386778 0.0479903956 -0.0493586518
-0.0216751010 0.0504393147 -0.0548585096
-0.0443912842 -0.0323002057 -0.0476325229
-0.0329972856 -0.0439915919 -0.0602720339
-0.0417579792 -0.0356603464 -0.0481416837
0.0356225176 -0.0417566983 -0.0606529955
0.0214547313 -0.0505879174 -0.0482562746
0.0178855237 -0.0518948668 -0.0504636275
0.0130231323 -0.0533819197 -0.0618534169
0.0010736528 -0.0549310688 -0.0579456666
-0.0077380202 -0.0544111947 -0.0580512059
-0.0177848637 -0.0519282882 -0.0528128482
-0.0245241658 -0.0491097553 -0.0621252699
-0.0360680847 0.0413034699 -0.0625000000
0.0352936060 -0.0361562895 -0.0625000000
0.0227600359 -0.0394022846 -0.0625000000
-0.0101476977 -0.0460914923 -0.0625000000
-0.0071838272 -0.0509548390 -0.0625000000
0.0078342070 -0.0455060289 -0.0625000000
-0.0224886163 -0.0476291561 -0.0625000000
-0.0355996450 -0.0292937468 -0.0625000000
-0.0399129858 -0.0192436371 -0.0625000000
-0.0503489870 -0.0167357924 -0.0625000000
-0.0417552397 0.0231881140 -0.0625000000
-0.0440221450 0.0196502196 -0.0625000000
-0.0285285780 0.0365050620 -0.0625000000
0.0099474441 0.0479290448 -0.0625000000
-0.0107945314 0.0467230487 -0.0625000000
0.0143411091 0.0496431059 -0.0625000000
0.0413085965 0.0263183748 -0.0625000000
0.0360372267 0.0327101580 -0.0625000000
0.0428303662 0.0131384590 -0.0625000000
0.0520690519 -0.0118255174 -0.0625000000
0.0486102830 0.0112464734 -0.0625000000
-0.0512570695 0.0158578734 -0.0625000000
-0.0502071018 0.0123156146 -0.0625000000
0.0455790070 -0.0131703390 -0.0625000000
0.0036510767 -0.0495442132 -0.0698730443
0.0234633191 -0.0450873960 -0.0663134924
0.0215366929 -0.0439409018 -0.0667232665
0.0448475217 -0.0294081672 -0.0664790897
0.0511603898 -0.0021911299 -0.0654860427
0.0484350340 -0.0029847505 -0.0692979433
0.0444538380 0.0294402881 -0.0690224001
0.0270776249 0.0427488475 -0.0635330143
0.0242574860 0.0404402188 -0.0673201960
0.0026518589 0.0481992059 -0.0625784275
-0.0244319974 0.0460794899 -0.0656336405
-0.0230354198 0.0411457777 -0.0670639839
-0.0448844665 0.0291466099 -0.0663999990
-0.0505445071 0.0021159933 -0.0656733326
-0.0488613783 -0.0033326665 -0.0689002768
-0.0412540466 -0.0281521069 -0.0694624788
-0.0480974180 -0.0260582975 -0.0649024173
-0.0216958885 -0.0452519965 -0.0687548788
0.0106146832 0.0542425687 -0.0474999994
-0.0480169161 -0.0118393004 -0.0660053438
-0.0528348161 0.0317609220 0.0709611697
0.0245884306 -0.0579754932 0.0706935658
-0.0501207833 0.0374179095 0.0708521121
-0.0143867650 -0.0613360237 0.0707301885
0.0623711903 0.0069998063 0.0708009847
-0.0553891689 -0.0326789158 0.0697442333
0.0440719443 -0.0468239552 0.0696834777
-0.0640455703 -0.0083222040 0.0690777121
-0.0586130327 0.0276779367 0.0685824891
0.0081599556 -0.0642905512 0.0685069248
0.0598763044 0.0249335279 0.0683556875
0.0034652258 0.0643260531 0.0699487449
-0.0049014363 0.0647046672 0.0691979300
-0.0389171555 0.0499622398 0.0706109499
-0.0230432086 0.0574005188 0.0709458274
-0.0177650676 0.0612009612 -0.0702262859
-0.0220444503 0.0574063175 -0.0709503673
0.0195387264 0.0609997325 -0.0698833712
0.0096730495 0.0621510618 -0.0708443783
0.0592220810 0.0196022601 -0.0708558479
-0.0607583013 -0.0126276573 -0.0709310239
0.0162077877 -0.0600496064 -0.0708900913
0.0630580006 0.0064660999 -0.0705337715
-0.0363389531 -0.0515151566 -0.0706463929
0.0506850144 -0.0383053116 -0.0703637438
-0.0022176438 -0.0645214679 -0.0695078684
0.0475487794 -0.0434036027 -0.0697109226
0.0461118552 -0.0452515312 -0.0693925021
-0.0439811084 -0.0477826448 -0.0680191129
0.0532849015 0.0370605591 -0.0680967813
-0.0454546469 0.0774900019 0.0306139565
-0.0406271184 0.0774900019 0.0342629128
-0.0340841793 0.0774900019 0.0363665937
0.0234153997 0.0774900019 0.0430148969
0.0223407378 0.0774900019 0.0453565367
0.0467132019 0.0774900019 0.0209853572
0.0148556638 0.0774900019 -0.0474174543
0.0371833728 0.0774900019 -0.0340516216
0.0218547360 0.0774900019 -0.0429331478
-0.0205915582 0.0774900019 -0.0440805299
-0.0409469022 0.0774900019 -0.0254902271
-0.0478457750 0.0774900019 -0.0117244740
-0.0534060846 0.0774900019 -0.0102893214
-0.0493661925 0.0774900019 -0.0165246705
-0.0418823337 0.0774900019 -0.0399455688
-0.0212648233 0.0774900019 -0.0500142019
0.0006573416 0.0774900019 -0.0515497836
-0.0140250058 0.0774900019 -0.0507030149
0.0280089848 0.0774900019 -0.0488042339
0.0584475871 0.0774900019 0.0071408713
0.0565712636 0.0774900019 -0.0136578546
0.0558865366 0.0774900019 0.0139309070
0.0447333794 0.0774900019 0.0365438865
-0.0023188213 0.0774900019 0.0561362503
-0.0131792743 0.0774900019 0.0496961730
-0.0101415778 0.0774900019 0.0547671838
0.0192744082 0.0774900019 0.0539072853
-0.0322229185 0.0774900019 0.0478656745
-0.0494359642 0.0774900019 0.0158397185
0.0501807468 0.0774900019 -0.0243160430
0.0245270892 0.0774900019 -0.0513894180
0.0542902068 0.0808002321 -0.0254858541
0.0598877072 0.0785246013 -0.0034953587
0.0556580666 0.0793322814 0.0221126303
-0.0260656485 0.0813814941 -0.0539964083
-0.0006166377 0.0808137598 -0.0598955717
0.0243658120 0.0785182043 -0.0547677650
0.0465537426 0.0791912271 0.0378267026
0.0248421069 0.0779847184 0.0545306042
-0.0029296964 0.0811990507 0.0598243083
-0.0223345184 0.0778791308 0.0555756655
-0.0444409568 0.0799893189 0.0402950746
-0.0566544815 0.0775618175 0.0194500285
-0.0587894615 0.0801055504 -0.0114082346
-0.0465151229 0.0818626064 -0.0377174975
0.0543620297 0.0730997867 -0.0008322299
0.0456458725 0.0762750659 0.0249241676
0.0249086764 0.0725083513 0.0460036889
-0.0277472452 0.0748404377 0.0467962060
-0.0453719410 0.0710986694 0.0280258127
-0.0517879250 0.0698037043 -0.0010470650
-0.0454150743 0.0678333372 -0.0279879180
-0.0280139300 0.0696553726 -0.0457803432
0.0256212675 0.0711955835 -0.0445677837
0.0464590662 0.0704643763 -0.0250515514
0.0283953733 -0.0487510656 0.0650000051
0.0382873480 -0.0437406781 0.0650000051
0.0517003676 -0.0241646307 0.0650000051
0.0389262203 0.0467683262 0.0650000051
0.0379410244 0.0411011134 0.0650000051
0.0043333447 0.0574573396 0.0650000051
-0.0149452931 0.0568799125 0.0650000051
-0.0390022548 0.0398294079 0.0650000051
-0.0515298984 0.0213237133 0.0650000051
-0.0558587363 0.0143880725 0.0650000051
-0.0447632506 -0.0329382409 0.0650000051
-0.0181871867 -0.0542476862 0.0650000051
0.0058101358 -0.0572168515 0.0650000051
-0.0599614642 0.0077050712 0.0650000051
0.0577014999 -0.0133055897 0.0650000051
0.0599073912 0.0108879458 0.0704511440
0.0599908175 -0.0104327032 0.0702118311
-0.0506985903 0.0338305153 0.0669818757
-0.0355759023 0.0494781454 0.0656619013
-0.0160130748 0.0587865760 0.0660128864
0.0057383013 0.0606528974 0.0657018037
0.0249724952 0.0555320593 0.0672430268
0.0418438084 0.0442658298 0.0650902917
-0.0566392549 -0.0226139290 0.0656662306
-0.0606810950 -0.0052721398 0.0655437167
-0.0588694082 0.0157287615 0.0655306234
0.0484326472 -0.0369103820 0.0677510906
0.0307582850 -0.0525558178 0.0689359303
0.0116449098 -0.0597686724 0.0691341588
-0.0080785545 -0.0604222312 0.0672064637
-0.0292713576 -0.0534546966 0.0669617921
-0.0459207896 -0.0401165313 0.0658524444
-0.0581261875 0.0011539651 0.0648270132
0.0279148396 0.0503541629 0.0604572596
0.0282946542 -0.0511523896 0.0604029532
