-0.1255463420 -0.1601248001 0.0913214158
-0.1439183921 -0.1417527526 0.1319999490
-0.1165685267 -0.1684151187 0.0338142308
-0.1258745781 -0.1590689025 0.0205016940
-0.1813652316 -0.1043059095 0.0543216078
-0.1250322368 -0.1603330413 0.1068353883
-0.0943717080 -0.1912267926 0.0713004206
-0.1316268190 0.1537553084 0.0482661129
-0.1450967007 0.1402964369 0.1689104784
-0.1617717736 0.1234383794 0.0715544408
-0.1318078837 0.1536694958 0.0078350648
-0.0992068352 0.1864643054 0.0363852911
-0.1186393735 0.1666043972 0.1256513158
-0.1892825857 0.0963885577 0.0599344854
0.1043097028 0.1804074526 0.0249009298
0.1409195040 0.1438188270 0.1628007697
0.1845097229 0.1010495964 0.0788229354
-0.2519396065 0.0911042579 0.0417374112
-0.2605223139 0.0997366160 0.0582615721
-0.2588594593 -0.1002898740 0.0769272070
-0.1047126367 -0.2628857208 0.0747552832
-0.1033656296 -0.2636118770 0.0801717510
0.2526442606 0.0931136521 0.0655117141
0.0995907056 0.2584928164 0.0692508393
0.0992562721 0.2597563863 0.0224761656
-0.1089332912 0.2672855262 0.0184092970
0.1805019506 0.1680441367 0.1834262323
0.1051576643 0.2436055635 0.1260525656
0.2499751453 0.1120458084 0.1257632927
0.1843712168 0.1689891845 0.1836100254
0.2504157676 0.1213583197 0.1365640206
0.1277749198 0.2346216194 0.1552104290
-0.1907497801 -0.1530989541 0.1776674950
-0.1267671207 -0.2477553554 0.1433651716
-0.2504957228 -0.1275654189 0.1417364846
-0.1882872724 -0.1597947366 0.1797959860
-0.2332400156 -0.1407883662 0.1637438028
-0.1399394385 -0.2041230987 0.1758374081
-0.1025110624 -0.2625655355 0.0813298303
-0.2345475622 0.1362115848 0.1571461514
-0.0971167407 0.2462921801 0.1127857103
-0.1536349074 0.2076694885 0.1769740955
-0.1197574008 0.2239629523 0.1565140268
-0.2161206829 0.1608012392 0.1779256394
-0.2488704482 0.1031182580 0.1167716220
0.1100128639 -0.2683426752 0.0107036072
0.2624088713 -0.1039278507 0.0708176340
0.2640079417 -0.1023130262 0.0179992982
0.1968397572 -0.1517579696 0.1779060044
0.2524317987 -0.1068500909 0.1150520587
0.1351558173 -0.2353119616 0.1584597674
0.1548297030 -0.2021327842 0.1792171505
0.0970764903 -0.2489370243 0.1040535578
0.2440214306 -0.1099927897 0.1315866553
0.0465070202 0.2312100892 0.0016979016
0.0367164613 0.2294353552 0.0020000001
0.0337838021 0.2702607849 0.0017385340
0.0697218513 -0.2589027459 0.0014232549
-0.0893634685 -0.2611567815 0.0023859495
-0.1609185308 -0.0814354348 0.0016061104
-0.1441774204 -0.1004843883 0.0017335505
-0.2666833396 0.0844563267 0.0022282439
-0.1182415323 0.1229073475 0.0022447079
-0.1249102195 0.1373876264 0.0023249070
-0.0711794182 0.2508826000 0.0024278633
0.0354334148 -0.1266379167 0.0017895896
0.0198328798 0.1808135564 0.0014178066
0.0249195032 0.0405835192 0.0014666451
-0.0732219008 -0.0989556747 0.0019111601
-0.0605810518 -0.1786881715 0.0019373201
0.0100987828 -0.2440072719 0.0013758510
0.0075466921 -0.1754154569 0.0019919891
-0.2389908277 -0.0472411981 0.0009236787
-0.2296355279 -0.0576741001 0.0018888297
0.0133363327 -0.1308642882 0.0020000001
-0.0802185202 -0.0626752429 0.0020000001
-0.0488512906 -0.0616286245 0.0020000001
-0.2331933729 -0.0247727479 0.0020000001
-0.2492277450 0.0379727052 0.0016414022
-0.2214777659 -0.0256414910 0.0016418120
-0.1748434988 -0.0265343507 0.0014866887
-0.1000938817 -0.0363416141 0.0020000001
-0.0931101653 -0.0463506139 0.0020000001
-0.1985552646 0.0295021170 0.0020000001
-0.0771405326 0.0164970102 0.0020000001
-0.0629153051 0.0130872271 0.0020000001
-0.0861574761 -0.1216547474 0.0022107335
-0.1614694070 0.0653058699 0.0020000001
-0.0891032739 0.1387231844 0.0022979250
-0.0440549115 0.2217918263 0.0021365393
-0.0378408051 0.2522745920 0.0021401070
-0.0007593833 0.2244134460 0.0020000001
-0.0484494069 0.1261656163 0.0020000001
-0.0173981013 0.1975917497 0.0020000001
-0.0110971960 0.1514923363 0.0020000001
-0.0502718381 0.0602811426 0.0020000001
-0.0089374093 0.2194954863 0.0017336068
0.0591471378 -0.1623594167 0.0021830296
0.0769876112 -0.1935229897 0.0024676692
0.0974728262 0.0772540796 0.0017624746
0.2682618303 0.0674680405 0.0019675413
0.1950820767 0.0085428932 0.0016404443
0.1809393450 -0.0171990542 0.0017631871
0.1436839664 -0.0135971952 0.0016918066
0.1437915512 -0.0219592769 0.0017791310
0.0612486683 0.0766028832 0.0020000001
0.0830259934 0.0666207249 0.0020000001
0.2218330527 -0.0861777994 0.0025863375
0.0600833611 -0.0408124493 0.0013262734
0.2247334621 -0.0519529581 0.0021642040
0.2772119746 -0.0241585027 0.0019948805
0.2403200541 0.0121917205 0.0019252097
0.1222938365 -0.1075154834 0.0022437969
0.0848125245 0.1192653037 0.0023201761
0.1259566755 0.1405963638 0.0014790009
0.1590157360 0.0880086080 0.0020000001
0.0941286477 0.0135608548 0.0018019038
0.1415812181 -0.0489955036 0.0014272769
0.1002221203 -0.0675962664 0.0007376762
-0.1659379568 0.1538452678 0.1869663402
0.1699095843 -0.1149666526 0.1600000113
-0.0432050289 0.0177284602 0.0008683374
0.0156207752 -0.0631961128 0.0009011879
0.0781543059 0.0530773280 0.0007289384
0.2388890886 0.0290499611 0.0004059759
0.0794588416 -0.0484818271 -0.0000000001
0.0804613845 -0.0567733342 -0.0000000001
0.0422970767 -0.0756977918 -0.0000000001
0.1761377737 0.0600164916 0.0002127482
0.0690006711 0.1651129456 0.0003261200
0.0938138969 0.1579788631 0.0007710821
-0.0781695406 0.2129243545 0.0002545811
-0.0874989077 0.1986547873 0.0001568214
-0.2379312467 -0.0528089545 0.0002437533
-0.0464608929 -0.1613423757 0.0000501317
-0.0301220857 -0.1562514197 0.0000556469
-0.0771415450 -0.1661165448 0.0000460481
-0.0568365393 -0.1431293746 0.0000747406
0.0765302696 -0.2375424524 0.0005406566
0.1103063210 -0.1089318341 0.0004224419
0.1488462025 -0.1120451464 0.0007403947
-0.0110148749 0.2594804810 0.0017361426
-0.1678960188 0.0940055631 0.0015673291
-0.1711158688 0.0869380660 0.0016858124
0.1479586299 0.1054281179 0.0000464791
0.0619686905 0.0786662660 0.0003663350
0.0680361026 0.1035650651 -0.0000000001
0.1503148055 0.1170716681 -0.0000000001
-0.1867304872 0.0586970378 0.0008211213
0.0041057832 0.2018665971 0.0002475165
-0.0114623565 0.2237572666 0.0008219051
-0.0137555736 0.1702428302 -0.0000000001
-0.0906730687 0.0975725337 -0.0000000001
-0.0924716505 0.1292506105 -0.0000000001
-0.0775013032 0.0680167910 -0.0000000001
-0.0285548326 0.0364353618 -0.0000000001
-0.0072923735 0.0411247156 -0.0000000001
0.1319102400 0.0153607647 -0.0000000001
0.1658393029 -0.0316154827 -0.0000000001
0.1651998939 0.0055297324 -0.0000000001
0.1099182721 -0.0099486627 -0.0000000001
-0.2394594959 0.0003298150 0.0003534650
-0.1852485615 0.0232397481 -0.0000000001
-0.2112820469 -0.0022256587 -0.0000000001
0.2031588175 0.0288219872 0.0001139817
0.2420093674 -0.0159041148 0.0006520363
0.1274942121 -0.0391890182 -0.0000000001
0.1164402835 0.1357273742 0.0002933011
0.2716391438 -0.0408446289 -0.0000000001
-0.2100745285 -0.0435878909 0.0009893747
-0.1794099448 -0.0421208865 0.0009193325
-0.1108871151 -0.0331834588 0.0007260435
-0.1691595342 -0.0702652992 0.0007221999
0.1357768028 -0.0541527954 0.0000967582
-0.0010790366 -0.0819118840 0.0002242106
-0.0678246935 -0.0374699333 0.0010805132
0.0173206232 -0.1083683542 0.0002385031
-0.0757180620 0.0068903218 0.0004926156
-0.0504497765 -0.1040202435 0.0009734748
-0.1474006700 -0.0917004361 0.0004179576
-0.1210966978 -0.1087847237 0.0002509910
0.1642873600 -0.1017007566 0.0011387719
-0.0631074402 -0.2101121483 0.0000086528
0.0663756103 -0.1990587381 0.0000007710
-0.0059561819 -0.2735854852 0.0008074089
0.0734023935 -0.2291997883 0.0003352853
-0.0615515689 -0.2145698228 0.1640000045
-0.0554946332 -0.2361419651 0.1631327913
0.0053068814 0.2219100037 0.1640000045
-0.0893556156 0.2380490382 0.1640000045
0.2185931790 0.0676795228 0.1639272082
0.2233873913 -0.0832012803 0.1632115370
0.0893688555 0.2155131106 0.0971848136
0.0894470631 0.1952791659 0.1142064649
0.0891185824 0.2375509934 0.1544455032
0.0886973237 0.2476096202 0.0927352697
0.0888854020 0.2088809488 0.1257096972
0.0888808004 0.2206138782 0.0731129850
-0.2353470758 0.0895036039 0.0869724732
-0.1986643408 0.0892883569 0.0573106342
-0.2133014257 0.0893477265 0.0234420400
-0.2411668116 0.0885647286 0.1341460463
-0.2075982937 0.0890226494 0.0898475728
-0.2019325548 0.0884776248 0.0223623717
-0.0898106780 -0.2201524610 0.0156511938
-0.0892189712 -0.2331816712 0.1208261914
-0.0893807811 -0.2343697154 0.0470544849
-0.0891009809 -0.2259675702 0.0163094468
-0.0887598916 -0.2381932865 0.1114138524
-0.0885794284 -0.2098772435 0.1036960060
0.2477568966 -0.0895811557 0.0998000465
0.1954350896 -0.0892582480 0.0864052821
0.2024641057 -0.0890097538 0.0498998266
0.2244750445 -0.0888077653 0.1332846225
0.2213503505 -0.0892346342 0.0871793506
0.2212417778 -0.0883635607 0.0482839369
0.0949390034 -0.1907234361 0.0411552377
0.1353465936 -0.1490176878 0.1530725071
0.1884753747 -0.0971957648 0.1362669073
0.1906031018 -0.0917067250 0.0974144750
0.1872386468 -0.0949873542 0.0048773409
0.0957177549 -0.1868274014 0.1284086200
0.1533434943 -0.1294734722 0.1451543352
0.1848464300 0.0974298899 0.1027410056
0.0924507516 0.1905826129 0.0399431026
0.1473547441 0.1373376154 0.1829692899
-0.2775000036 0.0101514333 0.0009555388
-0.1020784654 -0.1815420031 0.1477262577
-0.1665405566 -0.1163752481 0.1321299048
-0.1113799623 -0.1715118536 0.0535108810
-0.1380053469 -0.1450785532 0.0404979064
-0.1409592117 -0.1410758304 0.0088159082
-0.1725275810 -0.1109408541 0.1242806443
-0.1803346823 -0.1022363176 0.0465093262
0.0915374631 -0.1936947556 0.0913210746
-0.0907951246 0.1933231958 0.0675341623
-0.1143029854 0.1690428479 0.1386771507
-0.1333444747 0.1503128747 0.1071097442
-0.1156489635 0.1665917820 0.0141958526
-0.1544259702 0.1287629149 0.1431183652
-0.1031199921 0.1793743149 0.0801809147
-0.1152875220 0.1676981892 0.0403949708
-0.1825603118 0.1001695129 0.1109806287
-0.2480542422 -0.0893658008 0.1340883420
-0.2105505135 -0.0897760887 0.1526664531
-0.2051586458 -0.0902613585 0.0285383796
-0.2036230313 -0.0886909148 0.1051794023
-0.2493768935 -0.0886571147 0.0418571591
-0.2155472144 -0.0883579384 0.0887916845
-0.0900104798 0.2089676642 0.0552944314
-0.0898143451 0.1969519042 0.0860482918
-0.0901842120 0.2028963649 0.0126167647
-0.0889167706 0.1954113977 0.1282673329
-0.0887477823 0.2267702380 0.0507234186
-0.0889198318 0.2344110506 0.1179080224
0.0897082515 -0.2131189014 0.1026837393
0.0896724051 -0.2099362112 0.1083044447
0.0895303162 -0.2475911731 0.0185720515
0.0884643536 -0.2198019465 0.0493705381
0.0888247222 -0.2379032174 0.0873882054
0.0885110001 -0.1965215655 0.0632200811
-0.0894410040 -0.1935804421 0.0905695197
0.2013629627 0.0896809584 0.1486281043
0.2181745722 0.0898654706 0.0459889107
0.2289054378 0.0897426191 0.0742332864
0.2470689802 0.0885378311 0.0630719217
0.1988783288 0.0892533274 0.1598961616
0.2194730775 0.0891369934 0.0703172571
0.1521977592 0.1293855199 0.1438009714
0.1030687235 0.1663359144 0.1442930195
0.1444314526 -0.1352466459 0.1443322604
-0.1520705908 0.1312355465 0.0471905234
0.2145705730 0.0279066981 0.1623182255
0.2457318987 0.0111299891 0.1616974445
0.2295628417 -0.0589387096 0.1621735526
-0.0524072921 -0.2415082537 0.1615729218
-0.0656821806 -0.2388717033 0.1616535252
-0.0724884400 0.2137346268 0.1628944703
-0.0740442719 0.2249528623 0.1628381606
0.0422842699 0.2346425567 0.1628290165
0.0033265266 -0.2508455181 0.0009142287
-0.1203277633 0.1639534767 0.0280673574
-0.1751703489 -0.1087132212 0.0371637427
-0.1670670846 0.1740073076 0.1797352657
-0.1842242642 -0.1732866425 0.1875872023
-0.1611954906 -0.1816394204 0.1863245889
-0.1756778881 0.1574068225 0.1865008766
0.1484101660 0.1393762791 0.1848729270
0.1886017573 -0.1640186779 0.1802933032
-0.2193311104 0.0191910012 0.1477165882
-0.2251658115 -0.0669384560 0.1473819302
-0.2459439766 -0.0075211290 0.1458118107
-0.2187469197 -0.0793786227 0.1468384857
-0.2324865891 0.0300358031 0.1473178102
0.0610791905 0.2146714584 0.0584515322
0.0584859160 0.2137554720 0.0721067988
0.0622245312 -0.2146682715 0.0498056827
0.0423887233 -0.2139233185 0.0481426376
0.0754307424 -0.2140796375 0.0643664253
0.0423532598 -0.0711660467 0.0818633265
0.0417962031 -0.1862908663 0.0360448912
0.0416572876 0.0257761145 0.0461903383
0.0416572876 0.1097027279 0.0375117044
0.0416572876 -0.0938063085 0.0183478438
0.0416572876 -0.0543671490 0.0293817440
0.0416572876 0.0675241809 0.0204425764
0.0416572876 0.0930333398 0.0204062188
0.0416572876 0.0080709278 0.0594538296
0.0416572876 -0.0762563760 0.0386892671
0.0418004167 0.0362802622 0.0817617026
0.0421280528 -0.0268032827 0.0786600633
0.0431572869 0.1367390987 0.0194906437
0.0431572869 0.0435017039 0.0594957581
0.0431572869 0.0404639192 0.0093366182
0.0431572869 0.1039711822 0.0766208002
0.0431572869 0.0826060837 0.0718353727
0.0431572869 -0.2009001282 0.0375762669
0.0430196450 -0.1587161509 0.0627963850
0.0429077988 -0.1387039062 0.0629968574
0.0424744841 -0.0608746209 0.0748325129
0.0430548224 -0.1239827699 0.0129295792
0.0431155512 0.0354867732 0.0654497438
0.0427522342 -0.0141269576 0.0733531417
-0.0148684485 -0.2136956964 0.0842178243
0.0304705715 0.1951705430 0.0821922037
-0.0258985760 0.2010186983 0.0852742938
-0.0482401911 -0.0597449516 0.0823539865
0.0338690974 -0.0224030995 0.0834068937
-0.0618481509 0.0150546553 0.0842549726
-0.0400208011 0.0137339138 0.0839999989
0.0081077860 0.0357484570 0.0842277178
-0.0601620714 0.0352379390 0.0840541979
-0.0887503507 -0.0052218443 0.0042986279
-0.0890549088 -0.0539507954 0.0262711778
-0.0884377321 0.0158631011 0.0511992109
-0.0886881150 0.0521277747 0.0718206017
-0.0892173935 -0.0050047062 0.0172965338
-0.0890682411 -0.0547234641 0.0573058916
-0.0888529683 -0.0083139135 0.0517981192
0.0111391110 -0.0551514660 0.0854836558
-0.0377284357 -0.0257223093 0.0852981488
0.0179017836 -0.0200507498 0.0851064248
-0.0614927650 0.0360669423 0.0849052107
-0.0539062729 0.0540018589 0.0852186175
0.1946922996 0.1803765874 0.1826759365
-0.1293548757 -0.2495780167 0.1445532682
0.2151847567 0.0893342500 0.0965822228
0.2142706823 -0.0232599502 0.2395181156
0.2816060429 -0.0068545969 0.1757760859
-0.0012675004 0.2774025820 0.1515705949
0.1995355297 0.1847916424 0.2019606282
0.0023396378 -0.2661959638 0.1408789457
-0.0089927266 0.2790362906 0.0111170049
0.0075135423 -0.2863216356 0.0318134630
-0.0017898367 -0.2773568655 0.0023040348
-0.2829481303 -0.0063411010 0.1486528513
0.2915482405 0.0106492643 0.0699952649
0.2859545019 0.0293842539 0.1365225825
0.2812137652 0.0197782074 0.1027164115
0.2821354611 -0.0186270791 0.1382212202
0.2886311312 -0.0223907490 0.1073603449
0.2749610102 -0.0139363335 0.1964530464
0.2789621332 0.0039376397 0.0792016620
0.2699940664 -0.0206734479 0.1205492626
0.1737562154 0.1708593484 0.2000241780
0.1670404773 0.1835637716 0.1989059519
0.1826504693 0.2039674106 0.1848867202
0.1876191404 0.2046091363 0.1893394888
0.1687179406 0.1573755653 0.2057780828
-0.1556092358 0.1820968434 0.2007498862
-0.1890605675 0.1679266145 0.1983496835
-0.1755787472 -0.2070404169 0.1944628781
-0.1944362926 -0.2058139678 0.1764810869
-0.1596184969 -0.1830046895 0.1943459306
0.1900822560 -0.2059942366 0.1796993749
0.1972709723 -0.1716072901 0.2069438141
0.1663029002 -0.1598026601 0.2049405615
-0.1857742389 0.2007555555 0.2123780080
-0.2015521500 0.1818659290 0.2032920825
-0.1948816944 -0.1767066507 0.2013456896
-0.1910248241 -0.1974434320 0.1878198073
-0.1677264641 -0.1684687354 0.2008340178
0.1920765439 -0.2078414804 0.1968684581
0.1838435695 -0.1726295822 0.2058612473
-0.1897188064 0.1874687551 0.1983903380
0.2037615719 -0.1896243327 0.2006279534
-0.2906823800 -0.0173699364 0.0492783303
-0.2175188826 0.1961037221 0.0405582684
-0.1986293527 0.2159086320 0.0996170296
-0.1761296223 0.2361893940 0.1126073898
-0.1707885152 0.2374878055 0.0009339423
-0.2244789678 0.1871394294 0.1365747285
-0.1347676611 0.2725640684 0.0808597872
-0.1518028179 0.2587167339 0.0685183025
-0.2386971818 0.1685606463 0.0030520408
-0.2479567859 0.1620767643 0.0317901471
-0.2429233644 0.1675421520 0.1138542998
-0.2769146560 0.1294769567 0.0771140772
-0.1755221462 0.2325306852 0.0000000447
-0.2663680565 0.1333617662 0.1041538248
-0.1309728123 0.2694348530 0.0387172678
-0.2328259045 0.1714312996 0.0177202839
-0.2396016803 0.1626836510 0.1434186235
-0.2520260657 0.1521589794 0.0450230006
-0.2292738826 0.1783571981 0.0703883159
-0.2103252584 0.1982051942 0.0837315393
-0.1785161897 0.2246137617 0.1465575982
-0.1644822560 0.2381446966 0.1401507411
-0.1559794277 0.2492470816 0.0657774976
-0.1993927060 0.2090656999 0.0488324919
-0.0176078883 -0.2887660397 0.0366467028
0.0051661340 0.2910631153 0.0537227834
0.0063829996 0.2899548284 0.0532773211
-0.1011593083 -0.0382295956 0.1335767926
-0.0881202636 -0.0636848281 0.1257698671
-0.0751176190 -0.0075340514 0.1300000101
-0.0851999139 -0.0015940373 0.1300000101
0.0223948379 0.0504879415 0.1300000101
-0.0559983005 -0.0382260652 0.1300000101
0.0265438604 -0.0485325581 0.1300000101
-0.1010299438 -0.0436613385 0.1310942667
-0.0510241331 0.0683032908 0.1089481728
0.0442800383 0.0596147375 0.0864016176
0.0574145983 0.0794960878 0.0925725900
-0.0084901064 0.0799746935 0.1152815542
-0.0899114388 0.0796166577 0.1386108653
-0.0916897507 0.0752925100 0.1418394379
-0.0731352665 0.0759950828 0.1606249867
0.0719627609 0.0762419999 0.0881075808
0.0258172898 -0.0759318690 0.1200151483
0.0068026703 -0.0759090399 0.1249663685
-0.0052275045 -0.0596569301 0.0854999758
0.0197668559 -0.0794168524 0.1137486407
-0.0325485304 -0.0799827416 0.1342320973
0.0072808965 0.0560000017 0.1150254193
0.0201147530 -0.0076690912 0.1270000041
0.0241828229 0.0122885233 0.1270000041
0.0318792588 -0.0143037711 0.1270000041
-0.0286301236 0.0140557184 0.1270000041
-0.0960878554 -0.0452387591 0.1270000041
0.0325486647 -0.0567874780 0.0937817276
-0.0101806388 -0.0517422574 0.1262577446
0.0168220030 -0.0583877062 0.1006778700
0.0282134086 -0.0572010167 0.1254931876
-0.0277328864 0.0589292362 0.1228460751
-0.1056504205 0.0756451633 0.1435892979
0.0457890009 0.0092491104 0.1243902363
-0.0039524303 0.2928516309 0.0609998401
-0.0900009879 0.2808590890 0.0072356171
0.0551358654 0.2877772157 0.0253835507
0.0226167447 0.2923593482 0.0494695691
0.0659288362 0.2921145958 0.0642251296
-0.0304300757 0.2912984270 0.0482196149
-0.1246689622 0.2740748908 0.0775794007
-0.1253996596 0.2667766921 0.1482497102
-0.1465430290 0.2487129196 0.1636523321
-0.1666660193 0.2376368452 0.1674192486
-0.1181289403 0.2822240232 0.0518709599
-0.0983254486 0.2744337164 0.0058081057
-0.0781215769 0.2873191273 0.0795760016
-0.0351853753 0.2906010379 0.0604993414
-0.0564383254 0.1727044905 0.2212393720
-0.0653428197 0.1605586474 0.2221713285
-0.1336901807 0.1936145971 0.2118667804
-0.1371362817 0.2449342833 0.1841772339
-0.0540200083 0.2797344179 0.1461926032
-0.0955451726 0.2673038028 0.1642789064
-0.0867577123 0.2508551003 0.1869092524
-0.1195946018 0.1222903964 0.2244357356
-0.1317286254 0.2061067102 0.2086613500
-0.0553882116 0.2937225445 0.0766357503
-0.0024138500 0.2569195212 0.1866769344
-0.0234405407 0.2918106153 0.1105597080
0.1485329357 0.1822553030 0.2129544503
0.2702291793 0.0949599213 0.1646730106
0.1623589120 0.1176888631 0.2182228657
0.1092013674 0.1179892441 0.2248805746
0.0568562043 0.2768373283 0.1538160391
0.0808118910 0.2603431895 0.1773992089
0.0533702883 0.1813690472 0.2199637175
0.0451705784 0.1361396473 0.2266262226
0.0578817381 0.2491322379 0.1909293934
0.0647971618 0.2263004357 0.2054450197
0.1542753568 0.0925899605 0.2236525304
0.0092850272 0.2844042450 0.1445191958
0.0657779660 0.2881166784 0.1192619444
0.0833253816 0.2851400955 0.0467202104
0.0629845695 0.2797717650 0.0011190334
0.0245043891 0.2858652058 0.0211125366
0.2839028100 0.0751537843 0.1210107322
0.0698581638 0.2859653716 0.1105775098
0.0716559487 0.2702755797 0.1542570577
0.1256285037 0.1784457324 0.2116534872
0.1460993004 0.2343007359 0.1870180933
0.2870662122 0.0813548937 0.0766081370
0.0965335033 0.2863567507 0.0901310740
0.0071648163 0.2826597762 0.1339854991
0.0565779267 0.1772282939 0.2168711539
0.1595662131 0.2123217599 0.2007263371
0.0492105262 0.2409427486 0.1930473563
0.1135081650 0.2802351805 0.0709096877
0.1277164156 0.2719957845 0.0873151310
0.1518051491 0.2473129009 0.1385792996
0.1249415385 0.2701906606 0.0053974893
0.1385029293 0.2588962414 0.1181092706
-0.0429096959 0.1281068107 0.2226174393
0.0275763703 0.2227556189 0.2048078528
-0.0267521987 0.2764035778 0.1487951841
-0.1509478897 0.2202243515 0.1983348745
-0.0899298089 0.2234749237 0.2002061531
-0.0072075101 0.2886012292 0.1030939596
-0.0329486615 0.2715793950 0.1590635526
-0.0539790693 0.2031723356 0.2085770768
0.0208821748 0.1906579478 0.2142375137
-0.0889261062 0.1723296769 0.2155061317
-0.0091504019 0.2802416733 0.1408211901
-0.0827005084 0.2810873647 0.1229748279
0.1250531115 0.2758679743 0.0339370425
0.1434893156 0.2615008201 0.1334086560
-0.1587102117 0.2467675787 0.1589018183
0.2281633166 0.1733619676 0.1699121534
0.2765378204 -0.1211854369 0.0870703332
0.2593764246 0.0049461966 0.2370024771
0.1833901528 0.0316211141 0.2331960949
0.2847981386 0.0738658456 0.0125173593
0.2594555716 0.1404160795 0.0232290165
0.1621239072 0.0417844739 0.2156874132
-0.1474182298 -0.1373572631 0.2142205437
0.2757018257 0.1265703134 0.0801301919
0.2186713784 0.1787269632 0.1940244489
0.2659956251 0.1309403844 0.0048725137
0.2757378638 0.1189514171 0.0857025407
0.2548031444 -0.1415901293 0.1198101688
0.2591612965 -0.1385227418 0.1546621157
0.2388341633 -0.0218952616 0.2387615271
0.2402942056 0.0203409606 0.2400875006
0.2074746043 -0.0385660968 0.2334271256
0.0799570451 -0.1014249405 0.2066711716
-0.0841937452 -0.1032660050 0.2108777341
-0.0747579731 -0.0907842583 0.2010788802
0.0416622736 -0.0813364140 0.1978378437
-0.0021634599 0.1018734120 0.2046723506
0.0472460633 0.1114635675 0.2137816790
-0.0202737723 0.1211502650 0.2262808715
-0.0001773789 0.1027039074 0.2052995912
0.0859378756 0.0963455065 0.2032403017
0.1517385828 -0.0928535480 0.2206917280
0.2760397155 -0.1237587839 0.0268893875
0.2465828087 -0.1590724590 0.1605239355
0.1645660573 -0.0625292274 0.2185870924
0.2733051133 -0.1214779858 0.0237235603
0.2791759207 -0.0417120654 0.0067015287
0.2769333361 -0.0663666198 0.0075708079
0.2863425743 -0.0488642776 0.0354487473
0.2891618054 -0.0518851500 0.0598253032
0.1774459459 -0.0996212409 0.2137901316
0.2876549355 -0.0624228666 0.0974635164
0.2247360807 -0.1424094245 0.1961339897
0.2766811487 -0.0350462382 0.1754961724
0.2736619148 -0.0849813091 0.1523607668
0.2377607151 -0.0549447292 0.2242438328
0.2560764760 -0.0754067893 0.1857369759
0.0754690052 -0.0907987518 0.1964971570
-0.0873913830 -0.0988931180 0.2004596685
0.0258589671 -0.1208501257 0.2190757853
-0.0353036694 -0.1118955823 0.2087834546
0.1014166499 -0.1070010127 0.2058250904
-0.0012536570 -0.2711467565 0.1690728371
-0.0838598610 -0.2895318232 0.0997642310
-0.0541809936 -0.2808787285 0.1444082300
-0.0126753370 -0.2834262423 0.1477512696
-0.1091557496 -0.2355021159 0.1952979103
-0.0553755619 -0.1465579976 0.2253514252
-0.0967627470 -0.1696093264 0.2199376567
-0.0411126229 -0.2935534706 0.0634707000
-0.0799760181 -0.1864362669 0.2173600917
-0.0545118744 -0.2286374605 0.2044299040
-0.1468102458 -0.2466480776 0.1813808105
-0.1199002475 -0.2758419610 0.0044733664
-0.1284798263 -0.2754558581 0.1040981571
-0.0354837905 -0.1272761960 0.2278156422
0.2265878946 -0.1210629543 0.1994464943
0.2715081320 -0.0138233879 0.2266737319
0.2345252562 -0.1066851696 0.1976208076
0.2722081157 -0.0850175878 0.1673114039
0.2228566243 -0.0539485553 0.2304253079
0.1682709890 -0.0791158685 0.2242288279
0.2757892537 -0.0952563765 0.0005380331
0.2878042660 0.0179651623 0.0230117811
0.2937358253 0.0360078915 0.0709382874
0.2907294568 -0.0634381072 0.0459043109
0.2916436989 -0.0847563144 0.0704260141
0.2890724855 0.0960904227 0.0427788661
0.1365883078 -0.2610612005 0.1249958110
0.1215621361 -0.2752724449 0.0757218136
0.1263398311 -0.2725581638 0.0699842464
0.1316667840 -0.2699647891 0.1144256709
0.1260566256 -0.2756205213 0.0968294411
0.1476062032 -0.2496331364 0.1731027862
0.0548307644 -0.1690745855 0.2213882038
0.0375314427 -0.1435925462 0.2249851641
0.2907627042 -0.0671376573 0.0966728941
0.2853408895 -0.0762458658 0.1233416243
0.0913476860 -0.2806976344 0.1335211622
0.0885604505 -0.2885616471 0.0995249032
0.1007814276 -0.2772596824 0.1453106566
0.0193673381 -0.2343485729 0.2042867797
-0.0120072732 -0.2136003990 0.2127168900
0.0708628787 -0.1823235552 0.2192044639
-0.0315752185 -0.2925676685 0.0959944566
0.0530493923 -0.2345069989 0.2020882237
0.1338618549 -0.1881308556 0.2132530191
0.1488725808 -0.2077202155 0.2072727912
0.1215863498 -0.2462171115 0.1861406464
0.0337977055 -0.2582318089 0.1850956903
0.0113490571 -0.2848715112 0.1426473265
0.0146138920 -0.1844708510 0.2160764780
0.0433523223 -0.1495879749 0.2213962631
-0.0510745394 -0.1331894141 0.2219568821
-0.0021771181 -0.2615778294 0.1740319847
-0.1059452439 -0.2651669775 0.1573177289
-0.0546985132 -0.2895601399 0.0590951535
-0.1502104834 -0.1979366322 0.2062441111
-0.1605266597 -0.2299237962 0.1919810967
-0.1356721133 -0.1543105542 0.2147094967
-0.0578535791 -0.1771950387 0.2163662256
-0.0381883511 -0.2253851352 0.2025834229
-0.1226948599 -0.2538339937 0.1740049546
-0.0159997522 -0.2900046180 0.0782953137
-0.0584019666 -0.2560296678 0.1774253466
-0.0040902392 -0.2808819464 0.1554032856
0.2386501306 -0.1413205200 0.1870285446
0.1657320777 -0.0988619521 0.2180315281
0.1565216734 -0.2001372036 0.2041500650
0.0462497032 -0.2879209795 0.0834950878
0.0542419851 -0.2889224599 0.0694002087
0.0625626200 -0.1710156621 0.2169738002
0.0907106078 -0.1512535311 0.2189808556
0.0837118394 -0.1650780492 0.2169648928
0.0999697135 -0.2449679241 0.1845463415
0.0440761235 -0.2728841270 0.1544446895
0.1045260868 -0.2806238531 0.1166475642
0.1185809026 -0.2753860871 0.1079780049
-0.1358824315 -0.2606133212 0.0171150153
-0.1096209649 -0.2788478263 0.1188249481
-0.1323105743 -0.2652834462 0.1118514333
0.2527299432 0.0488826885 0.2195752280
0.2758769287 0.0478132139 0.1757695370
0.2895034639 0.0347445614 0.1166656821
0.2133508906 0.1620062296 0.2045138248
0.2606473573 0.0490924752 0.2102487740
0.2506333630 0.0639910846 0.2070354943
0.1849123654 0.1133201138 0.2159438548
-0.0031577938 0.1189016004 0.2164655681
0.0674452492 0.1135303390 0.2105161283
-0.0543889976 0.0986331241 0.1997712573
0.0568388378 0.0926644924 0.1970563608
0.1426190877 0.0954479676 0.2103637588
0.2240548869 0.0536267947 0.2277439710
0.1749507332 0.1095743451 0.2163687136
0.2051769664 0.1225343901 0.2098253923
0.2777235193 0.1016565458 0.1357842107
0.2441625229 0.1345082133 0.1838521074
0.2465548832 0.1026797556 0.1913349813
0.2230296886 0.0716290860 0.2138472709
0.2831659077 0.0689346870 0.0203787553
0.2874422163 0.0376608574 0.0390384232
0.2727054752 0.1206472835 0.1309557916
0.0045719415 0.2134548338 0.2120734210
-0.0357737075 0.1416893160 0.2244991017
0.0245594322 0.2408149037 0.2000504382
0.0219341467 0.2273434449 0.2023633783
0.0031192190 0.1540636818 0.2207701144
0.1996048353 -0.0776864409 0.1526608258
0.0712249651 -0.0759999976 0.1093499952
-0.0859757431 -0.0759999976 0.1828034434
-0.0096226791 -0.0759999976 0.1894913131
0.0151738570 -0.0759999976 0.1846470168
0.1708850419 -0.0763146872 0.2079795651
0.0268040925 -0.0799999982 0.1346089222
0.0201472664 -0.0799999982 0.1350096213
0.0747711927 -0.0795576880 0.1771900379
0.1737615719 -0.0779999942 0.1791857812
0.0763908235 -0.0788083290 0.1142260082
0.1288075755 0.0797680818 0.1746577864
0.0111875453 0.0799999982 0.1468861556
-0.0396059452 0.0799999982 0.1688515696
-0.0737180467 0.0800000106 0.1902435207
0.0982017449 0.0800001561 0.1906160010
0.1745009182 0.0799153591 0.1438876794
0.1560444820 0.0762576965 0.1989307660
0.0301128878 0.0759999976 0.1415086835
-0.0616869359 0.0759999976 0.1780157862
0.0516712722 0.0759999976 0.1785050353
0.0687520622 0.0759999976 0.1757080101
0.1954705043 0.0775014740 0.1522638466
0.1829844051 0.0789651472 0.1312644913
-0.1269695431 -0.2750571681 0.0851081270
-0.1087875338 -0.2789526663 0.0279983174
-0.0556305887 -0.2793965410 0.0053797430
0.1069801390 -0.2820567338 0.0319544301
0.0795462012 -0.2831817936 0.0240040763
-0.0600976578 -0.2927554371 0.0602531117
-0.1053232378 -0.2786494060 0.0085247242
0.0811467910 -0.2917027083 0.0739954385
0.0134276292 -0.2832465184 0.0061142192
0.0262465952 -0.2933122052 0.0634218282
0.1244076235 -0.2738480575 0.0746925602
-0.1827572059 -0.1157300067 0.2121543908
-0.2030913495 -0.1090035670 0.2062766649
-0.2477914778 -0.0940099757 0.1830062693
-0.2613392557 -0.0565468548 0.1728904503
-0.2581098766 -0.0673598664 0.1758703030
-0.2739986657 -0.0696102661 0.1462656224
-0.2804318829 -0.0943395917 0.1217157790
-0.2910634531 0.0128984277 0.0539335496
-0.1825386774 0.1211029958 0.2115386629
-0.2621575876 0.1103027524 0.1635135073
-0.2610033699 0.0852889571 0.1698716734
-0.2681560322 0.0912512809 0.1572721015
-0.2870006332 0.0569334961 0.0983051551
-0.2074375666 0.1400565226 0.2041545534
-0.2780660733 0.0395869590 0.1400387265
-0.2922467239 -0.0452864215 0.0466037995
-0.2915584219 -0.0768794305 0.0561092293
-0.2946835144 0.0173188283 0.0617210687
-0.2849208044 -0.0535826597 0.0095021868
-0.2760895049 -0.1076947797 0.0038959050
-0.2893546742 0.0304187361 0.0421551876
-0.2869377905 0.0576109807 0.0430037108
-0.2833824490 -0.0776865005 0.0160143512
-0.2828950308 -0.0936750821 0.0344542813
-0.2905279685 -0.0366433395 0.0650058227
-0.1335396474 0.0833062065 0.1943464645
-0.1454335381 0.1163079042 0.2157445147
-0.2351791722 -0.0358014711 0.1907926771
-0.1804353837 -0.0880290036 0.1967669399
-0.1580391168 0.0787377412 0.1754652115
-0.1591290714 -0.0127862718 0.1536308363
-0.1281052975 0.0137049261 0.1388761507
-0.1553934508 0.0635634155 0.1576876564
-0.2038816208 0.0291083263 0.1769499861
-0.1989813093 -0.0013251463 0.1733792864
-0.2253587732 -0.0434671719 0.1905839931
-0.1648856189 -0.0646911003 0.1635641327
-0.1066863043 -0.0496002501 0.1304579406
-0.1413951638 -0.0777816828 0.1700555526
-0.2158203111 0.1511158034 0.2027161318
-0.2160019334 0.1005397067 0.2066247784
-0.2684615142 0.0925865603 0.1643009072
-0.2931273592 0.0408302711 0.0792044795
-0.2879672743 0.0132061758 0.1277486023
-0.2578116836 0.0391753117 0.1855660441
-0.2947500447 0.0132961092 0.0754098626
-0.2491870884 -0.0358344202 0.1935580505
-0.1788317524 -0.1403856840 0.2146947094
-0.2844297993 -0.0211530255 0.1436280638
-0.2888147531 -0.0638500517 0.1111585585
-0.2683556105 -0.0253207565 0.1700174406
-0.2478886253 -0.1396179907 0.1822199367
-0.2945191846 -0.0217425646 0.0794652846
-0.2092041657 -0.1082669668 0.2074475738
-0.2374903752 -0.0501020364 0.1947723206
-0.1223254526 -0.0853254650 0.1977394294
-0.1931771879 -0.1059588986 0.2107827329
-0.2267476535 0.0896266435 0.2016165063
-0.1266337005 0.0760960449 0.1634582327
-0.1257180431 -0.0237738223 0.1432188621
-0.1112624550 -0.0049880751 0.1353541887
-0.1727397310 0.0279331213 0.1655161771
-0.1934900041 -0.0279601284 0.1775192348
-0.1759909267 -0.0074100442 0.1681743767
-0.1811374509 -0.0645296255 0.1769133774
-0.1283275133 0.0677302624 0.1474142923
-0.1286900940 0.0536947692 0.1431976853
-0.1239014113 -0.0772870607 0.1815318887
-0.2657467176 -0.1307860106 0.0091664749
-0.2637587039 -0.1321447548 0.1022913347
-0.2628019281 -0.1359688904 0.1201614568
-0.2831588902 -0.0407583006 0.0048606557
-0.2703653260 -0.1313767844 0.0142373710
-0.2765682324 -0.1280591915 0.0380972932
-0.2736178824 0.1188204517 0.1342718445
-0.2682998070 0.1288292607 0.0761569695
-0.2614093817 0.1386519091 0.1181881120
-0.2664538478 0.1320441077 0.0691187383
-0.2749940331 0.1252673585 0.0373504432
-0.2260692223 0.1737076800 0.1886569896
-0.2155283276 0.1506988394 0.0829956237
-0.1766439220 0.1747996587 0.0180453286
-0.1360617877 0.2016218894 0.0477596259
-0.1531472957 0.1978545409 0.1038536320
-0.1645881454 0.1853013150 0.0898464649
-0.1819177068 0.1715896380 0.0782161359
-0.1901585415 0.1805396770 0.0762962748
-0.1526076659 0.2193977564 0.0759806469
-0.2043515599 0.1690574049 0.0668218135
-0.1975725033 0.1765647642 0.0760794149
-0.1734700190 0.2006672484 0.0950397781
-0.1414344269 0.2415258827 0.0194630705
-0.1109570158 0.2169671748 0.1248288383
-0.2427986256 0.1280376947 0.0164689658
-0.1799781770 0.1473952890 -0.0176945878
-0.2502023698 0.1362526178 0.0832389984
-0.0995634960 0.2302962291 0.0895265938
-0.1482159337 0.1737764944 0.1428005396
-0.2070080558 0.1746617143 0.0158871709
-0.1447187836 0.2348544361 0.0714082072
-0.1406948372 0.2474473726 0.0977406902
-0.2508539526 0.1282162461 0.1047806890
-0.1275420610 0.2031257620 0.0539650189
-0.1721600933 0.1470950117 0.0002730839
-0.1420144795 0.2301596775 -0.0034936931
-0.1299375406 0.2453478269 0.1191755673
-0.1413896391 0.1776642901 0.1436010993
-0.1416289989 0.1797985128 0.1498599348
-0.1957240160 0.1614088565 0.1718112291
-0.2110353189 0.1657164228 0.1203025437
-0.2380403328 0.1469770809 0.0526547968
-0.2264924261 0.0999348593 0.0462393557
-0.2355282471 0.1484010336 0.0105371198
-0.1872007901 0.1464194405 0.0983937009
-0.1837263682 0.1494005088 0.0978689669
-0.1842112280 0.1500342550 0.1022796832
-0.1420044460 -0.2113339712 0.0638761373
-0.1638643776 -0.1694184623 0.0224702821
-0.1896109726 -0.1480769112 0.0769131263
-0.1745661941 -0.1978087605 0.1129528097
-0.1772585238 -0.1734664360 0.0809140684
-0.1765534978 -0.1845527986 0.0944959979
-0.1773899552 -0.1967473181 0.1050198627
-0.1983776676 -0.1399574281 0.0602565936
-0.1661204546 -0.2053271422 0.0254604712
-0.1627794864 -0.2116372002 0.0481961561
-0.2028544756 -0.1765047463 0.0112075172
-0.2339452396 -0.1454668303 0.0028981997
-0.1699402138 -0.2112803126 0.1605584406
-0.2232219144 -0.1075552155 0.0232661085
-0.1956222186 -0.1265364137 0.0180083436
-0.1283521143 -0.2487417795 0.1161182069
-0.2154039364 -0.1719453527 0.1366924653
-0.1567036678 -0.1802211159 0.1712978792
-0.1737871565 -0.2117357762 0.0035544480
-0.2151878939 -0.1043050459 0.0761665221
-0.1956665117 -0.1794565601 0.1293614031
-0.0990631171 -0.2385308331 0.0726323067
-0.1735993344 -0.1495143276 0.0047408967
-0.2371964772 -0.1488582014 0.0298566211
-0.1951986517 -0.1264058668 0.0007021577
-0.2033001673 -0.1232556458 0.0978136022
-0.2148889607 -0.1344437894 0.1560235199
-0.1503480543 -0.1714242068 0.1421676772
-0.1362238454 -0.1947720357 0.1600308927
-0.1243201667 -0.2010846035 0.1232625965
-0.1471623250 -0.2390954897 0.0202959807
-0.1151228126 -0.2062660458 0.0341260867
-0.1323682634 -0.2130936430 -0.0121708675
-0.1450132992 -0.1874278484 0.0517665030
-0.1786309584 -0.1534589191 0.1109068666
-0.1533341741 -0.1795644816 0.1153941896
0.2158679586 -0.1447623069 0.0596391425
0.1751636982 -0.1586275851 0.0156902617
0.1347574254 -0.2006002432 0.1016503885
0.1945935979 -0.1602586430 0.1096679335
0.1749958533 -0.1780549185 0.0494504287
0.1715477703 -0.1880431856 0.0567979517
0.1786621780 -0.1830915529 0.0884977120
0.1626447135 -0.2046859591 0.0775313387
0.1990568109 -0.1738865863 0.0193621716
0.1845319286 -0.1894131819 0.1269955786
0.2187387441 -0.1577347112 0.1112360486
0.1702341976 -0.2064006556 -0.0205101938
0.2268676491 -0.1605558333 0.1383855289
0.1812946414 -0.1986246117 0.1628619463
0.1368976490 -0.1869391133 0.0080663073
0.2382670558 -0.1120681533 0.1235602509
0.1793901172 -0.2083063037 0.1412882097
0.1765748499 -0.1492263436 0.1367518463
0.2111535524 -0.1733503709 -0.0011185608
0.1023250123 -0.2219745092 0.0634216504
0.1220028394 -0.2558312014 0.0649580636
0.2394971799 -0.1000215613 0.0949894848
0.1474495806 -0.1744984251 0.0028791041
0.1451926083 -0.2384265939 0.0193886944
0.1209320221 -0.1989285977 0.0123089654
0.1186141611 -0.2058974751 0.0982746999
0.1233196865 -0.2135522008 0.1471014184
0.1598736236 -0.1771312322 0.1698470167
0.2143704072 -0.1380387513 0.1576248177
0.2333452106 -0.1271128242 0.1387893390
0.2355958907 -0.1467549539 0.0577564496
0.1982983946 -0.1217190668 0.0307903446
0.2154517056 -0.1398766251 -0.0147504699
0.1857123237 -0.1466151925 0.0549918855
0.1615658701 -0.1722379214 0.1198241453
0.1365962669 -0.1986518855 0.0521575519
0.1445629383 0.2089037077 0.0857938746
0.1816386907 0.1849368182 0.0244693433
0.1979126353 0.1383142419 0.0889633878
0.1691761658 0.1750722298 0.1172753967
0.1638615880 0.1839658730 0.0851823708
0.1882792601 0.1678633671 0.0808329476
0.1908487116 0.1734493229 0.0836783492
0.2057706559 0.1662099827 0.0275339319
0.1542967577 0.2197508121 0.0955341242
0.2077882693 0.1663523783 0.0474855262
0.2000699818 0.1790140961 0.0094511631
0.2251236841 0.1523748268 -0.0094140574
0.1612424079 0.2233372297 0.1465193163
0.2439938341 0.1297278936 0.0199811084
0.1876903986 0.1388852480 0.0156862757
0.1433855669 0.2408341018 0.1246043335
0.2377279889 0.1500150789 0.1163646210
0.1511916738 0.1838313855 0.1679680059
0.1650295291 0.2177251987 -0.0064280655
0.2433218244 0.1020397661 0.0565614957
0.2554455785 0.1269779452 0.0795078345
0.1255193341 0.2536829834 0.0891619455
0.1720482614 0.1862340443 -0.0286982402
0.1534680880 0.1661143067 -0.0037705596
0.2091745016 0.1109065486 0.0262243010
0.2074842491 0.1222711643 0.0762565733
0.2188613240 0.1324512410 0.1529293483
0.1491892052 0.1709900099 0.1440769552
0.1364676350 0.1860530043 0.1478504596
0.1325705371 0.1906171379 0.1316649240
0.1488638674 0.2374060359 0.0213243951
0.1090570651 0.2122173292 0.0494689614
0.1340558468 0.2117467683 -0.0138079908
0.1487955851 0.1842065271 0.0919114259
0.1850150290 0.1458738288 0.1178708973
0.1529715367 0.1799959720 0.1220940619
-0.2348534693 -0.1789192150 0.0682625777
-0.2176310222 -0.1960901665 0.0921898377
-0.2128674187 -0.1967631451 0.1548674393
-0.2732981211 -0.1333059134 0.0960941843
-0.2438433224 -0.1656193573 0.0123732368
-0.2608969002 -0.1481758468 0.0517556069
-0.1759598748 -0.2329529361 0.0020543149
-0.1646830355 -0.2479248011 0.0736551782
-0.1579415303 -0.2540798870 0.0709520909
-0.1693106275 -0.2423056342 0.1128354333
-0.1566758775 -0.2513323120 0.1400113002
-0.1300714908 -0.2717296027 0.0488839578
-0.1374105548 -0.2626366674 0.1100026373
-0.2726569736 -0.1298547274 0.0426880662
-0.1850466252 -0.2227938503 0.0335758947
-0.1758732013 -0.2270635675 0.1513785972
-0.1463877255 -0.2577692846 0.0616275910
-0.1842014080 -0.2236924367 0.0941724840
-0.1933147713 -0.2151013858 0.0946477078
-0.2121873885 -0.1925676350 0.1381611826
-0.2471254569 -0.1594537171 0.0893203934
-0.2545358787 -0.1507382654 0.0849365954
-0.2109358587 -0.1970703142 0.0356109572
0.2053579256 -0.2084325704 0.0717801701
0.1819720977 -0.2315752912 0.0793667227
0.1953700101 -0.2166262448 0.0139508709
0.1478047307 -0.2604791213 0.1127917415
0.1695523124 -0.2425830147 0.0515851333
0.1496475319 -0.2570075441 0.1348730676
0.1654763468 -0.2467802741 0.0635608664
0.2380509034 -0.1722950374 0.0268007928
0.2471043414 -0.1641052993 0.0567484434
0.2571800122 -0.1502900979 0.1276306920
0.2688611959 -0.1390181910 0.0505262275
0.1483172047 -0.2523671453 0.1337916789
0.2409571923 -0.1605747955 0.0060875276
0.2618310726 -0.1383443018 0.1117015186
0.2402660146 -0.1654954882 0.1029319576
0.2394962952 -0.1625541013 0.1454334811
0.2396896745 -0.1669039909 0.0612710618
0.1871289820 -0.2211640410 0.0959135576
0.1921012623 -0.2118116584 0.1441089272
0.1837981120 -0.2207917663 0.1347845207
0.1589004116 -0.2467233839 0.0524353751
0.1655329894 -0.2401900195 0.0204566516
0.2096515183 0.2042493553 0.0943128654
0.2183696444 0.1885921396 0.1664019655
0.2385597485 0.1729991967 0.0616094218
0.2058289102 0.2065148915 0.0112131719
0.2508739873 0.1588972481 0.0971861665
0.2418532950 0.1689917319 0.0367721553
0.2554375964 0.1516315823 0.1366741029
0.1701291425 0.2386907097 0.0078734421
0.1544994561 0.2541887804 0.0292737537
0.1683752697 0.2420678086 0.0402029852
0.1346690839 0.2717976683 0.1035069115
0.1955707553 0.2155594910 0.0000001264
0.1283353340 0.2707346629 0.0673340226
0.2592200150 0.1460672744 0.0036974992
0.1406880580 0.2612434268 0.1117799874
0.1528098896 0.2480101333 0.1464134210
0.1734607015 0.2335098430 0.0820645312
0.2026352158 0.2056447375 0.1028560837
0.1855639947 0.2162935032 0.1589599628
0.1964473865 0.2111008014 0.1204923784
0.2422386312 0.1649371741 0.0936103728
0.2576506936 0.1457362710 0.0519682221
0.2254431058 0.1817514602 0.0296441245
