0.0390318025 -0.0139301399 0.0017151874
0.0419078964 -0.0117447245 0.0027656865
-0.0430544877 -0.0115131615 -0.0001781532
-0.0272324542 -0.0115131615 -0.0348381115
0.0410613241 -0.0116437025 0.0148293546
-0.0211477126 -0.0115131615 0.0379100657
-0.0339831107 -0.0118684759 -0.0205143395
-0.0427467579 -0.0282606621 -0.0087869068
-0.0222997391 -0.0283417937 -0.0343934281
-0.0098513473 -0.0284185093 -0.0430858473
0.0409157351 -0.0284657473 0.0172579856
0.0278127582 -0.0284420829 0.0346614610
-0.0130863512 -0.0282877760 0.0412794347
0.0409920859 -0.0252659420 0.0128611299
0.0420320622 -0.0254299599 0.0095412490
0.0203456025 -0.0216537152 -0.0327653315
0.0338308978 -0.0215161781 -0.0264396695
0.0281244538 -0.0189306821 -0.0323597151
0.0343157161 -0.0195511112 -0.0181857109
0.0421152358 -0.0126935178 -0.0079653977
-0.0342274282 -0.0245305960 -0.0180856906
-0.0271394775 -0.0280191497 -0.0331783991
-0.0309228996 -0.0173053382 -0.0298128262
-0.0384948706 -0.0215806160 0.0010097470
-0.0405440770 -0.0154727474 -0.0141856635
-0.0424788631 -0.0248482732 -0.0065122117
-0.0363024544 -0.0278282398 0.0179332062
-0.0400068030 -0.0281384077 0.0156951843
-0.0184429042 -0.0191547138 0.0339333103
-0.0324707697 -0.0239308472 0.0281587497
-0.0277357164 -0.0186074319 0.0329053136
-0.0026205995 -0.0210170560 0.0401277991
-0.0130543129 -0.0122634338 0.0408814801
0.0216467331 -0.0138755866 0.0329282197
0.0177241817 -0.0251346430 0.0377073403
0.0083582553 -0.0129035322 0.0420562882
0.0347094407 -0.0157866887 0.0178748092
0.0260557562 -0.0269684331 0.0340978827
0.0317927726 -0.0120882353 0.0289345336
-0.0178292925 -0.0254917403 -0.0366288635
-0.0007101158 -0.0269298172 -0.0429848948
0.0401670526 0.0334309681 0.0210168064
-0.0449916124 0.0334484665 -0.0062681265
0.0411245255 0.0006192615 -0.0752161089
0.0289611299 -0.0243681266 -0.0730484433
0.0354984902 -0.0204552013 -0.0750443030
0.0205714920 -0.0351451902 -0.0750510137
0.0055944579 -0.0337937585 -0.0687412181
0.0153875029 -0.0268996203 -0.0620275913
0.0017312869 -0.0314912122 -0.0627337645
0.0269303353 -0.0130947320 -0.0556183343
0.0317814332 0.0003997225 -0.0649383154
0.0194935646 -0.0241995445 -0.0628672260
0.0104987982 -0.0358523999 -0.0726016007
0.0241005275 -0.0207887700 -0.0640370604
-0.0365312237 0.0011014613 -0.0723716195
-0.0388054910 -0.0128819236 -0.0751610861
-0.0193492833 -0.0351145869 -0.0745729831
-0.0183504189 -0.0252651742 -0.0629388733
-0.0076987304 -0.0297043221 -0.0607805790
-0.0285787516 -0.0229831872 -0.0718875574
-0.0283573210 -0.0149447888 -0.0650184563
-0.0272401575 -0.0170747324 -0.0655233113
-0.0309028714 -0.0133591461 -0.0682541495
-0.0322069289 -0.0056542685 -0.0666993881
-0.0034219256 -0.0347312483 -0.0698207666
0.0186147322 0.0325623478 -0.0728751072
0.0342920144 0.0213511499 -0.0747954648
0.0030222799 0.0407325607 -0.0749662256
0.0010343142 0.0305403811 -0.0563929871
0.0131927559 0.0271557445 -0.0561475921
0.0241868552 0.0272930727 -0.0717667934
0.0284715807 0.0085133142 -0.0552725574
0.0272695011 0.0157871357 -0.0632544285
0.0306319682 0.0141561852 -0.0681501021
0.0319449492 0.0261759736 -0.0752229905
0.0098406059 0.0355741878 -0.0720632065
0.0223066951 0.0237601446 -0.0659816112
-0.0380994795 0.0084083955 -0.0739559617
-0.0260674377 0.0225866793 -0.0695849147
-0.0054099405 0.0337603801 -0.0685088846
-0.0246264834 0.0283124378 -0.0726564467
-0.0079545348 0.0322144756 -0.0669244484
-0.0269403156 0.0149630627 -0.0610629306
-0.0289216268 0.0118191253 -0.0624413853
-0.0245846464 0.0193885997 -0.0626210450
0.0013220795 0.0379504600 -0.0726065171
-0.0234937148 0.0296839939 -0.0729768640
0.0010149101 0.0309901601 -0.0619095118
0.0027922121 -0.0316329977 -0.0512191815
0.0072167081 -0.0296921997 -0.0578901347
0.0292369850 -0.0086671103 -0.0589269581
0.0239473616 -0.0171691556 -0.0521800691
0.0014658335 0.0315116073 -0.0510016097
0.0293934283 0.0032810845 -0.0535118687
0.0274075077 0.0106849947 -0.0518313209
-0.0102101986 -0.0308048658 -0.0489405442
-0.0195515119 -0.0226935720 -0.0522981721
-0.0294490605 -0.0042637004 -0.0552353734
-0.0274447333 -0.0113709340 -0.0550830116
-0.0043919708 0.0316187570 -0.0500521741
-0.0043957938 0.0302483455 -0.0555538488
-0.0286832648 0.0061564645 -0.0514154784
-0.0237320603 0.0180573243 -0.0547631973
-0.0300813382 0.0297450398 0.0378255314
-0.0332047954 0.0174569726 -0.0366315049
-0.0404453095 0.0248803777 -0.0276829900
-0.0482575540 0.0215028220 -0.0095338750
-0.0497176647 0.0092188331 -0.0000270032
-0.0487334862 0.0138434395 0.0091471477
-0.0471411053 0.0212575005 0.0146531111
-0.0390788493 0.0193264771 0.0301814642
-0.0355408266 0.0163518125 0.0345293447
-0.0243411832 0.0200388853 0.0428641526
-0.0065892717 0.0215075975 0.0487466678
-0.0380221435 0.0156109537 -0.0318539478
-0.0385994636 0.0168508955 -0.0310356965
-0.0393199772 0.0008499768 -0.0304826388
-0.0445904783 0.0108145896 -0.0218680755
-0.0442917752 0.0019533016 -0.0226428248
-0.0473337635 0.0120443401 -0.0150152290
-0.0464287426 0.0292819558 -0.0134227093
-0.0486582934 0.0056356798 -0.0101523522
-0.0487673726 0.0254296135 -0.0041726351
-0.0496571016 0.0070840573 -0.0027893215
-0.0491363471 0.0189433439 0.0051538119
-0.0459973961 0.0192149449 0.0180023023
-0.0449383437 0.0091386516 0.0211865850
-0.0417418124 0.0217161150 0.0262323615
-0.0421153417 0.0034552039 0.0264674735
-0.0390775169 -0.0020791113 0.0308821361
-0.0364229406 -0.0012744553 0.0340066779
-0.0295902495 -0.0040162362 0.0401045357
-0.0262178307 0.0176301502 0.0419674048
-0.0228635367 0.0018501673 0.0442047776
-0.0179397819 0.0210425274 0.0458668163
-0.0167242226 0.0096236442 0.0467862131
-0.0091675351 0.0201534289 0.0484570506
-0.0071432328 -0.0004216761 0.0492724939
-0.0037561003 0.0215348590 0.0490683814
-0.0289548109 0.0008353438 -0.0449681511
-0.0299642703 0.0140730611 -0.0399319092
-0.0264331142 0.0139255929 -0.0461236957
-0.0303502173 0.0074268541 -0.0404394400
-0.0440859680 0.0287468353 0.0203796010
-0.0416943075 0.0322367295 -0.0230843445
-0.0455774700 0.0329897766 -0.0108869763
-0.0102036155 0.0334035232 0.0444123855
-0.0103978984 0.0320243420 -0.0475939485
-0.0259777662 -0.0285438526 -0.0410113050
-0.0255343663 -0.0288990619 0.0411581158
-0.0477054998 -0.0291160682 -0.0078211565
-0.0348609874 -0.0290267600 -0.0336431197
-0.0226076841 -0.0273749248 0.0430857151
-0.0371474862 -0.0288250632 0.0312112603
-0.0454600144 -0.0268795993 0.0175514531
-0.0486395082 -0.0265008551 -0.0044617313
-0.0418774394 -0.0238510259 -0.0256189346
-0.0126615925 -0.0170421238 0.0478698788
-0.0307141767 -0.0227072303 0.0384082935
-0.0491632749 -0.0216659766 0.0023952279
-0.0455753969 -0.0204843810 -0.0187989951
-0.0336543086 -0.0217435830 -0.0359095500
-0.0085185252 -0.0116535956 0.0489194549
-0.0197674777 -0.0193741549 0.0452519795
-0.0269641223 -0.0158551616 0.0415846212
-0.0368014128 -0.0110920240 0.0333319991
-0.0410640682 -0.0068379312 0.0281149848
-0.0450508447 -0.0145610925 0.0205762229
-0.0483501812 -0.0210425590 0.0099650987
-0.0494505251 -0.0161736133 -0.0026424750
-0.0474556992 -0.0061398044 -0.0150508850
-0.0424894607 -0.0131647944 -0.0256000074
-0.0023440668 -0.0038690098 0.0497493058
-0.0138593498 -0.0059761718 0.0478231635
-0.0349233875 -0.0075265732 0.0354251420
-0.0476696973 -0.0015476705 0.0143277200
-0.0496832891 -0.0084630146 0.0020419340
-0.0490505161 -0.0055321512 -0.0085427402
-0.0408063919 -0.0093397592 -0.0284560839
-0.0345657928 -0.0076072210 -0.0357927827
-0.0297982624 -0.0140370491 -0.0401982605
-0.0190328774 -0.0241337769 -0.0501733109
-0.0222059777 -0.0220362027 -0.0473166375
-0.0281227546 -0.0328946095 -0.0373646886
-0.0330120648 -0.0318051446 -0.0342930119
-0.0431455156 -0.0332034494 -0.0141693949
-0.0453728998 -0.0333286600 0.0074512568
-0.0247252993 -0.0330986378 0.0393080912
-0.0226698506 -0.0332502670 -0.0402468395
0.0283443844 0.0306425608 0.0388288935
0.0341030878 0.0312331211 -0.0337940317
0.0071033128 0.0218279269 0.0486553353
0.0163504704 0.0164372872 0.0467801158
0.0300997148 0.0166132381 0.0393590291
0.0373998028 0.0186920567 0.0323264669
0.0412239200 0.0098487919 0.0277606015
0.0467583293 0.0271195717 0.0136156255
0.0492656071 0.0186730592 0.0032977398
0.0485882810 0.0192495172 -0.0086232498
0.0454974695 0.0179073958 -0.0193418814
0.0035042493 0.0156957737 0.0494595931
0.0014827915 -0.0037131265 0.0497819737
0.0099691679 -0.0003935765 0.0487796297
0.0130128598 0.0024137507 0.0480774066
0.0195915143 0.0001459553 0.0457268994
0.0206598259 0.0150826483 0.0451133173
0.0247413782 0.0112569458 0.0430688529
0.0266150432 0.0219136509 0.0413449968
0.0303965295 -0.0027559390 0.0394551913
0.0346444223 0.0215767734 0.0350686511
0.0404034725 0.0090688492 0.0289755925
0.0438273048 0.0072159959 0.0235001964
0.0455418612 0.0009205655 0.0199294095
0.0475798461 -0.0038173044 0.0147631229
0.0489333545 -0.0021107835 0.0091260308
0.0486120933 0.0233577675 0.0068126613
0.0496097552 -0.0039586772 0.0040909675
0.0494174468 0.0151051889 -0.0035518212
0.0488349005 0.0076031488 -0.0094174191
0.0467188206 0.0189478716 -0.0160652194
0.0462128764 0.0123069914 -0.0181806230
0.0435179623 0.0220844297 -0.0228627344
0.0443403919 -0.0044135307 -0.0224768978
0.0390022694 0.0010858462 -0.0310103525
0.0384215273 0.0240960938 -0.0305117474
0.0355738977 0.0208573578 -0.0340528075
0.0360122543 0.0089238279 -0.0342700905
0.0286177166 0.0182071587 -0.0406073594
0.0204445259 0.0246628108 -0.0471467824
0.0310952679 0.0046962773 -0.0396181162
0.0412745610 0.0301007758 -0.0247288633
0.0098112352 0.0304569122 0.0471447856
0.0306987768 0.0326000558 0.0362743133
0.0361515812 0.0330743512 -0.0294950447
0.0201943627 0.0332617011 -0.0410087482
0.0466697047 -0.0277008050 -0.0137767390
0.0393213021 -0.0293343868 0.0282911502
0.0073908007 -0.0233028746 0.0485791885
0.0207678508 -0.0284176687 0.0437469090
0.0347994505 -0.0262723552 0.0343093615
0.0464223519 -0.0267118921 0.0145889045
0.0488549093 -0.0254865503 0.0024103158
0.0395652649 -0.0297854567 -0.0278896780
0.0044754023 -0.0161175146 0.0493807647
0.0381565767 -0.0175714121 0.0315052370
0.0493478830 -0.0189560582 -0.0021264204
0.0481468133 -0.0260818643 -0.0086072188
0.0425796322 -0.0259207736 -0.0241651614
0.0076975483 -0.0184275972 0.0488462335
0.0154045272 -0.0064093033 0.0473252816
0.0215409584 -0.0082355568 0.0448539575
0.0277850247 -0.0058389985 0.0413053556
0.0358950596 -0.0116841202 0.0343124988
0.0456868779 -0.0145101427 0.0192204225
0.0478549331 -0.0110776183 0.0131727426
0.0489659825 -0.0152524087 0.0073515678
0.0495758593 -0.0149422606 -0.0024178698
0.0415210974 -0.0164132667 -0.0269686433
0.0374381953 -0.0151754704 -0.0324067359
0.0328282672 -0.0019004075 0.0374220310
0.0397812610 -0.0068288878 0.0298323845
0.0418255807 -0.0079394948 0.0269120051
0.0493771161 -0.0109247914 -0.0054778413
0.0481770935 -0.0088459688 -0.0123980631
0.0343020423 -0.0004866941 -0.0362119530
0.0255980446 -0.0252807578 -0.0420074589
0.0340410745 -0.0147970453 -0.0361336369
0.0277545897 -0.0109390830 -0.0447538876
0.0236521743 -0.0245596225 -0.0438462676
0.0102681587 -0.0319770726 0.0465252414
0.0461229494 -0.0324148584 0.0120687776
0.0296637139 -0.0307930986 0.0379087870
0.0476740896 -0.0306218438 0.0058183996
0.0390104552 -0.0299215355 -0.0285507046
0.0219464562 -0.0326655165 -0.0420502259
0.0400284158 -0.0103860867 -0.0758710482
-0.0138142274 0.0388700213 -0.0754391540
-0.0138750165 -0.0388263663 -0.0754259829
-0.0291561859 -0.0282913872 -0.0769999996
-0.0342947755 0.0203826498 -0.0769420687
0.0197295035 0.0340188142 -0.0768953041
0.0393875557 -0.0079625441 -0.0768460218
0.0384117688 -0.0059604128 -0.0855079947
0.0324091601 0.0214871095 -0.0861578366
0.0026473715 0.0389046874 -0.0784840061
-0.0208000212 0.0329471744 -0.0849740853
-0.0388802639 -0.0022670211 -0.0846949763
-0.0212623703 -0.0322602708 -0.0777199173
0.0027543029 -0.0388720605 -0.0841588017
0.0340144777 -0.0187873925 -0.0785862416
0.0144859554 -0.0361266608 -0.0790909649
0.0264837394 -0.0285707529 -0.0774553986
0.0382015794 -0.0073702456 -0.0804109480
0.0379033312 0.0087971925 -0.0813805675
0.0236316896 0.0309294458 -0.0816430066
0.0108913315 0.0373414321 -0.0785430020
-0.0108450356 0.0373553605 -0.0813556957
-0.0268349303 0.0282000513 -0.0797121083
-0.0382506055 0.0074688475 -0.0862796006
-0.0381614989 -0.0076208646 -0.0827593105
-0.0258869461 -0.0291542011 -0.0826897014
-0.0144912570 -0.0361383095 -0.0803187228
0.0003404406 -0.0358640290 -0.0875000134
-0.0305056488 -0.0212234609 -0.0874144415
-0.0346803653 0.0133910010 -0.0874169484
-0.0055556297 0.0360991536 -0.0875000134
0.0264773487 0.0235613990 -0.0875000134
0.0362007032 -0.0062717176 -0.0873853541
0.0176485315 -0.0298778127 -0.0873507793
0.0161766244 -0.0286873206 -0.0415052572
-0.0067974457 -0.0303796915 -0.0442448932
-0.0333722006 -0.0296170122 -0.0299641965
-0.0422493178 -0.0316410489 -0.0154421653
-0.0430859961 -0.0317014899 0.0125386839
-0.0335966635 -0.0324325743 0.0298484843
-0.0157956082 -0.0328138274 0.0419545118
0.0092237434 -0.0310863067 0.0439440191
0.0262546860 -0.0311176906 0.0364610914
0.0311596229 -0.0330838132 0.0326004197
0.0448551026 -0.0295622786 -0.0009941684
0.0315693354 -0.0329214414 -0.0319216442
0.0163387046 0.0210417746 -0.0506901994
0.0228111418 0.0133354084 -0.0501981391
0.0238039629 0.0113964394 -0.0492437841
0.0113864307 0.0245953205 -0.0513642169
0.0045062612 0.0270349317 -0.0558006165
0.0040864957 0.0293987837 -0.0745987318
0.0267519180 0.0099861577 -0.0699837064
0.0201966144 0.0204461271 -0.0696501699
0.0138070222 0.0254916060 -0.0704352234
0.0084131753 0.0257427491 -0.0521887402
0.0259480976 0.0069710678 -0.0567694784
0.0219540019 0.0162721228 -0.0591271369
0.0177988988 0.0209825690 -0.0591357230
0.0021061233 0.0296320249 -0.0741916097
-0.0078535704 0.0282148787 -0.0725716104
-0.0290324361 0.0014917436 -0.0723471133
-0.0191793043 0.0183615950 -0.0474963361
-0.0135670566 0.0226717303 -0.0437446209
-0.0253361387 0.0058020123 -0.0428691302
-0.0231050632 0.0126183992 -0.0456768858
-0.0269611836 0.0045291498 -0.0628038109
-0.0192721028 0.0209418781 -0.0677280265
-0.0247744083 0.0107027737 -0.0578183105
-0.0218339536 0.0170184570 -0.0628902197
-0.0149470373 0.0254468238 -0.0737648831
-0.0069734183 0.0275315770 -0.0653541456
-0.0067086022 0.0337162461 -0.0769994278
-0.0241428597 -0.0241035595 -0.0769804679
-0.0165916604 -0.0273588219 -0.0769561156
-0.0346058078 0.0025713262 -0.0769999996
0.0262168413 0.0013460328 -0.0501060803
0.0286328267 -0.0056545528 -0.0736669574
0.0228575746 -0.0130207905 -0.0428129446
0.0053341882 -0.0265835504 -0.0532167955
0.0263075197 -0.0035861567 -0.0556889465
0.0236637780 -0.0115038055 -0.0461564245
0.0214182547 -0.0153879417 -0.0492834140
0.0094245573 -0.0255049661 -0.0544769897
0.0266994173 -0.0060452207 -0.0624609052
0.0260909584 -0.0094700611 -0.0657912556
0.0158680486 -0.0240383703 -0.0692923426
0.0238017468 -0.0123877257 -0.0551205427
0.0141675095 -0.0237651527 -0.0607855216
0.0054132876 -0.0284058371 -0.0684212865
-0.0286989633 -0.0043824357 -0.0723900321
-0.0224450315 -0.0185550403 -0.0725856485
-0.0205799065 -0.0163809783 -0.0385273346
-0.0255208437 -0.0040458114 -0.0407032494
-0.0101285462 -0.0253488179 -0.0529555633
-0.0248725661 -0.0086775359 -0.0510766603
0.0012972796 -0.0292216081 -0.0713241780
-0.0080736158 -0.0278865877 -0.0699307655
-0.0046496242 -0.0283013662 -0.0674293172
-0.0264605221 -0.0063904117 -0.0618736455
-0.0190859797 -0.0206463785 -0.0652751556
-0.0177169451 -0.0219714826 -0.0651450730
-0.0127213664 -0.0254343316 -0.0658591814
-0.0222548301 -0.0143357460 -0.0510193500
0.0349402332 0.0022486509 -0.0865902200
0.0175437909 0.0300735826 -0.0785423811
-0.0344438697 -0.0063102807 -0.0869278734
0.0029235635 -0.0348351714 -0.0870544371
-0.0050394516 -0.0346199068 -0.0791747615
-0.0138043725 -0.0321309783 -0.0818717309
-0.0231208668 -0.0261781403 -0.0858479369
-0.0333571874 -0.0100796254 -0.0813921610
-0.0346766961 0.0044902408 -0.0804993194
-0.0297861255 0.0179690871 -0.0780722544
-0.0249339483 0.0244368711 -0.0868741474
-0.0086451740 0.0339295820 -0.0799122922
0.0008139140 0.0349731521 -0.0834189154
0.0106153691 0.0332484549 -0.0819749024
0.0267377104 0.0223831030 -0.0833790368
0.0322758198 0.0133757687 -0.0817054274
0.0349142347 0.0024486823 -0.0837255474
0.0295977599 -0.0186313298 -0.0819490162
0.0214999845 -0.0276431312 -0.0868953342
0.0128566067 -0.0324433469 -0.0817377892
-0.0034939168 0.0306731051 -0.0767047043
-0.0022643097 0.0297506355 -0.0754761874
0.0020937123 -0.0325746749 -0.0768215198
-0.0185058504 -0.0242398877 -0.0764312893
0.0164852165 0.0252642305 -0.0764100783
0.0308583307 -0.0024504610 -0.0767374690
0.0111604760 -0.0320480014 -0.0769353567
0.0211420313 -0.0194958686 -0.0693750171
0.0252675279 0.0163317157 -0.0371681571
0.0257499519 0.0278561367 -0.0367794813
0.0179142363 0.0291331178 -0.0412543521
0.0006470541 0.0322395049 -0.0449626991
-0.0101640449 0.0289437859 -0.0437996472
-0.0203527898 0.0210374422 -0.0400794782
-0.0269756313 0.0207592666 -0.0359897629
-0.0238502037 0.0270995531 -0.0381029024
-0.0301743416 0.0070138473 -0.0332487633
-0.0279297584 -0.0047051604 -0.0352788700
-0.0317379406 0.0012196199 -0.0318345708
-0.0324559076 0.0263284186 -0.0311549105
-0.0357686353 0.0188972383 -0.0272366020
-0.0376720355 0.0051951390 -0.0244312792
-0.0392058051 0.0230171693 -0.0220286699
-0.0380445161 0.0226120875 -0.0238477982
-0.0402205706 0.0127387583 -0.0199931052
-0.0416744094 0.0328731693 -0.0168601570
-0.0424753771 -0.0058871993 -0.0146187153
-0.0437364017 -0.0032069408 -0.0105535736
-0.0429722019 0.0298490021 -0.0130171106
-0.0439961833 -0.0054264111 -0.0091155472
-0.0445934423 0.0105017755 -0.0055747408
-0.0447917804 0.0219854146 -0.0039725854
-0.0449173838 0.0195644103 -0.0002157762
-0.0448940456 0.0111494085 -0.0009138233
-0.0446092880 -0.0029143705 0.0051376639
-0.0444781276 0.0154534681 0.0064414340
-0.0435084987 -0.0049463823 0.0111130961
-0.0431077866 0.0088152899 0.0127945533
-0.0426470040 0.0047857865 0.0141959900
-0.0428812905 0.0309451158 0.0135876800
-0.0412700135 0.0080891622 0.0177712581
-0.0403902226 0.0093997842 0.0197246364
-0.0387207563 0.0257188052 0.0227710277
-0.0348545599 -0.0061501338 0.0283879441
-0.0366378260 0.0171201024 0.0259676647
-0.0348760378 -0.0019423808 0.0283587939
-0.0338570796 0.0147460172 0.0295777762
-0.0308523992 0.0016123505 0.0326845762
-0.0267082610 -0.0012206500 0.0361201383
-0.0257608934 0.0136017607 0.0368682678
-0.0275817287 0.0260631674 0.0354303671
-0.0239363412 -0.0016873937 0.0380068397
-0.0208863239 0.0083532558 0.0398133637
-0.0167637817 0.0033283692 0.0416609078
-0.0186982992 0.0268028025 0.0408405938
-0.0171673710 0.0274118124 0.0414897695
-0.0140988064 -0.0033515289 0.0426915441
-0.0110519564 0.0269203199 0.0435261617
-0.0057027747 -0.0112329179 0.0445367929
-0.0043868420 0.0012695520 0.0447074350
-0.0040164480 0.0144755741 0.0447141187
-0.0025595680 -0.0023932230 0.0449097028
0.0020572515 0.0237605840 0.0449100895
0.0058427290 -0.0107123476 0.0445179708
0.0050549057 0.0272296722 0.0446239231
0.0105446600 0.0123375498 0.0436651244
0.0118542055 0.0044308475 0.0433064032
0.0109860851 0.0276304694 0.0435442057
0.0200674236 -0.0112090689 0.0402600295
0.0192019903 0.0067400235 0.0406270083
0.0219665451 0.0157631996 0.0391735491
0.0221580027 -0.0055518981 0.0390601489
0.0229299385 0.0329781148 0.0386029316
0.0266259238 0.0056282062 0.0361851594
0.0289492634 0.0285976305 0.0343504345
0.0324853592 -0.0108673895 0.0309961172
0.0331842136 0.0309774323 0.0302735109
0.0321649870 0.0183628130 0.0313273778
0.0365564719 -0.0024820549 0.0260780799
0.0365322912 0.0234619308 0.0261108984
0.0387090432 -0.0081849389 0.0227924014
0.0405235942 0.0200379507 0.0194812640
0.0407820584 0.0050097852 0.0190096263
0.0409286441 0.0177435924 0.0186576018
0.0428682160 0.0123034368 0.0136216272
0.0437609059 -0.0107349698 0.0100539518
0.0437853411 0.0184759347 0.0099514176
0.0437132252 0.0284778817 0.0102540282
0.0445102573 -0.0093958862 0.0061220553
0.0447154082 0.0284954151 0.0040828010
0.0449721757 -0.0076888005 0.0014230561
0.0448433494 0.0264576296 -0.0024301516
0.0444720553 0.0125482302 -0.0062943748
0.0444290880 0.0086635108 -0.0065491033
0.0441503821 0.0174341544 -0.0082013908
0.0437546894 -0.0039477505 -0.0104946199
0.0424928769 0.0299581704 -0.0145623015
0.0418496480 0.0075357860 -0.0164825269
0.0417482120 -0.0067891353 -0.0167011162
0.0396607384 0.0229923956 -0.0211995149
0.0383263003 0.0158453480 -0.0234063907
0.0376456559 0.0319028489 -0.0244726022
0.0357028477 0.0164920647 -0.0273144158
0.0333452904 0.0038041314 -0.0301029447
0.0334098063 0.0043514223 -0.0300266350
0.0295029944 -0.0071573555 -0.0338559613
0.0317352554 0.0286097786 -0.0318369994
0.0278107825 0.0247563024 -0.0353741062
-0.0239784737 -0.0122484922 -0.0342161324
-0.0365489654 -0.0239563072 -0.0177211234
-0.0424033217 -0.0142225021 -0.0051608142
-0.0429010310 -0.0202752975 0.0057686662
-0.0339128100 -0.0125739303 0.0235794911
-0.0267077106 -0.0234304155 0.0337164654
-0.0042554058 -0.0155474222 0.0423242945
0.0224511571 -0.0199543904 0.0334916123
0.0378370476 -0.0150144557 0.0177001733
0.0342747020 -0.0227772662 0.0252561655
0.0378774455 -0.0204290294 -0.0177203447
0.0345648959 -0.0134401162 -0.0244101410
0.0400194866 -0.0162150275 -0.0025370879
0.0207017871 -0.0247472990 -0.0364274031
0.0398481028 -0.0233683650 -0.0006491349
0.0202980463 -0.0258917513 0.0364955976
0.0009569978 -0.0244484694 0.0404997026
-0.0361802002 -0.0198420856 0.0196194891
-0.0359969333 -0.0253787387 -0.0212251763
0.0358260066 -0.0005911987 -0.0837413691
0.0311398748 0.0198199056 -0.0803358262
0.0011275407 0.0362411277 -0.0817328598
-0.0207424430 0.0326217433 -0.0844624935
-0.0368000008 -0.0014582765 -0.0834816302
-0.0328771106 -0.0203739308 -0.0850306200
-0.0012556709 -0.0368000008 -0.0814862343
0.0198843383 -0.0315122872 -0.0844403595
0.0080048651 -0.0333396299 0.0455531812
-0.0429787891 -0.0118090493 -0.0078489732
0.0348131383 -0.0282681585 0.0237699014
-0.0290355810 -0.0288287713 -0.0768094891
0.0386680578 0.0006045877 -0.0865647414
-0.0382991968 0.0006874797 -0.0870820702
0.0044751895 0.0473500006 0.0231842804
0.0090960216 0.0443500020 0.0130861588
-0.0004716438 0.0443500020 0.0283839761
-0.0017858178 0.0443500020 0.0138091724
-0.0148703350 0.0443500020 0.0301382491
-0.0121884100 0.0443500020 0.0280623606
0.0134809960 0.0443500020 0.0238211995
-0.0212720515 0.0443500020 0.0199093432
-0.0045479659 0.0443500020 0.0133725534
0.0213120603 -0.0233783371 -0.0227004453
0.0242886417 -0.0243161634 0.0246690275
-0.0092250394 -0.0226213826 0.0329640414
-0.0264869229 -0.0231741567 0.0078504895
-0.0080280827 -0.0243239083 -0.0288252411
-0.0156256129 0.0419111207 0.0111533356
-0.0175559892 0.0347153091 0.0127731136
-0.0262692815 0.0338995906 0.0213492704
-0.0159715847 0.0361841185 0.0299412867
-0.0097739488 0.0387438154 0.0324942718
0.0021614585 0.0402882129 0.0338759613
0.0051336466 0.0394635818 0.0334552427
0.0170697877 0.0409701798 0.0292994355
0.0182862434 0.0412627698 0.0194591106
0.0176844248 0.0337884813 0.0187418912
0.0203868926 0.0380535776 0.0219625667
0.0026028883 0.0438182033 0.0130343882
-0.0062893237 0.0373893694 0.0118054858
0.0011872276 0.0017100353 -0.0349060073
-0.0004675724 0.0104613852 -0.0349060073
0.0342104010 -0.0104683112 -0.0072050801
0.0336820472 0.0062425769 -0.0093940414
0.0261528495 0.0126270986 -0.0232135677
0.0246374045 -0.0169185839 -0.0248436529
0.0221903252 0.0212766539 -0.0270038321
0.0228797591 0.0037592085 0.0264225851
0.0251176262 0.0029160467 0.0243179079
0.0221241220 -0.0265191993 0.0270160480
0.0340424801 0.0259178744 0.0081183913
0.0340800319 0.0281803638 0.0079674113
-0.0017175094 -0.0239160739 0.0349060073
0.0000107108 -0.0135326990 0.0349060073
0.0026241816 -0.0161575444 -0.0348979970
0.0060594436 -0.0188628918 -0.0344457343
0.0067666347 0.0003279685 -0.0343358407
0.0219986804 -0.0195738850 -0.0271698758
0.0192183039 -0.0143418811 -0.0291839639
0.0183548292 0.0286377691 -0.0297641946
0.0161632710 -0.0137664168 -0.0309792403
0.0147425241 0.0181108833 -0.0317125430
0.0126479692 0.0256796650 -0.0325740766
0.0109895884 -0.0216840065 -0.0331816555
0.0073591982 0.0242305006 -0.0341816821
0.0332214471 -0.0008452662 -0.0109761057
0.0324973564 -0.0180277246 -0.0128720884
0.0316322785 0.0161621422 -0.0149002337
0.0313498040 -0.0208488451 -0.0155624216
0.0297437870 0.0164736460 -0.0183780674
0.0279443232 -0.0128327489 -0.0209806867
0.0284497166 0.0163826854 -0.0202926770
0.0265388318 -0.0183653852 -0.0227967488
0.0346191331 0.0022080759 0.0048840752
0.0348264667 -0.0002408770 0.0030095918
0.0349599939 0.0209491236 0.0006938288
0.0349280183 -0.0154654167 -0.0012483816
0.0349587835 0.0309621830 -0.0007148211
0.0347610704 0.0263213171 -0.0040625958
0.0347301319 -0.0200316997 -0.0042391245
0.0289843671 -0.0235288855 0.0195648385
0.0275323835 0.0313153632 0.0215414746
0.0293544599 -0.0103183627 0.0190606302
0.0307977751 0.0055619965 0.0165302307
0.0317588538 -0.0265665237 0.0146034824
0.0314499537 -0.0074262499 0.0153276881
0.0328301164 -0.0211679575 0.0120919440
0.0215032765 0.0107916674 0.0275890788
0.0202859047 -0.0049926606 0.0284665660
0.0185179582 0.0179658452 0.0296545765
0.0165768020 0.0097588987 0.0307658008
0.0156786990 -0.0140274599 0.0312293467
0.0125788092 0.0131279276 0.0326002099
0.0136444167 0.0190629722 0.0321975506
0.0080346217 0.0099277897 0.0340325143
0.0110225032 -0.0235498141 0.0331618317
0.0026735202 0.0036858035 0.0348915014
0.0064539982 0.0018916942 0.0343937900
0.0076115603 -0.0243508383 0.0341562748
-0.0023693658 -0.0160816658 0.0349060073
-0.0246038282 0.0182589798 0.0248727926
-0.0245977741 -0.0187680904 0.0248825322
-0.0228840643 0.0318268559 0.0264069572
-0.0340693970 -0.0071576238 0.0080140011
-0.0331956927 0.0289338880 0.0109705025
-0.0337931665 -0.0255685602 0.0087219091
-0.0335606341 0.0290414017 -0.0097371479
-0.0345083383 0.0126097380 -0.0055234005
-0.0220610214 0.0191138828 -0.0271153162
-0.0241261442 -0.0089198018 -0.0253542117
-0.0247655868 0.0200720329 -0.0246867979
0.0003788375 -0.0118525356 -0.0349060073
-0.0081380326 0.0056128759 0.0339964122
-0.0046997721 0.0288807413 0.0346247392
-0.0039803614 -0.0103630972 0.0347194518
-0.0080129594 -0.0254452937 0.0340493840
-0.0223102452 -0.0090577839 0.0269063040
-0.0204506585 -0.0050415169 0.0283558561
-0.0191362784 0.0272302821 0.0292390827
-0.0177634198 -0.0171767076 0.0301533412
-0.0143115165 0.0218109099 0.0319350028
-0.0133650600 -0.0109943689 0.0323031106
-0.0102465159 -0.0143016919 0.0334606581
-0.0093935381 0.0269676552 0.0336697096
-0.0332244190 -0.0102884473 0.0109671095
-0.0324152649 0.0023544407 0.0130645491
-0.0316199169 -0.0148384769 0.0149292151
-0.0303982518 -0.0117252208 0.0172306692
-0.0298420714 -0.0003653383 0.0182057567
-0.0291813043 0.0042747535 0.0192967411
-0.0272740068 0.0213393578 0.0218932119
-0.0263995481 -0.0105376892 0.0229547855
-0.0345016149 -0.0230163976 -0.0055637756
-0.0349681932 -0.0265269987 -0.0005516285
-0.0348731949 0.0166171748 -0.0021991841
-0.0348964511 -0.0156592328 0.0017958516
-0.0348837445 0.0120117399 0.0020162222
-0.0346665837 -0.0198844667 0.0046017175
-0.0259236191 -0.0156895033 -0.0234937135
-0.0272286869 0.0042430395 -0.0219549074
-0.0286979351 0.0105438233 -0.0199547684
-0.0303216958 -0.0248350520 -0.0173648861
-0.0302381757 0.0065626374 -0.0175113124
-0.0315424920 0.0148820599 -0.0151107352
-0.0324867674 0.0170014524 -0.0128969138
-0.0332005722 -0.0068292755 -0.0110363007
-0.0238961958 -0.0222553586 -0.0255655314
-0.0193219894 0.0258612902 -0.0291142901
-0.0182534724 0.0048820539 -0.0298323036
-0.0165141613 0.0187367495 -0.0307981321
-0.0147669566 0.0183404783 -0.0316999324
-0.0131850785 -0.0067765423 -0.0323711199
-0.0078043312 0.0313721251 -0.0340677452
-0.0094680388 -0.0143038519 -0.0336831682
-0.0134688552 -0.0230458711 -0.0322593432
-0.0053681639 -0.0199544120 -0.0345367433
-0.0060950030 0.0095570934 -0.0344410528
-0.0079699260 -0.0151047626 -0.0340731974
-0.0113220233 0.0320000015 -0.0002724563
-0.0326758083 0.0320000015 0.0035530692
0.0054568024 0.0320000015 -0.0058965826
0.0018979692 0.0320000015 -0.0286360280
0.0072806708 0.0320000015 -0.0029568219
0.0195324607 0.0320000015 -0.0147392871
-0.0236237322 0.0320000015 -0.0092657385
-0.0265016647 0.0320000015 -0.0046045593
-0.0215387974 0.0320000015 -0.0199555592
-0.0109711677 0.0320000015 -0.0049147646
-0.0041590725 0.0320000015 -0.0198270215
-0.0142299790 0.0320000015 -0.0251220783
-0.0116495554 0.0320000015 -0.0180429367
0.0139298401 0.0320000015 -0.0226742468
0.0076368927 0.0320000015 -0.0232559375
0.0014927274 0.0320000015 -0.0088831417
0.0323701251 0.0320000015 -0.0096089970
0.0149522197 0.0320000015 -0.0057791040
0.0161568685 0.0320000015 -0.0009030123
0.0313288500 0.0320000015 0.0141958582
0.0199667034 0.0320000015 0.0031077387
-0.0150951715 0.0320000015 0.0040137689
-0.0311876652 0.0320000015 0.0158421663
0.0249684540 0.0320000015 0.0227622347
0.0046705752 0.0320000015 0.0071376332
0.0254908079 0.0320000015 0.0205560805
-0.0008427706 0.0162246106 0.0043700635
-0.0009507119 -0.0106717135 0.0043862722
-0.0025217129 0.0076510201 0.0036152665
-0.0034932871 0.0222708172 0.0026391375
-0.0044034394 -0.0224007241 0.0008866430
-0.0044213617 -0.0134022220 -0.0006461553
-0.0037465881 -0.0161985200 -0.0024150149
-0.0027208636 -0.0024339080 -0.0035269369
-0.0014909749 -0.0090051227 -0.0042218297
-0.0003363336 0.0014157836 -0.0044075544
0.0020249961 0.0136155050 -0.0038846100
0.0032299505 0.0004001704 -0.0031097937
0.0034345118 0.0237959811 -0.0027530422
0.0044184033 -0.0028695384 -0.0000010522
0.0042729069 0.0178503560 0.0013169422
0.0032572052 0.0150480701 0.0030751449
0.0019922562 -0.0160565221 0.0039902529
0.0009682981 0.0106358364 0.0043686865
0.0027751614 -0.0351000018 -0.0063330873
-0.0013371955 -0.0351000018 0.0095754925
-0.0016361428 -0.0351000018 -0.0073243547
0.0019362511 -0.0270788743 0.0151348020
-0.0025783111 -0.0270134572 0.0312778851
-0.0058640974 -0.0270644400 -0.0238426744
-0.0115176226 -0.0270618384 -0.0154897764
0.0091048668 -0.0270903396 0.0231391435
0.0054713064 -0.0270812462 0.0185057650
0.0164872643 -0.0270579358 0.0114945927
0.0209349808 -0.0270241623 0.0184033648
0.0117979901 -0.0270544974 0.0176946777
0.0138877493 -0.0270798133 0.0056798671
0.0259162159 -0.0270305287 0.0085818992
0.0216724776 -0.0270502234 0.0048559025
-0.0345722473 -0.0270006342 0.0011554127
-0.0134490213 -0.0270859006 0.0008637946
-0.0245085397 -0.0270378277 -0.0062550976
0.0091308512 -0.0270990448 -0.0045557009
0.0191490314 -0.0270613344 -0.0028730058
0.0228880351 -0.0270412194 -0.0081533030
-0.0142521333 -0.0270374816 -0.0209827633
-0.0155340767 -0.0270661220 -0.0096856300
-0.0188957840 -0.0270107751 -0.0252335186
-0.0243553956 -0.0270303011 0.0125455056
-0.0087370949 -0.0270468237 0.0213034518
-0.0167004345 -0.0270087348 0.0282488077
-0.0143875621 -0.0270556487 0.0152322590
0.0171644633 -0.0270331617 -0.0203043830
0.0285429801 -0.0270072792 -0.0165726437
0.0049213556 -0.0270080015 -0.0324935471
0.0048849773 -0.0270376642 -0.0251020210
0.0055143376 -0.0270481894 -0.0221638364
0.0185352611 -0.0270121012 -0.0260032828
0.0092995424 -0.0309667702 -0.0036290422
0.0060068213 -0.0349369369 0.0079552702
-0.0072272104 -0.0284335752 0.0068611101
-0.0079278448 -0.0279821812 -0.0060459888
0.0060027027 -0.0351000018 0.0051282802
-0.0032856917 -0.0351000018 -0.0075569234
0.0003610039 -0.0351000018 0.0058730456
0.0096203329 -0.0316213784 -0.0025864373
0.0044791210 -0.0298696449 0.0089031440
-0.0077240410 -0.0336175075 0.0063370507
-0.0075110895 -0.0326809949 -0.0065772310
-0.0208777032 -0.0270999987 0.0222750903
-0.0108034743 -0.0270999987 -0.0196918821
-0.0039845556 -0.0270999987 0.0216818579
-0.0130984230 -0.0270999987 -0.0137446934
-0.0148052864 -0.0270999987 -0.0121268699
-0.0071360422 -0.0270999987 -0.0242920374
0.0085980275 -0.0270999987 0.0078961970
0.0153745160 -0.0270999987 0.0222670229
-0.0022526185 -0.0270999987 0.0215382297
-0.0060414240 -0.0270999987 0.0129389469
0.0007179174 -0.0270999987 -0.0283025662
-0.0025431450 -0.0270999987 -0.0250338804
0.0022620736 -0.0270999987 0.0190229222
0.0058449657 -0.0270999987 0.0137088723
-0.0255925239 -0.0270999987 0.0191066338
-0.0283984644 -0.0270999987 0.0133239694
-0.0208531360 -0.0270999987 -0.0117614564
-0.0313655663 -0.0270999987 0.0046662417
-0.0214331131 -0.0270999987 0.0053552745
-0.0209542805 -0.0270999987 -0.0027588906
-0.0303046508 -0.0270999987 0.0006184115
0.0051703026 -0.0270999987 -0.0240259392
0.0175531316 -0.0270999987 -0.0168972564
0.0207683633 -0.0270999987 -0.0077238451
0.0316409637 -0.0270999987 -0.0047245129
0.0243090396 -0.0270999987 -0.0052959776
0.0123054004 -0.0270999987 0.0125302382
0.0234588741 -0.0270999987 0.0113659368
0.0173835701 -0.0270999987 -0.0289874945
0.0105357887 -0.0270999987 -0.0292453796
0.0311887131 -0.0270999987 0.0058440961
0.0267220798 -0.0270999987 -0.0014204104
0.0251589106 -0.0404210995 0.0242647783
0.0084797857 -0.0353821677 -0.0339318628
0.0015018662 -0.0335245376 0.0348930655
0.0022909792 -0.0282600163 -0.0347699077
0.0178733472 -0.0301429765 -0.0299691890
0.0139664636 -0.0289784588 -0.0318720691
0.0302969758 -0.0337582957 -0.0173622119
0.0256523313 -0.0293831211 -0.0236957540
0.0346333781 -0.0409666138 -0.0046659033
0.0349908125 -0.0355846631 0.0001082304
0.0340172188 -0.0344282498 0.0080243554
0.0285012725 -0.0275707440 0.0201023188
0.0305344760 -0.0273257183 0.0167144031
0.0125251029 -0.0300741636 0.0326378641
0.0218329313 -0.0354222359 0.0272954492
0.0072438107 -0.0304688240 0.0342035723
0.0160854248 -0.0430000015 -0.0286778851
-0.0257256458 -0.0430000015 -0.0132160023
-0.0198015164 -0.0430000015 0.0273001593
0.0119327937 -0.0430000015 0.0322037329
0.0293773152 -0.0430000015 0.0176705289
-0.0072665077 -0.0430000015 0.0302554796
-0.0145551792 -0.0430000015 -0.0238442319
0.0229131433 -0.0430000015 0.0243375804
0.0307599311 -0.0430000015 0.0028757012
0.0052143057 -0.0430000015 -0.0298082476
-0.0235030880 -0.0430000015 -0.0248099789
-0.0303166731 -0.0430000015 0.0098406484
-0.0108720378 -0.0306873993 -0.0332325724
-0.0218887086 -0.0429492545 -0.0272269423
-0.0074289118 -0.0313014578 0.0341310315
-0.0052586274 -0.0348296168 0.0345427723
-0.0209653941 -0.0306359770 0.0279813823
-0.0135863696 -0.0360928746 0.0321213484
-0.0323203680 -0.0303161679 0.0131627645
-0.0285766189 -0.0342941074 0.0200318348
-0.0328091731 -0.0386223984 0.0120541413
-0.0348047728 -0.0398581006 0.0034419284
-0.0346317803 -0.0311021835 -0.0043376165
-0.0262949792 -0.0373171191 -0.0230912118
-0.0301782409 -0.0410092785 -0.0175208711
-0.0108299389 -0.0387538537 -0.0332690207
-0.0186396775 -0.0382839833 -0.0294765327
-0.0033490660 -0.0304407545 -0.0347473278
0.0207394356 -0.0369647563 -0.0197695835
0.0093997283 -0.0364274669 0.0335792755
0.0272915551 -0.0381024248 0.0067563507
-0.0326703465 -0.0364843650 0.0084345959
-0.0223199893 -0.0369853697 -0.0211949455
0.0035210013 -0.0407577776 -0.0026854670
-0.0026389995 -0.0408159984 0.0035465461
-0.0020681214 -0.0439999960 -0.0145524869
-0.0158412266 -0.0439999960 0.0089063657
-0.0102477107 -0.0439999960 0.0067001185
-0.0156404919 -0.0439999960 -0.0222948010
-0.0159796994 -0.0439999960 -0.0209896293
-0.0133571321 -0.0439999960 -0.0084131929
-0.0239442981 -0.0439999960 -0.0033976572
-0.0059633634 -0.0439999960 0.0108828230
-0.0112650577 -0.0439999960 0.0132205791
-0.0056908465 -0.0439999960 0.0163390269
0.0085934145 -0.0439999960 0.0028999198
-0.0024511806 -0.0439999960 0.0134135607
0.0130721948 -0.0439999960 0.0190864702
0.0035010031 -0.0439999960 0.0082139734
0.0209860920 -0.0439999960 0.0128877999
0.0214429518 -0.0439999960 -0.0081833676
0.0170130708 -0.0439999960 -0.0096800362
0.0085322370 -0.0439999960 0.0009713369
0.0106342310 -0.0439999960 -0.0182497219
0.0140711554 -0.0439999960 -0.0177326156
0.0063925065 -0.0439999960 -0.0194126295
-0.0008204888 -0.0431647818 0.0275609605
0.0158290381 -0.0435112124 -0.0225189801
0.0256612316 -0.0365032282 0.0155305885
-0.0156794927 -0.0398874459 0.0257562813
-0.0257343988 -0.0358856112 -0.0157605726
0.0001832208 -0.0392989381 -0.0301656494
0.0261746144 -0.0415752719 -0.0151242104
0.0150880382 -0.0355000012 -0.0263299331
0.0114270313 -0.0263300598 -0.0327871326
0.0226361430 -0.0245301004 0.0265781962
-0.0251281698 -0.0267171504 0.0238759187
-0.0292106059 -0.0209451969 -0.0188403908
-0.0118146246 -0.0225491331 -0.0328737918
0.0145283233 -0.0252885226 -0.0317254285
0.0321327940 -0.0254420540 -0.0135596905
0.0344212802 -0.0217842463 0.0060952932
0.0210373221 -0.0251440348 0.0278754556
-0.0030061476 -0.0237614554 0.0348014490
-0.0237204608 -0.0222305249 0.0256694803
-0.0346083631 -0.0264815830 0.0047342768
-0.0242076769 -0.0335000008 -0.0351531342
-0.0194251999 -0.0335000008 -0.0384631752
0.0246560510 -0.0335000008 -0.0291183938
0.0376798878 -0.0335000008 -0.0167390221
0.0389031462 -0.0335000008 -0.0073776534
0.0225576857 -0.0335000008 0.0372308780
0.0095243241 -0.0335000008 0.0344367749
-0.0372797135 -0.0335000008 0.0137979742
-0.0346945438 -0.0335000008 0.0112338744
-0.0400691803 -0.0335000008 -0.0005258980
-0.0208572059 -0.0335000008 0.0328717474
-0.0114855357 -0.0335000008 0.0371420298
0.0094887884 -0.0335000008 0.0401167847
0.0313604402 -0.0335000008 0.0266972672
0.0407818601 -0.0335000008 0.0109153862
0.0246489192 -0.0335000008 -0.0314317673
0.0076303072 -0.0335000008 -0.0396273436
-0.0338513409 -0.0335000008 -0.0198895387
-0.0360552043 -0.0320274407 -0.0265487375
-0.0182281103 -0.0323467022 -0.0410169922
0.0128510228 -0.0317652581 -0.0430088912
0.0373610428 -0.0293151147 -0.0248794770
0.0446933270 -0.0326006335 -0.0044929470
0.0389532098 -0.0305434621 0.0221302656
0.0216442424 -0.0298836189 0.0392627509
-0.0085093203 -0.0326354468 0.0440898837
-0.0312852331 -0.0311080470 0.0321135102
-0.0445122527 -0.0315838178 0.0057988048
0.0224550887 -0.0289653933 -0.0386648748
-0.0014832812 -0.0286436735 0.0442516714
-0.0175362999 -0.0289121620 -0.0410816164
-0.0424348171 -0.0331711302 -0.0135980706
0.0332485419 -0.0331435239 0.0297164643
0.0133067010 -0.0330886541 -0.0424797426
-0.0192927074 -0.0318698385 -0.0352243969
0.0192866501 -0.0326421647 -0.0347118506
0.0368960595 -0.0311634918 0.0201765513
-0.0011192441 -0.0316729569 0.0420866948
-0.0292747511 -0.0285000000 -0.0308863624
-0.0426508139 -0.0285568645 -0.0096909648
-0.0096935059 -0.0285000000 0.0390072181
-0.0325816383 -0.0285000000 -0.0204261527
-0.0384273001 -0.0285000000 0.0111136832
-0.0294004836 -0.0285000000 0.0282616458
0.0329860945 -0.0285000000 0.0251020884
0.0425350531 -0.0285248839 -0.0089986696
0.0405530434 -0.0285000000 -0.0156237655
0.0132440910 -0.0285000000 -0.0385670997
-0.0015334678 -0.0285000000 -0.0396781212
-0.0329428089 -0.0265218774 0.0190122266
0.0008845276 -0.0204159084 0.0384968839
0.0175166090 -0.0226681027 0.0354177262
0.0380341245 -0.0238006947 0.0001807787
0.0194825950 -0.0223439147 -0.0326401793
-0.0213484244 -0.0243190764 -0.0327008811
-0.0328331988 -0.0273706956 -0.0216277767
-0.0360579736 -0.0235844445 -0.0170155903
0.0322689183 -0.0195000004 -0.0199382971
0.0367328135 -0.0195741205 -0.0104462814
-0.0011038051 -0.0195000004 -0.0381725975
0.0296669531 -0.0195000004 0.0242364041
0.0009205304 -0.0195000004 -0.0382430588
-0.0216926871 -0.0195000004 0.0286023213
-0.0078223400 -0.0195560736 0.0371284900
-0.0242266259 -0.0252972828 -0.0317436911
-0.0160702661 -0.0254995386 -0.0365614312
0.0064613520 -0.0231398117 -0.0394169287
0.0275770400 -0.0272181395 -0.0287699157
0.0368439159 -0.0265407605 -0.0153562634
0.0393407094 -0.0200337870 0.0054679937
0.0289545897 -0.0199772946 0.0265691639
0.0232941254 -0.0250648225 0.0324315057
0.0068783602 -0.0241244355 0.0393517520
-0.0124864649 -0.0262090609 0.0379613201
-0.0227268784 -0.0236910138 0.0328928780
-0.0386188449 -0.0260554211 0.0102065361
-0.0371105082 -0.0245359082 0.0121218991
0.0076055344 -0.0233056048 0.0375659989
0.0274569882 -0.0255551478 -0.0285635009
0.0339800197 -0.0196437194 0.0101765814
-0.0296340278 -0.0202709601 0.0186069934
0.0027680726 -0.0195914769 -0.0355365633
-0.0243231693 -0.0241748332 -0.0257020193
0.0348429477 -0.0224826521 -0.0105090022
0.0096962413 -0.0249063140 0.0339676352
-0.0360921722 -0.0251583660 0.0097637540
0.0255420712 -0.0225194919 -0.0281980443
-0.0287004290 -0.0312569777 -0.0210454259
-0.0159904597 -0.0334097141 -0.0318470116
0.0028016376 -0.0328337749 -0.0355849183
0.0176886739 -0.0329562889 -0.0308180447
0.0289993359 -0.0329693822 -0.0206015553
0.0354116632 -0.0307489135 0.0035560256
0.0282632304 -0.0295640731 0.0216298874
0.0172442391 -0.0318115053 0.0311671963
-0.0015221494 -0.0312935408 0.0355801082
-0.0175404936 -0.0315382126 0.0309971495
-0.0316625800 -0.0326475610 0.0164446228
-0.0353879623 -0.0333616074 0.0036337513
0.0158310100 -0.0271833316 -0.0314450298
-0.0125838138 -0.0271935293 0.0327721892
