-0.0039825478 -0.0112719798 0.0001591149
-0.0037378888 0.0240486217 -0.0013004255
-0.0033815980 0.0046795252 -0.0020511767
-0.0030400618 0.0013447359 -0.0025816484
-0.0021371004 0.0026543264 -0.0033444842
-0.0012564619 0.0056620568 -0.0037760679
-0.0000973560 -0.0032219710 -0.0039816515
0.0007712665 0.0205148439 -0.0038616341
0.0022259684 0.0305388296 -0.0032359971
0.0027764037 0.0109455587 -0.0028599631
0.0033752623 -0.0066763834 -0.0021132182
0.0038612151 -0.0085449992 -0.0010022398
0.0039778148 -0.0157082290 0.0002404314
0.0038005980 -0.0091978297 0.0011856693
0.0035359463 0.0223724589 0.0017760966
0.0025482523 0.0256177883 0.0030008900
0.0019290839 0.0058473461 0.0034887111
0.0011703517 0.0000034387 0.0038090501
-0.0001546665 0.0055011555 0.0039819508
-0.0008808761 -0.0213929142 0.0038830957
-0.0023884697 0.0277029790 0.0031350614
-0.0029637688 0.0314653824 0.0025866794
-0.0034580073 -0.0134191997 0.0019887269
0.0205342766 0.0250040968 0.0141980392
0.0205613738 0.0073266379 0.0141860806
0.0214715748 0.0286578284 0.0127698713
-0.0141215719 0.0159860867 0.0206250425
-0.0134358632 -0.0051572700 0.0210767441
-0.0128840594 0.0111720730 0.0213920631
0.0065938986 0.0053279635 0.0240736976
0.0040542556 0.0231941286 0.0246303306
0.0064788722 0.0261864793 0.0241012583
-0.0245020624 0.0019585840 0.0049091353
-0.0240412162 0.0286236307 0.0068128042
0.0224207174 0.0224907200 0.0110042502
0.0225792313 0.0060455932 0.0107093649
0.0227780315 0.0201744174 0.0102651399
0.0228150941 0.0280456254 0.0101718205
0.0239933440 -0.0175860101 0.0068862764
0.0242459122 0.0211832845 0.0059476725
0.0248400460 -0.0150106712 0.0026427998
0.0245866171 0.0086713553 0.0043464806
0.0248690524 0.0091187131 0.0024478036
0.0249810822 -0.0159685699 -0.0002883111
0.0249255950 0.0215677675 0.0014195065
0.0249595987 0.0312359636 -0.0009350416
0.0247220027 0.0256072255 -0.0031797549
0.0247210988 0.0067900720 -0.0032246361
0.0075532147 -0.0111576379 0.0238135221
0.0083102007 0.0015332649 0.0235641384
0.0100848926 0.0207977133 0.0228420998
0.0113260834 0.0050912902 0.0222540034
0.0116079909 -0.0115641512 0.0220994134
0.0131276585 0.0148760822 0.0212660714
0.0147700635 -0.0153055012 0.0201231603
0.0148360364 0.0312804532 0.0200763814
0.0161701034 0.0149217123 0.0190244090
0.0169842405 0.0215651145 0.0182929221
0.0166803604 0.0148031317 0.0185659527
0.0188531461 -0.0172260528 0.0163566060
0.0192990758 0.0130056003 0.0158518812
0.0198338821 0.0083479629 0.0152060779
-0.0105081142 -0.0074108563 0.0226415771
-0.0101994850 -0.0023516581 0.0227793810
-0.0100794773 0.0154237289 0.0228329648
-0.0067741561 -0.0113638524 0.0240333369
-0.0079811609 0.0174160549 0.0236536748
-0.0051880499 0.0021895891 0.0244183795
-0.0055978266 0.0317148560 0.0243397587
-0.0045146710 0.0098955690 0.0245475758
-0.0031845847 0.0131698709 0.0247904561
-0.0004422543 -0.0047600565 0.0249947706
0.0005247171 -0.0047141908 0.0249579251
0.0004881865 0.0217608006 0.0249594173
0.0035484259 -0.0006743807 0.0247287966
-0.0239913214 -0.0161600641 0.0070259117
-0.0238623942 -0.0037194175 0.0073971538
-0.0231200371 0.0260273250 0.0094660309
-0.0228913050 -0.0001342468 0.0100155471
-0.0227731928 0.0318408807 0.0102541192
-0.0213272764 0.0013901413 0.0129833296
-0.0216002914 0.0207316089 0.0125619430
-0.0215271383 0.0270303130 0.0126748517
-0.0186509796 -0.0118170734 0.0166117070
-0.0185771355 0.0033381524 0.0167011624
-0.0178394474 -0.0030538537 0.0174715560
-0.0174524493 0.0144037671 0.0178434650
-0.0169188826 0.0277220999 0.0183562275
-0.0150909431 -0.0149061997 0.0198936490
0.0037860159 -0.0151281972 0.0213175560
-0.0173307308 -0.0147605173 -0.0111876577
-0.0210279306 0.0317019082 -0.0134791651
-0.0217806142 0.0242658037 -0.0121949936
-0.0042868355 -0.0156822755 -0.0246240473
-0.0051208139 0.0116135096 -0.0244660204
-0.0054792557 0.0153123730 -0.0243742063
0.0152950919 -0.0169112416 -0.0197322807
0.0147225243 0.0310574377 -0.0201602062
0.0132862834 -0.0031823759 -0.0211642039
0.0118464515 -0.0176125796 -0.0220020080
0.0244484334 -0.0106453790 -0.0051908413
-0.0245510701 -0.0048561622 0.0046811840
-0.0225619747 0.0166137455 -0.0107414675
-0.0231625261 -0.0026595079 -0.0092970251
-0.0234926304 0.0208633498 -0.0084658588
-0.0239609632 -0.0023284512 -0.0070066111
-0.0244393127 -0.0091530335 -0.0052289502
-0.0240853432 0.0291596730 -0.0065443856
-0.0247352487 -0.0156457306 -0.0033473015
-0.0247164716 0.0182889755 -0.0034735312
-0.0248988670 0.0316272679 -0.0022421578
-0.0249596134 0.0282530026 -0.0003724684
-0.0248420276 0.0095328003 0.0020458069
-0.0247732735 0.0246410932 0.0026953681
-0.0246250046 0.0091711134 0.0041710188
-0.0071816144 0.0101354061 -0.0239227987
-0.0093757770 -0.0024107701 -0.0231306056
-0.0091179569 0.0267055796 -0.0232355004
-0.0102159932 0.0003787909 -0.0227887612
-0.0116188296 0.0103664164 -0.0220934698
-0.0129200738 0.0179198141 -0.0213799049
-0.0134785337 0.0056370331 -0.0210389369
-0.0152330794 0.0094252440 -0.0197948527
-0.0160124091 -0.0139291186 -0.0191660944
-0.0157188625 0.0116518216 -0.0194298405
-0.0174296070 -0.0092761758 -0.0178927687
-0.0179037916 -0.0113008420 -0.0174311315
-0.0186399307 0.0261419765 -0.0165979336
-0.0196933738 -0.0107721699 -0.0153972640
0.0111449995 0.0090874232 -0.0223572058
0.0113535116 -0.0092302994 -0.0222641045
0.0095308020 -0.0050004076 -0.0230779501
0.0063950856 -0.0137267302 -0.0241525732
0.0065588884 -0.0023888152 -0.0241010492
0.0049416993 -0.0038624127 -0.0244656450
0.0036076866 0.0145036920 -0.0247215923
0.0047951598 0.0192435808 -0.0244937605
0.0019649118 -0.0149677734 -0.0248813266
0.0008615415 0.0102234358 -0.0249635320
-0.0007865952 -0.0101718253 -0.0249472282
-0.0022235852 -0.0050937740 -0.0248885316
-0.0040800779 -0.0096114418 -0.0246556529
0.0239974478 0.0184273106 -0.0070033375
0.0232510048 -0.0177236441 -0.0091010368
0.0239161804 0.0296713951 -0.0072472570
0.0226555914 -0.0000988988 -0.0104916598
0.0223090279 0.0156257510 -0.0111916758
0.0211958194 0.0145974076 -0.0131862277
0.0211612464 0.0000724819 -0.0132395896
0.0208115685 0.0257997112 -0.0137793019
0.0197417201 -0.0001332974 -0.0152903721
0.0190058254 0.0098916595 -0.0161818429
0.0166392916 -0.0121113287 -0.0186249171
0.0171480164 0.0306532797 -0.0181360279
0.0180865621 0.0292395285 -0.0172340765
0.0152955799 0.0058127494 -0.0197354872
0.0134435163 0.0320000015 -0.0053713630
-0.0144267189 0.0320000015 -0.0028334033
-0.0221891090 0.0320000015 0.0000939168
-0.0049245309 0.0320000015 -0.0148734949
-0.0025138483 0.0320000015 -0.0143880368
0.0182699461 0.0320000015 0.0026180294
0.0180663758 0.0320000015 -0.0017024065
-0.0161665918 0.0320000015 -0.0077791622
-0.0172835891 0.0320000015 -0.0041982993
0.0102558374 0.0320000015 -0.0159410804
0.0192811458 0.0320000015 0.0084113170
0.0035790633 0.0320000015 0.0094725941
0.0016112118 0.0320000015 0.0127522391
-0.0099828360 0.0320000015 -0.0208901866
-0.0081691411 0.0320000015 -0.0083033900
-0.0201504199 0.0320000015 -0.0133361775
0.0057669034 0.0320000015 -0.0177616064
0.0044608184 0.0320000015 -0.0232639605
0.0000159124 0.0320000015 -0.0174987512
0.0109782099 0.0320000015 0.0148111001
0.0142119521 0.0320000015 0.0135614937
-0.0018173482 0.0320000015 0.0064837993
-0.0017801034 0.0320000015 0.0193069448
0.0214015487 0.0320000015 -0.0101269236
0.0086043459 0.0320000015 -0.0076519599
0.0061879008 0.0320000015 -0.0082878827
-0.0045495792 0.0320000015 0.0089272498
-0.0081569731 0.0320000015 0.0222022319
-0.0122669190 0.0320000015 0.0127303182
-0.0193286653 0.0320000015 0.0050124773
-0.0067880341 0.0320000015 0.0030137819
-0.0194562062 0.0320000015 0.0110746486
0.0120678425 -0.0163532610 -0.0189920907
0.0039260040 -0.0242000017 0.0072194534
-0.0060603287 -0.0242000017 0.0058022145
-0.0032885596 -0.0242000017 -0.0032637416
0.0041559663 -0.0242000017 -0.0048152523
0.0115405183 -0.0180999991 -0.0085130780
0.0202020732 -0.0180999991 -0.0084943817
-0.0085656505 -0.0180999991 -0.0157094604
0.0185915308 -0.0180999991 0.0130000536
0.0169834409 -0.0180999991 0.0029549371
0.0075407157 -0.0180999991 -0.0141268029
0.0083805664 -0.0180999991 -0.0079987292
0.0034805005 -0.0180999991 -0.0129155361
-0.0023396691 -0.0180999991 -0.0203590179
0.0005102016 -0.0180999991 -0.0145111452
-0.0136314732 -0.0180999991 -0.0044132765
0.0008341958 -0.0180999991 0.0236849567
0.0117989865 -0.0180999991 0.0170122680
0.0202123385 -0.0180999991 -0.0058401700
0.0213524291 -0.0180999991 0.0013256760
-0.0069253759 -0.0180999991 -0.0178527637
-0.0066642097 -0.0180999991 -0.0238255713
-0.0168516490 -0.0180999991 -0.0089685835
-0.0127349175 -0.0180999991 -0.0131147376
-0.0234093011 -0.0180999991 -0.0011387373
-0.0184821252 -0.0180999991 0.0042302049
0.0097565521 -0.0180999991 0.0212789321
-0.0185376175 -0.0180999991 0.0125028152
-0.0209737206 -0.0180999991 0.0063924219
-0.0132746313 -0.0180999991 0.0196414504
-0.0144930706 -0.0180999991 0.0134353289
-0.0039798700 -0.0180999991 0.0224859192
-0.0097227312 -0.0180999991 0.0227348302
-0.0046927321 -0.0191050432 0.0087130581
0.0049519813 -0.0183563703 0.0084921634
0.0099240838 -0.0211938100 0.0004168567
0.0050807400 -0.0231931967 -0.0085613840
-0.0026395687 -0.0202224132 -0.0095563318
-0.0093649079 -0.0210143938 -0.0030649903
-0.0087398855 -0.0242000017 -0.0039253894
0.0074427647 -0.0242000017 -0.0019984293
-0.0008444252 -0.0242000017 -0.0059251250
0.0020006557 -0.0242000017 0.0057881026
-0.0095919634 -0.0231068306 0.0027165425
-0.0024212732 -0.0215452696 0.0096299431
0.0068645536 -0.0209343120 0.0072050845
0.0097793559 -0.0232689012 -0.0016886369
0.0038723642 -0.0206297043 -0.0091850089
-0.0055528880 -0.0220654264 -0.0081796931
-0.0099608759 -0.0207437718 -0.0002446531
-0.0010646529 -0.0182000007 -0.0148502901
-0.0224636735 -0.0182000007 0.0011593180
-0.0084501878 -0.0182000007 -0.0199131621
-0.0014535796 -0.0182000007 -0.0198365934
-0.0150241360 -0.0182000007 -0.0103459050
-0.0224218948 -0.0182000007 -0.0103041274
0.0090891183 -0.0182000007 -0.0040469195
0.0115799656 -0.0182000007 -0.0106010525
0.0168360230 -0.0182000007 0.0002184400
-0.0133171759 -0.0182000007 -0.0158192112
-0.0182372858 -0.0182000007 -0.0167544419
0.0072066890 -0.0182000007 -0.0228931981
0.0011324022 -0.0182000007 -0.0178117367
0.0093130683 -0.0182000007 0.0081679215
0.0061455321 -0.0182000007 0.0154125623
0.0061134172 -0.0182000007 0.0084822796
0.0020544929 -0.0182000007 0.0184134331
0.0049647229 -0.0182000007 0.0200694633
0.0175095271 -0.0182000007 -0.0080096169
0.0233697418 -0.0182000007 0.0074265167
0.0219414381 -0.0182000007 0.0034485061
-0.0034180820 -0.0182000007 0.0206735129
-0.0048226429 -0.0182000007 0.0096128938
-0.0166142096 -0.0182000007 0.0133214044
-0.0123752774 -0.0182000007 0.0155404890
-0.0206159448 -0.0182000007 0.0043075903
-0.0190062382 -0.0182000007 0.0079175686
0.0017484019 -0.0246774007 0.0035817249
-0.0039143868 -0.0249196162 0.0007578162
0.0005278329 -0.0306833629 -0.0038993271
-0.0213469726 -0.0201591238 -0.0128783520
-0.0062151384 -0.0254188841 -0.0242038200
0.0239995936 -0.0199218543 -0.0064294048
-0.0226574177 -0.0205883846 -0.0105390801
-0.0246463505 -0.0313989686 -0.0035750163
-0.0249067028 -0.0273608119 -0.0004313131
-0.0249093212 -0.0292008713 0.0019531447
-0.0106152374 -0.0242547242 -0.0225983188
-0.0142372768 -0.0266753911 -0.0204723945
-0.0176106143 -0.0248805189 -0.0176824777
-0.0201679734 -0.0239832943 -0.0147051622
0.0063029645 -0.0197584766 -0.0241299833
0.0051579935 -0.0261070918 -0.0243839679
0.0002010981 -0.0283844327 -0.0249208859
0.0238147476 -0.0254038805 -0.0074842550
0.0228136267 -0.0197322510 -0.0100345891
0.0201749873 -0.0252767355 -0.0144904197
0.0178639242 -0.0224016615 -0.0173556942
0.0219917652 -0.0299893756 0.0116383168
0.0047432830 -0.0202078091 0.0244964017
-0.0243380600 -0.0218177177 0.0051965135
0.0230696575 -0.0210218781 0.0094530656
0.0241391371 -0.0234706284 0.0061919868
0.0248945373 -0.0291144664 0.0010744177
0.0246577098 -0.0273271059 -0.0040084317
0.0116476799 -0.0272928880 0.0220394673
0.0130366729 -0.0259548117 0.0212328572
0.0168918932 -0.0255926454 0.0183401081
-0.0115572333 -0.0251860154 0.0221369350
-0.0080943907 -0.0259891347 0.0234853719
-0.0024940147 -0.0219427145 0.0247703011
-0.0006516865 -0.0182296044 0.0249255646
-0.0232159807 -0.0294439621 0.0089643819
-0.0205303589 -0.0243771672 0.0139879243
-0.0201156905 -0.0227798434 0.0145742652
-0.0159607161 -0.0194006326 0.0190973474
0.0235237132 -0.0320000015 -0.0048157000
0.0118644650 -0.0320000015 -0.0051590535
0.0123051903 -0.0320000015 -0.0064036546
0.0168301087 -0.0320000015 -0.0052331960
0.0189104265 -0.0320000015 -0.0114488522
0.0152925011 -0.0320000015 -0.0196255926
0.0090829181 -0.0320000015 -0.0184080234
-0.0097371016 -0.0320000015 -0.0205264561
0.0023061549 -0.0320000015 -0.0212848684
0.0001202019 -0.0320000015 -0.0141790869
-0.0242572697 -0.0320000015 -0.0025732262
-0.0186205814 -0.0320000015 0.0160810296
0.0090043867 -0.0320000015 0.0162827200
0.0108486545 -0.0320000015 0.0141992301
0.0185001787 -0.0320000015 0.0052974860
0.0111391008 -0.0320000015 0.0079475240
0.0086459038 -0.0320000015 0.0051032879
-0.0102471834 -0.0320000015 0.0159661740
-0.0106404611 -0.0320000015 0.0058363460
-0.0028511643 -0.0320000015 0.0159496352
-0.0107418082 -0.0320000015 0.0203047961
0.0012286532 -0.0320000015 0.0151858470
-0.0000606140 -0.0320000015 0.0218048168
-0.0047412392 -0.0320000015 0.0080482946
-0.0163002033 -0.0320000015 0.0049385738
-0.0116812849 -0.0320000015 0.0038637219
-0.0158560837 -0.0320000015 0.0143207878
-0.0102661432 -0.0320000015 -0.0077802030
-0.0035711668 -0.0320000015 -0.0076670599
-0.0021686027 -0.0320000015 -0.0130197794
-0.0010599505 -0.0320000015 -0.0065441029
0.0202437436 -0.0273477878 -0.0052251697
-0.0203476030 -0.0269103496 -0.0121096391
0.0049300684 -0.0278816451 0.0229173835
0.0222491519 -0.0283355842 0.0047943534
0.0191769619 -0.0272279627 -0.0127931283
-0.0131645728 -0.0269101201 -0.0189628966
-0.0190414768 -0.0286993132 0.0131530175
0.0104502377 -0.0270757809 -0.0177858579
-0.0065235642 0.0430514913 -0.0279272903
0.0284758880 0.0397971103 0.0027174707
0.0285665698 0.0374642624 -0.0021874331
0.0241008725 0.0373226139 -0.0154726644
0.0234726035 0.0448177576 -0.0164752806
0.0154499845 0.0377087304 -0.0239849075
0.0076544457 0.0438830588 -0.0276150288
0.0021898598 0.0386314646 -0.0285354321
0.0139986187 0.0457252102 -0.0245566393
0.0253481222 0.0451485395 -0.0132265686
-0.0156712174 0.0427469144 -0.0238524473
-0.0236769594 0.0393609423 -0.0161516278
-0.0272038300 0.0388608794 -0.0089759368
-0.0286730276 0.0443757421 0.0002976087
-0.0280263209 0.0458968077 -0.0030018942
-0.0187531630 0.0457655364 -0.0212470868
-0.0252791215 0.0419000015 0.0094980435
-0.0218122915 0.0442209441 0.0185385332
-0.0176732121 0.0407854307 0.0224891768
-0.0072969578 0.0394325010 0.0276553638
-0.0039994839 0.0446197935 0.0283211012
0.0063173986 0.0402873609 0.0278758446
0.0095060677 0.0401528874 0.0270130652
0.0170882842 0.0397878818 0.0229572009
-0.0231492859 0.0466470296 0.0155044345
-0.0115392991 0.0449159520 0.0261966638
-0.0248942851 0.0380000100 -0.0168703340
-0.0177402621 0.0380000100 -0.0238524958
-0.0249357137 0.0380000100 0.0164537760
-0.0290300083 0.0380000100 0.0058651236
0.0275991522 0.0380000100 0.0117820396
-0.0011627399 0.0394340378 -0.0308663106
-0.0116015691 0.0417387283 0.0285474125
-0.0246269018 0.0406355351 0.0186903049
-0.0298458931 0.0413598592 0.0078254622
-0.0303246304 0.0406681113 -0.0056208878
-0.0227353975 0.0397178701 -0.0209489018
-0.0122339563 0.0407664938 -0.0282959676
0.0052798009 0.0394302964 -0.0304636200
0.0198947708 0.0383594641 -0.0236873840
0.0275132363 0.0382720545 -0.0140675194
0.0308991391 0.0390429447 -0.0008072992
0.0287958439 0.0392026879 0.0111119922
0.0193756989 0.0415943954 0.0240359461
0.0069782586 0.0414723497 0.0300579106
-0.0109151338 0.0429501252 0.0287197118
-0.0294991246 0.0434602790 0.0082742832
-0.0258048747 0.0437887373 -0.0165258221
-0.0078900612 0.0427803646 -0.0296999978
0.0148809590 0.0426182818 -0.0269693958
0.0285404347 0.0433124840 -0.0112717042
0.0233718799 0.0436594812 0.0197947434
0.0044068347 0.0441261320 0.0301576487
-0.0116019363 0.0450621729 0.0280295136
-0.0298096055 0.0459396547 0.0036574396
-0.0172579777 0.0452814352 -0.0248172996
0.0125201285 0.0454985817 -0.0274001443
0.0303102178 0.0445625970 -0.0034825360
0.0148296985 0.0460340258 0.0260795649
-0.0199629862 0.0470024116 -0.0216905707
0.0265922715 0.0475606683 -0.0117381428
0.0104090713 0.0476023244 0.0271379544
-0.0290021457 0.0477181608 -0.0008065289
0.0251560301 0.0480642343 -0.0139185754
-0.0269624792 0.0488666332 0.0067632606
0.0192817473 0.0485178686 -0.0206555758
0.0175174912 0.0480507228 0.0227348433
-0.0238318352 0.0486223748 -0.0149025894
0.0268556199 0.0486278731 -0.0085771900
-0.0053088618 0.0490153313 0.0271203470
0.0197104240 0.0499941362 -0.0169802131
-0.0088829696 0.0496607024 0.0250205066
-0.0131942452 0.0501956728 -0.0218733469
0.0195244659 0.0502411458 0.0158741023
-0.0067189086 0.0497161046 0.0258124355
-0.0253933307 0.0502934983 0.0006697978
0.0153105397 0.0507128895 -0.0191290859
0.0013259228 0.0506731951 0.0244927032
-0.0150617975 0.0510072345 0.0180544132
-0.0186752837 0.0510298876 -0.0142249730
0.0090457418 0.0509969447 -0.0217243748
0.0231127371 0.0509981343 -0.0040997503
0.0041240579 0.0514670768 0.0215303789
0.0023305641 0.0513983926 -0.0220706327
0.0019512890 0.0515705100 0.0213219271
-0.0179877603 0.0516147954 0.0108169344
-0.0202264880 0.0517210035 -0.0044184759
-0.0114112135 0.0518004846 -0.0166263412
0.0120937853 0.0519948634 -0.0150062433
0.0195925118 0.0517976538 0.0050607995
-0.0116688044 0.0521746352 0.0136285090
0.0174905005 0.0522587499 -0.0001009497
0.0109701825 0.0517578334 0.0173415161
-0.0118083499 0.0525466486 0.0088037273
-0.0175993321 0.0522174486 0.0029530716
-0.0123774934 0.0523830650 -0.0102846841
0.0014956423 0.0526167409 -0.0141557155
0.0160766365 0.0521941305 -0.0078511781
0.0123485139 0.0525099258 0.0083788391
-0.0063466062 0.0527519358 -0.0093589215
0.0118467518 0.0526935845 -0.0054136538
0.0026945625 0.0527010084 0.0121727360
-0.0100671235 0.0527175443 0.0070321199
-0.0087160334 0.0528321464 -0.0038443217
0.0120254841 0.0527148781 -0.0030906524
-0.0019700449 0.0528749177 0.0077688460
-0.0054413253 0.0528836050 0.0036875134
0.0028511370 0.0529068525 -0.0047983664
0.0070775706 0.0529056508 0.0011624715
0.0098623188 0.0378514937 0.0276863506
0.0221677836 0.0369331121 -0.0191902687
-0.0229702291 0.0370751512 -0.0180838924
-0.0067457877 0.0375652295 0.0286998882
-0.0059026080 0.0513456278 0.0077463830
-0.0069635007 0.0511575920 0.0110964781
0.0030525790 0.0514432020 0.0035824285
-0.0038030864 0.0514366208 -0.0040192835
0.0162830639 0.0503397287 -0.0115581883
0.0206138637 0.0502116025 0.0020523576
-0.0004913862 0.0512950363 0.0105063198
-0.0002747182 0.0505103152 0.0188028440
-0.0094689885 0.0513414880 0.0008759755
0.0159907319 0.0508668304 -0.0005406065
0.0215373059 0.0497609600 0.0061960858
0.0133534885 0.0508081939 0.0096373466
0.0178093903 0.0506956731 0.0027354153
-0.0213246044 0.0498759076 0.0042884120
0.0141583343 0.0506282964 -0.0113708659
0.0106961776 0.0512897851 -0.0024207615
-0.0058302768 0.0492078886 -0.0233884362
0.0051173017 0.0513935174 -0.0053252451
0.0242769060 0.0491635834 -0.0021929925
0.0131734728 0.0484093915 -0.0223499085
0.0263528306 0.0480471742 -0.0021178727
-0.0261050912 0.0481234271 -0.0011135371
0.0246335322 0.0469496423 -0.0124600196
-0.0093528255 0.0492481503 0.0221406152
-0.0107244019 0.0503798630 0.0165765724
-0.0140939019 0.0504438026 0.0128880126
-0.0212939238 0.0489047135 0.0129930803
-0.0161304723 0.0506540319 -0.0079064628
-0.0028606858 0.0513767423 -0.0082140889
-0.0146118130 0.0500366170 -0.0153925001
-0.0070440315 0.0510511390 -0.0121578553
-0.0205283101 0.0499834039 -0.0063379912
-0.0021436418 0.0487267239 -0.0250502733
0.0043160880 0.0495936900 -0.0224743877
0.0086416429 0.0479932294 -0.0251152129
0.0044069531 0.0507443228 -0.0168477620
-0.0008234118 0.0506884696 -0.0178405442
0.0217397442 0.0479796386 0.0151675751
0.0157420601 0.0470467306 0.0226583232
0.0029691192 0.0510376132 0.0145974641
0.0038607238 0.0488894963 0.0245454034
0.0006602884 0.0496554451 0.0228174247
-0.0260882791 0.0413541110 0.0116066316
-0.0228396190 0.0414054625 0.0099807701
-0.0237528072 0.0450063889 0.0109195134
-0.0260528361 0.0490064842 0.0086868533
0.0246085363 0.0379599996 0.0107504223
-0.0111263791 0.0457456513 -0.0227128372
0.0245089712 0.0428015406 0.0078426919
0.0262283250 0.0405397983 0.0084351651
0.0236402610 0.0430235955 0.0105376746
-0.0091434226 0.0488513398 -0.0243301170
0.0273100637 0.0445043702 0.0075168433
-0.0082382445 0.0487209342 -0.0237377735
-0.0245294408 0.0399956311 0.0121771124
-0.0291599560 0.0368757090 -0.0016818758
0.0270235660 0.0367104979 -0.0103337780
-0.0225029212 0.0367844170 0.0183897901
-0.0170076915 0.0057083245 0.0324772042
0.0275720503 0.0041055112 0.0056764791
0.0261331744 -0.0034023388 0.0079190321
0.0237227984 0.0028491580 0.0148752588
0.0240058088 0.0027326632 0.0123759814
-0.0264008875 0.0121968195 0.0076685921
-0.0238178642 -0.0018232836 0.0144838340
-0.0240049549 0.0055880363 0.0121488633
-0.0137168070 0.0052799279 -0.0240521149
-0.0064579303 0.0078518570 -0.0272061372
-0.0086331270 0.0025268658 -0.0252111353
-0.0107611378 -0.0004496408 0.0261429217
-0.0076467463 0.0106482357 0.0271094328
0.0092983098 0.0080013782 0.0266631175
0.0108374484 0.0052609367 0.0260427731
0.0046834940 -0.0144731478 0.0277791072
-0.0066025271 -0.0150534458 0.0274364596
0.0143302148 0.0051168894 0.0242233215
-0.0130282819 -0.0040916111 0.0249976455
0.0152430008 0.0055652702 0.0236777882
0.0161417982 0.0074560585 0.0231125883
0.0162947016 0.0130502683 0.0229950025
0.0194502414 -0.0155880275 0.0203550123
0.0204257199 -0.0057863724 0.0193977688
0.0221402718 0.0104619383 0.0174054086
0.0229396437 0.0062468841 0.0163875671
-0.0223637950 -0.0068572789 0.0170829827
-0.0209419139 -0.0014521631 0.0188818918
-0.0191991983 -0.0140008906 0.0205988030
-0.0187404166 0.0027464154 0.0210557602
-0.0183975901 -0.0036935938 0.0213490516
-0.0157738228 0.0109421023 0.0233679902
0.0249000331 0.0154999709 0.0141052968
0.0272601572 -0.0145410241 0.0070474568
-0.0048606576 -0.0115918944 -0.0277750627
-0.0044763597 0.0075402486 -0.0278247796
-0.0004908930 0.0113696020 -0.0281521709
0.0012728742 0.0017606347 -0.0281629526
0.0038466675 0.0112808725 -0.0279062133
0.0045684054 0.0007828271 -0.0278245411
0.0056263068 0.0035170095 -0.0275944600
0.0084602090 -0.0021990448 -0.0268770514
0.0117856395 0.0095970387 -0.0255723006
0.0137196901 -0.0121548945 -0.0246285258
0.0162181589 -0.0063279648 -0.0230672793
0.0166012920 0.0002008127 -0.0227683030
0.0187509490 0.0041399616 -0.0210609423
0.0189967396 -0.0011005529 -0.0208190752
0.0193935466 0.0090105103 -0.0204223326
0.0228637552 -0.0062153544 -0.0164808490
0.0238110005 -0.0046215935 -0.0150286126
0.0244417344 -0.0009403016 -0.0140163872
0.0260475634 0.0054603826 -0.0107866132
0.0262941747 0.0019313899 -0.0101105010
0.0272784750 -0.0008282460 -0.0070390047
0.0275614175 -0.0041229262 -0.0057868842
0.0280744451 -0.0160913868 -0.0022895038
0.0280638350 -0.0004406423 -0.0023845606
0.0281595810 0.0033124203 -0.0000600032
0.0281058454 -0.0009475503 0.0020911393
0.0277648154 0.0083868108 0.0046823247
0.0026268722 0.0154999709 -0.0291811963
-0.0064692181 0.0199335246 -0.0290281180
-0.0285313437 0.0367435699 0.0084501091
-0.0105041440 0.0378152995 -0.0277847718
-0.0019328171 0.0363596599 -0.0297248261
-0.0013177322 0.0192121540 -0.0297513958
0.0026268778 0.0267969984 -0.0296451916
0.0051320353 0.0342078478 -0.0293518111
0.0079385632 0.0183098083 -0.0286991771
0.0101454942 0.0244396719 -0.0279685453
0.0119269258 0.0245996164 -0.0272888772
0.0163162438 0.0333963876 -0.0248797467
0.0173528830 0.0191218796 -0.0242135421
0.0193229157 0.0205466852 -0.0226312105
0.0219631065 0.0186842114 -0.0200892700
0.0233965639 0.0355897080 -0.0183798436
0.0259014384 0.0332797990 -0.0146606636
0.0261111325 0.0172635296 -0.0143129258
0.0276479054 0.0268037184 -0.0110780244
0.0280578403 0.0250909042 -0.0099243903
0.0291946080 0.0319601381 -0.0057317641
0.0294966949 0.0178469753 -0.0042408104
0.0297112242 0.0198988738 -0.0017430915
0.0297071214 0.0209027456 0.0019747717
0.0296354099 0.0320442437 0.0029345676
0.0293797190 0.0184383314 0.0044398949
-0.0294402392 0.0313814306 0.0042920163
-0.0297151569 0.0313717447 0.0016934971
-0.0296014349 0.0337856850 -0.0030213450
-0.0296405665 0.0198987604 -0.0025657441
-0.0288328623 0.0340019236 -0.0075170375
-0.0288105528 0.0360444963 -0.0076077766
-0.0276933763 0.0192994068 -0.0109784566
-0.0264916431 0.0168237035 -0.0136098953
-0.0246194510 0.0326764114 -0.0167865957
-0.0240105766 0.0218616233 -0.0175835730
-0.0218684220 0.0279177028 -0.0201866981
-0.0194686620 0.0214854484 -0.0225120346
-0.0191094740 0.0229645496 -0.0228057403
-0.0254589910 0.0357759219 0.0154730395
-0.0230540603 0.0297599126 0.0188258262
-0.0216186657 0.0238926148 0.0204823603
-0.0207742533 0.0332806611 0.0213159821
-0.0179107788 0.0217285724 0.0237617985
-0.0149937044 0.0204471347 0.0257003760
-0.0138610494 0.0308030204 0.0263400212
-0.0119694612 0.0330663887 0.0272406963
-0.0080717224 0.0285779116 0.0286373406
-0.0059399267 0.0323447047 0.0291656670
-0.0033032553 0.0256772199 0.0296110982
-0.0017334954 0.0374123188 0.0297008637
0.0025513693 0.0378762810 0.0296540942
0.0038905254 0.0163512747 0.0295203244
0.0090393206 0.0211680097 0.0283532286
0.0102493275 0.0254154141 0.0279676232
0.0131385679 0.0254116936 0.0267466329
0.0161038495 0.0314102416 0.0250734429
0.0181895965 0.0167703331 0.0235592247
0.0193595772 0.0290977849 0.0226143594
0.0212340231 0.0281285295 0.0208940095
0.0228238086 0.0371057954 0.0190915509
0.0251123009 0.0224051611 0.0159692739
-0.0155464108 -0.0131192898 -0.0234824376
-0.0257421699 0.0009621954 -0.0114352711
-0.0264921003 0.0087747544 -0.0095413841
-0.0276873033 0.0027010873 0.0052264502
-0.0280006988 -0.0153346305 0.0029597214
-0.0281460058 0.0056175749 0.0015319463
-0.0281541147 -0.0159890801 0.0003901811
-0.0280695909 0.0046175178 -0.0023269884
-0.0279596479 -0.0052764075 -0.0033457314
-0.0274573117 0.0119534403 -0.0062247853
-0.0246998555 -0.0117553610 -0.0135902890
-0.0229494647 0.0090600485 -0.0163811234
-0.0225439037 -0.0157311307 -0.0168877189
-0.0212496411 0.0138926182 -0.0185008723
-0.0203425481 0.0032704680 -0.0194825499
-0.0180516186 -0.0010129573 -0.0216238040
-0.0172785378 0.0089449595 -0.0222125359
-0.0161337375 -0.0112950121 -0.0231199881
-0.0179927351 -0.0202618059 -0.0239621436
-0.0298041737 -0.0195216849 0.0034199097
-0.0104586089 -0.0188512013 -0.0282649572
0.0066819212 -0.0178003287 -0.0291138445
0.0228871495 -0.0186530624 -0.0192202205
0.0291971757 -0.0211055325 -0.0064694002
0.0295922727 -0.0208259095 0.0051992819
0.0179654479 -0.0190968259 0.0239427315
0.0001699478 -0.0194877886 0.0299416006
-0.0153912291 -0.0206173894 0.0256113406
-0.0267534521 -0.0177376196 0.0134364508
0.0068988105 -0.0143009660 0.0302294228
-0.0147545678 0.0059931526 0.0305959157
0.0119824333 0.0104849663 0.0306000440
-0.0146515671 -0.0181168145 0.0273839058
-0.0073653948 0.0189259060 0.0302589941
-0.0212890015 0.0010322254 0.0228018914
-0.0178807206 0.0017406679 0.0313237074
-0.0012456939 0.0197294422 0.0311271876
-0.0181706350 -0.0014391831 0.0288416891
-0.0082299761 -0.0159794836 0.0325018423
-0.0176743254 0.0059597833 0.0278117721
-0.0194963263 0.0030065335 0.0251296065
0.0226742346 0.0039661832 0.0211095593
0.0197412948 0.0094757410 0.0240540674
0.0174095439 -0.0121767232 0.0259057016
0.0187258385 -0.0122386943 0.0247288756
0.0157561727 0.0129134957 0.0271136532
0.0119045068 0.0135265195 0.0309538562
0.0181372774 0.0005332419 0.0289818720
0.0130480109 -0.0134323251 0.0292217770
0.0123526141 -0.0129867987 0.0322767598
0.0164036727 0.0112826358 0.0268688584
-0.0030337666 0.0366399214 0.0308298593
-0.0080922893 0.0226544447 0.0299061298
-0.0067219332 0.0341787568 0.0302513708
-0.0115265170 0.0313830532 0.0287296766
-0.0122713412 0.0248148924 0.0284103922
-0.0158292955 0.0221634333 0.0265991292
-0.0201540260 0.0270626808 0.0235407462
-0.0189830329 0.0318031209 0.0244920399
-0.0211601981 0.0229761227 0.0226418854
-0.0246363047 0.0264973349 0.0187650892
-0.0251238700 0.0097715859 0.0180779311
-0.0238988330 -0.0020690734 0.0197223288
-0.0208446071 -0.0170326647 0.0228643393
-0.0191030491 -0.0201855079 0.0244065840
0.0144619792 -0.0196575380 0.0273453606
0.0234120120 -0.0177192705 0.0202709271
0.0236244406 0.0254665873 0.0200247006
0.0229999859 0.0010204105 0.0207350157
0.0250378248 0.0307019448 0.0181992003
0.0214542163 0.0277787738 0.0223589480
0.0225734679 0.0120909462 0.0212201752
0.0179790800 0.0238247532 0.0252099019
0.0151349978 0.0169400909 0.0269825871
0.0172369544 0.0193234325 0.0257432318
0.0125405327 0.0174646417 0.0283267515
0.0135816286 0.0251878891 0.0278752692
0.0018586160 0.0313601277 0.0309183808
0.0043336346 0.0351824865 0.0306616850
0.0006583941 0.0353067869 -0.0309631053
0.0011335132 0.0198597883 -0.0309369629
-0.0007909165 -0.0011482879 -0.0309542065
-0.0022045422 0.0088546638 -0.0308961172
-0.0254661190 -0.0132382671 0.0175955771
-0.0254095023 0.0054833855 0.0176753707
-0.0267221997 0.0113983235 0.0156358064
-0.0268265526 0.0063794264 0.0154469953
-0.0267087292 -0.0142619007 0.0156601793
-0.0282489376 0.0234552550 0.0126805041
-0.0280737558 -0.0090162782 0.0131034329
-0.0282661296 -0.0192276415 0.0126389988
-0.0292262686 0.0208986060 0.0103210049
-0.0293482412 -0.0026511531 0.0099336852
-0.0296871505 0.0045183756 0.0087573118
-0.0301689570 -0.0097080885 0.0070849345
-0.0304294153 0.0110803449 0.0056819037
-0.0306733866 0.0368175871 0.0042459846
-0.0307267187 -0.0013971866 0.0039320926
-0.0308743917 0.0145070688 0.0022366626
-0.0308079985 0.0019779534 0.0034189102
-0.0309272357 0.0098823068 0.0012956824
-0.0308812585 -0.0094650053 0.0021143875
-0.0309836113 0.0034017017 -0.0002918258
-0.0309324349 0.0233960541 -0.0012031113
-0.0308348204 0.0054372730 -0.0029413095
-0.0305998169 0.0113176593 -0.0046789857
-0.0304096067 0.0196270837 -0.0057984789
-0.0305152257 -0.0119247789 -0.0051768519
-0.0302264550 -0.0171465867 -0.0068764286
-0.0298747911 0.0082515769 -0.0081059913
-0.0296244318 -0.0126478255 -0.0089750103
-0.0298815513 -0.0209353228 -0.0080825258
-0.0289005565 0.0013896941 -0.0111073493
-0.0291142017 0.0132980298 -0.0105915659
-0.0284286713 -0.0204400290 -0.0122465768
-0.0288096970 -0.0021083395 -0.0113267028
-0.0266997122 0.0313214484 -0.0156764970
-0.0267579867 -0.0198880130 -0.0155710567
-0.0265977384 -0.0023164501 -0.0158610053
-0.0262464002 0.0325293298 -0.0164958864
-0.0259922633 0.0047556998 -0.0168540582
-0.0249038797 0.0131699272 -0.0183879892
-0.0226997212 0.0333910451 -0.0210481412
-0.0240514365 0.0304814128 -0.0195355767
-0.0225963940 0.0154027718 -0.0211637640
-0.0230241320 -0.0190377536 -0.0206851267
-0.0201612105 0.0305363666 -0.0234923334
-0.0210100810 0.0298740946 -0.0227337332
-0.0211559393 -0.0202933474 -0.0226033857
-0.0174895321 0.0278315493 -0.0255413753
-0.0172512698 0.0311718663 -0.0257104324
-0.0175750790 -0.0191126529 -0.0254806762
-0.0173853280 0.0103067059 -0.0256153125
-0.0150873555 0.0209685233 -0.0270253214
-0.0147734024 0.0083846452 -0.0271988352
-0.0144364479 -0.0010046380 -0.0273850613
-0.0132461010 0.0304951999 -0.0280146486
-0.0130612172 0.0269728505 -0.0280912298
-0.0107997533 0.0106491006 -0.0290279571
-0.0104978853 0.0080851999 -0.0291529947
-0.0090072405 0.0071192906 -0.0296151450
-0.0069339936 -0.0000444144 -0.0302124522
-0.0090138750 -0.0042306731 -0.0296132336
-0.0058494969 0.0149770728 -0.0304009506
-0.0066638505 -0.0130983648 -0.0302625877
-0.0045363661 0.0015136162 -0.0306240583
-0.0022003780 -0.0185790556 -0.0308986951
-0.0019348044 -0.0094204580 -0.0309182618
0.0027827474 0.0062100152 -0.0308551862
0.0040417587 0.0145689328 -0.0307080947
0.0060055890 -0.0151137739 -0.0303744297
0.0041494797 -0.0185849038 -0.0306897923
0.0080654904 0.0309100350 -0.0298864654
0.0080196719 0.0295561708 -0.0298996658
0.0087741531 0.0039173958 -0.0296822980
0.0098930572 0.0300319576 -0.0293599392
0.0107119280 0.0074473859 -0.0290643354
0.0127422281 0.0049966755 -0.0282233592
0.0128539299 0.0198093508 -0.0281770909
0.0143942160 0.0131941196 -0.0274084018
0.0140976255 0.0252104798 -0.0275723198
0.0150053102 0.0073507371 -0.0270706657
0.0165648616 0.0321964222 -0.0261974679
0.0167993054 0.0140513008 -0.0260311201
0.0185013172 -0.0206885478 -0.0248234712
0.0183325616 -0.0055835932 -0.0249432103
0.0194417845 0.0240174920 -0.0241352544
0.0210372648 0.0287725489 -0.0227094402
0.0215485981 0.0217692650 -0.0222524829
0.0225401247 0.0183834189 -0.0212267292
0.0220185663 0.0152688576 -0.0218103511
0.0239796270 0.0308688606 -0.0196159312
0.0228562991 -0.0142480441 -0.0208729312
0.0250493725 0.0067323361 -0.0181829365
0.0257971211 -0.0101701922 -0.0171290851
0.0251927101 -0.0145060090 -0.0179809214
0.0270818407 0.0326300929 -0.0149850850
0.0263402992 -0.0117005461 -0.0163268080
0.0275413492 -0.0186822621 -0.0141536640
0.0279571573 0.0061092991 -0.0133849085
0.0284856675 0.0242024742 -0.0121089763
0.0287782232 -0.0197473153 -0.0114026870
0.0283162670 -0.0206596130 -0.0125179438
0.0293574035 -0.0104264011 -0.0099018887
0.0296925196 0.0360683602 -0.0087386713
0.0295799290 -0.0208845452 -0.0091294834
0.0305419283 0.0182826372 -0.0050196922
0.0304178469 0.0273741956 -0.0057499805
0.0307999346 -0.0013820897 -0.0035011816
0.0307295696 0.0289069732 -0.0039153190
0.0309488750 0.0247053073 -0.0009103658
0.0309009700 0.0003338226 -0.0017633999
0.0309848075 -0.0185152603 -0.0002705255
0.0309197383 0.0145729064 0.0014291875
0.0309822573 0.0351481698 0.0003159271
0.0308642614 -0.0124629044 0.0024170513
0.0308430316 0.0201420987 0.0027950851
0.0304713054 0.0334006859 0.0054353555
0.0302373135 0.0014843696 0.0068125401
0.0302795162 -0.0208259123 0.0065641513
0.0298031259 0.0310331885 0.0083547547
0.0297995597 0.0239134901 0.0083671335
0.0300087433 -0.0134071387 0.0076410452
0.0291483177 0.0169698079 0.0105091963
0.0292591003 -0.0094682321 0.0102417418
0.0284657240 0.0052856009 0.0121571325
0.0282689517 -0.0181441518 0.0126321857
0.0277854008 -0.0098018746 0.0137121021
0.0278143319 0.0268720888 0.0136597557
0.0266145558 0.0077178243 0.0158305721
0.0258126948 0.0174645142 0.0171071249
0.0261727768 -0.0029229303 0.0165996376
0.0075582443 -0.0214407157 -0.0293537214
-0.0179957774 -0.0214685069 0.0249017864
-0.0021842216 -0.0214046708 0.0300185080
-0.0227687645 0.0380000100 -0.0192092504
0.0031624330 0.0378285318 0.0303071232
0.0205214033 0.0379496806 -0.0218725504
0.0088626859 0.0146598415 0.0331839552
-0.0004871350 -0.0173185433 0.0332453608
0.0252362307 -0.0172698654 0.0098604255
0.0073675510 -0.0172999874 0.0285448407
-0.0190531766 -0.0172999874 0.0220884449
-0.0260064741 -0.0172999874 -0.0135156425
-0.0101057321 -0.0172999874 -0.0266873548
-0.0075532629 -0.0074044034 0.0295181047
0.0082081969 -0.0066308639 0.0283011790
0.0025631924 0.0101790269 0.0282334068
-0.0037459838 0.0137352367 0.0299999956
0.0137127198 -0.0060346613 0.0299999956
-0.0031309218 -0.0119664052 0.0299999956
-0.0117443575 0.0104385122 0.0299999956
0.0124059528 -0.0036377807 0.0299999956
0.0050879798 -0.0149703589 0.0299999956
-0.0128061195 -0.0044805762 0.0290394166
0.0122931835 0.0041845424 0.0290617191
-0.0094175534 -0.0152858140 0.0242886830
0.0128222929 -0.0140415565 0.0248318181
0.0099964521 -0.0078000212 0.0240063741
0.0241845704 0.0206439079 0.0118998539
0.0248870459 0.0096910652 0.0088276775
0.0239402148 -0.0007081966 0.0098559780
0.0237974987 0.0050853605 0.0110466064
0.0241761344 -0.0122968430 -0.0117127399
0.0085002864 -0.0094104078 -0.0265973725
0.0121596771 -0.0150851880 -0.0243237331
-0.0087870787 0.0190952980 -0.0264558196
-0.0108557664 0.0128614981 -0.0237379209
-0.0096434599 0.0103257859 -0.0240549502
-0.0089897974 -0.0011070587 -0.0246080757
-0.0238270912 -0.0128338371 -0.0101463903
-0.0238555025 -0.0024643585 0.0114682625
-0.0257890172 0.0342582633 0.0087295684
-0.0241498615 -0.0133562354 0.0093976609
-0.0238509576 -0.0165063658 0.0099740519
-0.0238599964 0.0138083473 0.0114658326
0.0265980659 -0.0155301327 0.0108146577
0.0109650864 -0.0104246253 0.0264362967
-0.0111726988 -0.0158787065 0.0248666343
-0.0251113971 -0.0136209411 -0.0114195559
-0.0108969278 -0.0112634324 -0.0248196750
0.0099313099 -0.0167997022 -0.0263997021
0.0134508935 0.0104630956 0.0327794608
-0.0169420259 -0.0006268840 0.0323823777
0.0066859140 -0.0152147472 0.0317673249
-0.0162150650 0.0009905898 0.0317273425
0.0008243475 -0.0140612480 0.0290000085
-0.0134083675 -0.0015543300 0.0290000085
0.0018242403 0.0119799826 0.0290000085
0.0134167543 -0.0020377459 0.0290000085
-0.0271465252 0.0379642332 -0.0141781274
0.0280500621 -0.0192808240 0.0115706709
-0.0268392929 0.0364683801 0.0108676206
-0.0071193075 0.0254086561 -0.0288268113
-0.0087473601 0.0258628457 -0.0263526654
-0.0143607956 0.0190836281 -0.0258876375
0.0280101716 0.0234216945 0.0085069521
0.0250944095 0.0302798358 0.0127438792
-0.0250428697 0.0325672893 0.0126797950
-0.0255510025 0.0364993821 0.0152953979
-0.0100361643 0.0347671759 -0.0254820163
-0.0245207508 -0.0078000212 0.0132757129
0.0194037938 -0.0172073848 0.0205143337
0.0100030929 0.0145787616 -0.0264186014
-0.0264529586 0.0145835007 0.0077403549
-0.0196514868 0.0152002879 -0.0213915101
-0.0029898615 0.0148333840 0.0282106887
-0.0226903803 -0.0126812254 -0.0158509049
-0.0130574320 -0.0151062653 -0.0245080536
-0.0268640381 -0.0140040244 0.0073734687
-0.0116054858 -0.0132621244 0.0253760856
0.0001755762 -0.0127234361 0.0278003741
0.0106519577 -0.0155984878 0.0258500940
0.0204095328 -0.0141162419 0.0191215112
0.0245796193 -0.0162039770 -0.0129821616
0.0077907188 -0.0162157560 -0.0268073149
0.0240049109 -0.0177217271 -0.0160451890
0.0160021286 -0.0183250906 0.0240696593
-0.0239323156 -0.0202798237 0.0155976565
-0.0253619127 -0.0179152189 -0.0159748045
0.0290617292 -0.0191443096 -0.0069518153
-0.0201352678 -0.0194540979 -0.0221324628
-0.0297979100 -0.0178970498 -0.0023939295
-0.0049791194 -0.0197195073 0.0294704579
0.0196984066 -0.0177505399 0.0224404235
0.0265799332 -0.0180966080 -0.0138217521
0.0084682952 -0.0190604367 -0.0285984377
0.0258482662 -0.0173000004 0.0133739822
0.0011571942 -0.0173003886 0.0291342000
-0.0282583563 -0.0173000004 -0.0036729494
0.0023632819 -0.0173116103 -0.0289208958
0.0101889670 -0.0125000002 -0.0249681351
-0.0254746751 -0.0125000002 -0.0065714841
-0.0245455850 -0.0125000002 0.0099945865
-0.0116356189 -0.0125000002 0.0229595778
0.0238006072 -0.0125000002 0.0122332132
-0.0202949903 -0.0173355314 -0.0144613547
0.0046663080 -0.0164253293 0.0245141056
-0.0027004893 -0.0140309433 -0.0247556995
0.0097066788 -0.0132680632 -0.0229202069
0.0211913654 -0.0154324827 -0.0130973483
0.0246176910 -0.0165408008 0.0040513224
0.0180141410 -0.0140919792 0.0171269930
-0.0005867379 -0.0141471060 0.0249105558
-0.0109062402 -0.0139292394 0.0224787541
-0.0226191695 -0.0162264831 0.0103389730
-0.0236941119 -0.0170459275 -0.0074445956
-0.0143288071 -0.0144610887 -0.0202723448
0.0020500587 -0.0197793351 -0.0253300886
0.0248360685 -0.0200406186 -0.0053268498
0.0158236467 -0.0191689815 0.0198666738
-0.0147019914 -0.0183568629 0.0206604223
-0.0246930365 -0.0191673669 -0.0060437484
0.0061005192 -0.0203000009 -0.0254534410
0.0185191506 -0.0203000009 -0.0200659842
0.0254190505 -0.0203000009 0.0067767920
0.0057925794 -0.0203000009 0.0265205990
-0.0115251896 -0.0202470528 0.0264775739
-0.0107268805 -0.0203000009 0.0262469341
-0.0254985641 -0.0203000009 0.0012651526
-0.0233195912 -0.0203000009 -0.0154110523
-0.0178286606 -0.0203000009 -0.0224058340
0.0274482881 -0.0203000009 0.0000778933
-0.0280900475 -0.0203000009 0.0071093114
0.0127863561 -0.0203000009 -0.0242281876
-0.0050103549 -0.0175927493 -0.0289443352
-0.0258983593 -0.0151990259 0.0044591572
-0.0148291083 -0.0165231998 0.0216079825
0.0064889392 -0.0145474195 0.0257087204
0.0230475391 -0.0167150219 0.0131547592
0.0290615826 -0.0176712798 -0.0049799506
0.0168320141 -0.0140933165 -0.0223546457
-0.0171442494 -0.0179414844 0.0182783263
0.0115455537 -0.0178315328 -0.0221155696
-0.0185914880 -0.0127707430 -0.0172313827
0.0189212846 -0.0126720063 0.0165046991
-0.0279471154 -0.0175858828 0.0101480855
-0.0164170457 -0.0201896774 0.0246523423
-0.0138907797 -0.0157305700 -0.0237714651
-0.0237631814 -0.0168944928 0.0138999420
0.0149885589 -0.0164907760 0.0209853287
0.0208479582 -0.0142599916 -0.0156925815
0.0169771152 -0.0165284883 0.0216994855
