-0.0046380504 -0.0326999985 0.0020308699
0.0051215728 -0.0326999985 0.0007021257
-0.0074177872 -0.0285376483 0.0064564996
0.0069284506 -0.0290182850 0.0069261739
0.0060060971 -0.0288295363 -0.0077096593
0.0107397334 -0.0246000011 0.0044287182
-0.0112828825 -0.0246000011 -0.0194502082
0.0210997454 -0.0246000011 -0.0044581474
0.0108821433 -0.0246000011 0.0192287496
0.0103640230 -0.0246000011 0.0139573770
0.0233488885 -0.0246000011 0.0029926352
0.0223564686 -0.0246000011 0.0092672344
0.0255669138 -0.0246000011 -0.0084454290
-0.0154281741 -0.0246000011 -0.0188860524
0.0087006975 -0.0246000011 -0.0139600700
0.0142242419 -0.0246000011 -0.0117143780
0.0038039853 -0.0246000011 -0.0188490790
-0.0170029160 -0.0246000011 0.0097827552
-0.0135087275 -0.0246000011 0.0134850651
-0.0078869513 -0.0246000011 0.0278446417
0.0066530381 -0.0246000011 0.0247584155
-0.0015318612 -0.0246000011 0.0161952908
-0.0244147622 -0.0246000011 0.0092860760
-0.0216065194 -0.0246000011 -0.0023950933
0.0036898621 -0.0018093353 0.0024120290
0.0028770958 0.0278257372 0.0033501390
-0.0011121253 0.0103314498 0.0043301256
-0.0027594879 0.0322557687 0.0034073941
-0.0037609790 0.0033742154 0.0022672753
-0.0043301256 -0.0124216888 0.0001633920
-0.0040720109 -0.0054062527 -0.0017137825
-0.0029701680 -0.0042210757 -0.0033153307
-0.0016242725 -0.0310347491 -0.0041137501
-0.0008899206 0.0296352739 -0.0043301256
0.0027958996 0.0309986584 -0.0033893927
0.0039548052 0.0025379446 -0.0019350393
0.0043301256 0.0171102146 -0.0009131395
0.0042890367 0.0232821657 0.0012483691
0.0016213642 0.0324999951 -0.0204966009
-0.0160125997 0.0324999951 -0.0152985298
0.0036353535 0.0324999951 0.0051440266
-0.0049844129 0.0324999951 -0.0155581425
-0.0147790730 0.0324999951 -0.0239683529
0.0069178279 0.0324999951 0.0280593861
0.0162336099 0.0324999951 0.0185751159
-0.0020791246 0.0324999951 0.0066208846
-0.0185802807 0.0324999951 0.0167062980
-0.0084300441 0.0324999951 0.0153521594
-0.0266284892 0.0324999951 0.0032535669
-0.0163711523 0.0324999951 0.0066831036
-0.0144148474 0.0324999951 -0.0076717594
-0.0179029021 0.0324999951 -0.0029789438
0.0076954719 0.0324999951 -0.0181533056
0.0001953240 0.0142869104 -0.0299852954
-0.0028591485 0.0163912842 -0.0298275012
0.0299526332 0.0433668211 0.0001757135
0.0298951774 0.0391354157 -0.0019357103
0.0215292100 0.0025313378 -0.0208778820
0.0200821998 0.0117451928 -0.0222629845
0.0219946940 0.0176834311 -0.0203960500
0.0120038679 -0.0138766068 -0.0274367104
0.0118492682 0.0159097866 -0.0275028839
0.0088610625 -0.0124173662 -0.0286093423
0.0049832948 -0.0066512946 -0.0295292491
0.0048223957 0.0136076778 -0.0295562241
-0.0148305673 0.0248226708 -0.0260332138
-0.0161705200 -0.0079783786 -0.0252137522
-0.0130336416 0.0093755362 -0.0269686692
-0.0102476540 -0.0141294912 -0.0281623956
-0.0089247023 0.0005928731 -0.0285869732
-0.0073219843 -0.0031389158 -0.0290850301
-0.0039707339 0.0172961895 -0.0297343528
-0.0193745141 -0.0046574311 -0.0228387160
-0.0177213112 -0.0065823432 -0.0241635974
-0.0214519148 0.0266089361 -0.0209026634
-0.0244627523 -0.0223917239 -0.0173283150
-0.0240453254 -0.0014177699 -0.0178664494
-0.0267592340 0.0256928134 -0.0134655160
0.0298780832 0.0143328778 0.0023084997
0.0298733858 -0.0222695109 0.0019179872
0.0295599969 0.0174961948 0.0048255835
0.0293012533 -0.0091031494 0.0063618766
0.0292577386 -0.0177654392 0.0065231107
0.0268125566 -0.0212329173 0.0133172944
0.0271248965 0.0148171934 0.0127150850
0.0235483120 0.0081896882 -0.0185129644
0.0250561447 -0.0004007880 -0.0164034374
0.0270961547 0.0223052145 -0.0127563036
0.0276825678 0.0016263943 -0.0115465952
0.0284320644 0.0286207536 -0.0094110595
0.0285506974 0.0216668621 -0.0090671968
0.0295188003 0.0330087274 -0.0051804770
0.0292825064 -0.0131693573 -0.0062727423
0.0298847687 -0.0059395080 -0.0018984122
0.0164650166 0.0065854404 -0.0250734636
0.0168136244 0.0071531465 -0.0248219166
0.0181230717 -0.0099622647 -0.0238051933
-0.0008125222 0.0314335931 0.0299424810
0.0011089804 -0.0077366178 0.0299680759
-0.0215492200 0.0260574105 0.0208379057
-0.0221059604 0.0313089088 0.0202630585
-0.0299646071 0.0133807834 -0.0004066249
-0.0297532357 0.0198943243 0.0034054980
0.0251753771 0.0021461785 0.0162394709
0.0264867064 0.0263780702 0.0139573319
-0.0297596324 -0.0025037350 -0.0031631859
-0.0298002093 0.0297626166 -0.0031741133
-0.0289320785 -0.0213628205 -0.0077297720
-0.0276273191 0.0297028151 -0.0115631459
-0.0275189210 -0.0089732641 -0.0117357313
-0.0220355772 -0.0210126381 0.0203552335
-0.0254972644 -0.0203294697 0.0157160501
-0.0267544054 0.0224816883 0.0134612966
-0.0272518323 -0.0162129027 0.0124351572
-0.0282848812 -0.0213260271 0.0098376759
-0.0292970691 0.0073807071 0.0062054264
-0.0294108313 -0.0132887048 0.0056795621
-0.0297447805 -0.0174577634 0.0034834499
-0.0037984013 0.0213030135 0.0297278984
-0.0047112466 -0.0198556539 0.0295748584
-0.0096766438 -0.0085525232 0.0283701569
-0.0104440555 0.0054464137 0.0281043591
-0.0128985820 0.0011289122 0.0270537447
-0.0162628597 0.0170223807 0.0251901789
-0.0166654462 -0.0014087639 0.0249328792
-0.0189763441 0.0225178343 0.0231988610
0.0169041526 0.0247508566 0.0247650918
0.0129652763 0.0020266336 0.0269999991
0.0113217908 0.0220148740 0.0277531635
0.0104057167 0.0015139334 0.0281116682
0.0072682387 0.0223910168 0.0290954436
0.0048355960 0.0175701225 0.0295667811
0.0013115754 -0.0203897902 0.0299578545
0.0197907661 -0.0138660021 0.0224960596
0.0211276169 0.0162420408 0.0212358516
0.0235517779 0.0260725750 0.0184845318
0.0235238104 -0.0093280570 0.0185097806
0.0164199278 0.0388543940 0.0122391807
0.0108019556 0.0376290091 0.0086601377
0.0084976903 0.0393151832 -0.0049360591
0.0043684725 0.0334558657 -0.0098835001
0.0114810090 0.0327671078 -0.0242889965
0.0066820179 0.0443000011 -0.0136879258
0.0234034548 0.0443000011 -0.0108292745
0.0294627198 0.0443000011 0.0021149795
0.0114782366 0.0443000011 -0.0071902154
0.0174114534 0.0443000011 0.0024128791
0.0201016778 -0.0213687724 -0.0186230716
0.0004519113 -0.0222759704 -0.0245569442
0.0000398193 -0.0225263696 0.0256005812
0.0231153011 0.0460671427 -0.0094848550
0.0264389607 -0.0372923571 0.0006967457
-0.0186933326 -0.0387827957 -0.0201158489
-0.0004009160 -0.0336612849 0.0278640390
0.0156534708 -0.0342108896 0.0251065142
-0.0254189194 -0.0334546071 0.0149741003
-0.0175365871 -0.0395000018 0.0136817975
-0.0075462051 -0.0395000018 0.0131711440
-0.0093937407 -0.0395000018 0.0222445573
-0.0258242613 -0.0395000018 0.0029320724
-0.0165917428 -0.0395000018 -0.0021650159
0.0022648299 -0.0395000018 0.0156716983
0.0016972280 -0.0395000018 0.0158683932
0.0100966201 -0.0395000018 0.0195805713
0.0168009417 -0.0395000018 0.0163979579
0.0197719563 -0.0395000018 0.0000898004
0.0114561600 -0.0395000018 -0.0069798374
0.0033849196 -0.0395000018 -0.0216338090
0.0112725179 -0.0395000018 -0.0268516401
0.0007879375 -0.0395000018 -0.0066195418
-0.0119125783 -0.0395000018 -0.0188428611
-0.0180484117 -0.0395000018 0.0190006573
-0.0153495685 -0.0395000018 -0.0098687231
-0.0096372674 -0.0395000018 -0.0127996322
0.0257941445 -0.0395000018 0.0032357952
0.0131507547 -0.0395000018 0.0078577451
0.0223556919 -0.0395000018 -0.0051488358
0.0042238728 -0.0336039949 -0.0004743718
0.0256016468 -0.0289456637 -0.0154001066
-0.0074687116 -0.0277340369 0.0289879727
-0.0145708194 -0.0372581251 0.0260162231
0.0158067278 -0.0393862412 0.0252403430
0.0054990554 -0.0386489926 0.0293962658
-0.0027495912 -0.0264634448 0.0298117467
0.0257952512 -0.0344096110 0.0150408652
0.0195189808 -0.0282267418 0.0225843009
0.0274781570 -0.0388459562 -0.0119038793
0.0298687853 -0.0265386860 -0.0022846813
-0.0288720376 -0.0283473121 -0.0077999073
0.0080938118 -0.0305346626 -0.0288747731
0.0120182681 -0.0295237437 -0.0274464725
0.0219635234 -0.0379015722 -0.0202305817
-0.0093511663 -0.0394555174 -0.0284018752
-0.0008701908 -0.0355926495 -0.0299041542
-0.0262135520 -0.0277192765 -0.0144185758
-0.0218445289 -0.0315840943 -0.0205063997
-0.0281377917 -0.0268748434 0.0099816878
-0.0295740703 -0.0322820070 0.0043514550
-0.0237464270 -0.0319805191 0.0182065866
0.0082956955 -0.0326999985 -0.0012825520
-0.0201104963 -0.0247000009 -0.0139878566
-0.0101060830 -0.0247000009 -0.0217173964
-0.0138873027 -0.0247000009 -0.0260086463
-0.0051108789 -0.0247000009 -0.0149850960
0.0025640395 -0.0247000009 -0.0201761098
0.0067886635 -0.0247000009 -0.0129864931
0.0096762757 -0.0247000009 -0.0226874960
0.0106167212 -0.0247000009 -0.0077249281
0.0205904639 -0.0247000009 -0.0081166523
0.0285196456 -0.0247000009 0.0081567703
0.0183133837 -0.0247000009 0.0114059794
0.0030056387 -0.0247000009 0.0207170324
0.0192816011 -0.0247000009 0.0200186931
0.0079843762 -0.0247000009 0.0162576685
-0.0265062281 -0.0247000009 -0.0084630079
-0.0193266103 -0.0247000009 0.0180369987
-0.0146728265 -0.0247000009 0.0034717069
-0.0050933132 -0.0247000009 0.0278380906
-0.0093248395 -0.0247000009 0.0209275284
-0.0004053045 -0.0288998825 0.0098104126
0.0096500174 -0.0248253711 -0.0001561465
-0.0019365145 -0.0276559794 -0.0096021952
-0.0090502786 -0.0323637741 0.0038381515
-0.0360216847 -0.0276373917 0.0147717091
-0.0134624238 -0.0252427318 0.0365076154
0.0114249337 -0.0275973070 0.0372526774
0.0343511493 -0.0269806013 0.0183896362
0.0379753346 -0.0263711357 -0.0084970798
0.0198186744 -0.0288622539 -0.0335737251
-0.0155275758 -0.0251222370 -0.0356674866
-0.0362628022 -0.0255262277 -0.0140621465
-0.0149541046 -0.0285957408 -0.0392061426
-0.0215673881 -0.0292363971 -0.0337156929
0.0335168561 -0.0293488434 0.0207975351
0.0236392550 -0.0138613443 -0.0559507996
-0.0011028078 -0.0408578261 -0.1500126917
0.0067360101 -0.0283184676 -0.0647556151
0.0157237938 0.0246153237 -0.0655898795
-0.0240500881 0.0134754983 -0.0567544680
0.0229657588 0.0149774264 -0.0568540808
-0.0262747818 -0.0031883576 -0.0507767627
0.0184084972 -0.0246305609 -0.0729442218
0.0212763476 -0.0229059868 -0.0753371846
0.0256545761 0.0124393121 -0.0620772186
0.0223874596 0.0176823045 -0.0617638892
0.0200579514 0.0218225339 -0.0675470035
-0.0176337218 0.0235217765 -0.0664793541
-0.0230262329 0.0225948937 -0.0803908163
-0.0279671285 -0.0190821587 -0.0878484964
-0.0262666637 -0.0211191638 -0.0872713214
-0.0182710008 -0.0211834123 -0.0596366281
-0.0164789198 -0.0235650142 -0.0629660702
0.0114624117 -0.0279867805 -0.0703291635
0.0166329113 -0.0256654917 -0.0721734040
0.0240690095 -0.0151364262 -0.0617426081
0.0274348500 -0.0130185237 -0.0710267962
0.0283999267 -0.0094049870 -0.0689369550
0.0337392284 -0.0097362448 -0.0942723535
0.0296017609 -0.0028822503 -0.0681287819
0.0317809470 -0.0007779495 -0.0778413115
0.0281521003 0.0027447165 -0.0607808922
0.0311511112 0.0063092008 -0.0779712634
0.0313193102 0.0092419152 -0.0820410455
0.0305509711 0.0136970801 -0.0863576349
0.0171748012 0.0252723803 -0.0720582368
0.0114803296 0.0279502845 -0.0705827256
0.0056045599 0.0286092587 -0.0650627970
0.0061526957 0.0333627497 -0.0886127760
-0.0005928948 0.0304013592 -0.0710650667
-0.0115532975 0.0297433545 -0.0787950945
-0.0146207191 0.0280092319 -0.0770001418
-0.0286180010 0.0201603122 -0.0937309557
-0.0303189879 0.0174502882 -0.0937264474
-0.0301227177 0.0125994473 -0.0821687824
-0.0317526198 0.0119166543 -0.0884097775
-0.0342289118 0.0072468888 -0.0938135434
-0.0324649828 0.0000281845 -0.0816818198
-0.0345420321 -0.0001758632 -0.0916749837
-0.0300018723 -0.0071928759 -0.0738562666
-0.0336885720 -0.0090186482 -0.0931024279
-0.0279098399 -0.0117530863 -0.0708831707
-0.0297243938 -0.0150356483 -0.0856345615
-0.0142221588 -0.0283226674 -0.0772824176
-0.0088316112 -0.0287250581 -0.0692114511
-0.0069199448 -0.0317021362 -0.0811061936
0.0024225909 -0.0327322148 -0.0833038111
0.0078140569 -0.0330345310 -0.0888281540
0.0212205720 0.0274868704 -0.0928322951
0.0093608578 0.0332386302 -0.0917640074
-0.0044840753 0.0318984097 -0.0801242986
-0.0171239759 -0.0294102789 -0.0889339397
-0.0019763646 -0.0350764717 -0.0951395272
0.0230255012 -0.0255609911 -0.0909891879
0.0273810106 -0.0223828198 -0.0963547365
0.0323871889 -0.0165232244 -0.1021794156
0.0361940424 -0.0004151126 -0.1006399413
0.0344791601 0.0120930782 -0.1037537994
0.0289158698 0.0209785456 -0.0982507703
0.0187670839 0.0310809978 -0.1016599719
0.0000128341 0.0354597917 -0.0959826271
-0.0182835345 0.0309146181 -0.0995756935
-0.0245373757 0.0237774334 -0.0896498059
-0.0311553914 0.0182567172 -0.1008449011
-0.0352745198 0.0032157202 -0.0961329285
-0.0344297215 -0.0081040458 -0.0957332534
-0.0290074612 -0.0200910609 -0.0961909865
-0.0243792157 -0.0257544079 -0.0971585954
-0.0131595574 -0.0332552207 -0.0980898808
0.0019003711 -0.0385189890 -0.1180530371
0.0085529393 -0.0353017434 -0.1012982095
0.0187304337 -0.0315416790 -0.1042522999
0.0237518587 -0.0296798477 -0.1140700371
0.0304153912 -0.0208474897 -0.1057753758
0.0345463498 -0.0148737372 -0.1102162571
0.0364561651 -0.0060952831 -0.1062842347
0.0371960305 0.0004280915 -0.1071565383
0.0350684199 0.0114808393 -0.1062634505
0.0329936132 0.0174286262 -0.1088041948
0.0268772102 0.0269221872 -0.1136186027
0.0178251269 0.0324487981 -0.1059772193
0.0121128215 0.0347316482 -0.1047737775
0.0051612814 0.0383847157 -0.1190748670
-0.0035917851 0.0372275544 -0.1092982507
-0.0093856818 0.0353604994 -0.1031070769
-0.0172591147 0.0329021203 -0.1066818373
-0.0269524616 0.0264557850 -0.1123900929
-0.0307142999 0.0202797236 -0.1053719720
-0.0359777363 0.0127960552 -0.1153681847
-0.0372045751 0.0047318278 -0.1105224116
-0.0377273511 -0.0066678967 -0.1157013553
-0.0348887897 -0.0139817037 -0.1097313759
-0.0303283554 -0.0221303122 -0.1107980876
-0.0244164841 -0.0289490522 -0.1123768582
-0.0177895895 -0.0319082177 -0.1027839087
-0.0105078772 -0.0366662716 -0.1145227481
-0.0037220451 -0.0362338700 -0.1020984196
0.0063722103 -0.0388181824 -0.1265110764
0.0116067676 -0.0387599194 -0.1406700128
0.0151429186 -0.0367990481 -0.1322623174
0.0226893362 -0.0319365200 -0.1243355929
0.0268499670 -0.0293130841 -0.1314135174
0.0309782455 -0.0246615655 -0.1296666769
0.0339381117 -0.0213032295 -0.1357258403
0.0374052963 -0.0147942428 -0.1370978352
0.0396727984 -0.0078370360 -0.1403872124
0.0404298909 -0.0021872444 -0.1403857794
0.0384631114 0.0059903503 -0.1207638280
0.0389365820 0.0107784768 -0.1392860380
0.0353626454 0.0163773048 -0.1218514099
0.0339760909 0.0217356053 -0.1389711051
0.0296396227 0.0265251491 -0.1318701022
0.0260663151 0.0304339677 -0.1358213142
0.0201129156 0.0334468825 -0.1218623656
0.0156922866 0.0358717228 -0.1239016242
0.0097902724 0.0384043927 -0.1301445320
0.0033077795 0.0387296224 -0.1203395530
-0.0077268883 0.0382352160 -0.1219871288
-0.0100840489 0.0377786410 -0.1234833349
-0.0149298582 0.0370389160 -0.1340911899
-0.0205667708 0.0332696997 -0.1232215100
-0.0257150962 0.0304856727 -0.1334334351
-0.0304709195 0.0255701898 -0.1315213085
-0.0350552650 0.0201260502 -0.1401765216
-0.0367112659 0.0128036391 -0.1206680582
-0.0392574216 0.0082780652 -0.1364381652
-0.0399036898 0.0047909812 -0.1373099374
-0.0398744719 -0.0025740794 -0.1338959685
-0.0384013361 -0.0096710678 -0.1296211239
-0.0357159037 -0.0154338964 -0.1208919702
-0.0341598977 -0.0206037505 -0.1335588680
-0.0282266629 -0.0271270869 -0.1240974111
-0.0254348451 -0.0310767394 -0.1368514224
-0.0208761730 -0.0335954408 -0.1288524397
-0.0142488877 -0.0368191896 -0.1282960963
-0.0090464930 -0.0387905936 -0.1323440792
-0.0027058061 -0.0396429880 -0.1315114560
0.0078207037 0.0400580911 -0.1488653059
0.0095156093 0.0395362447 -0.1446858245
0.0180771094 0.0365837168 -0.1487029555
0.0230386908 0.0333538704 -0.1418456476
0.0292024602 0.0283202854 -0.1456539719
0.0329883559 0.0237277890 -0.1453515652
0.0383851207 0.0146649376 -0.1602085852
0.0402127166 0.0080635930 -0.1606442094
0.0408712152 0.0042358401 -0.1568023157
0.0409193763 -0.0012444312 -0.1522062345
0.0394641859 -0.0096623050 -0.1440866235
0.0384264761 -0.0132357673 -0.1446948642
0.0353819071 -0.0206234158 -0.1530256239
0.0321824903 -0.0249674671 -0.1470911295
0.0270591509 -0.0304967050 -0.1479341988
0.0200622959 -0.0358073627 -0.1562745627
0.0124375184 -0.0391034470 -0.1576151676
0.0098141221 -0.0397347387 -0.1522435837
0.0019750568 -0.0411109568 -0.1577234213
-0.0092476220 -0.0397746955 -0.1524131177
-0.0160849443 -0.0372438504 -0.1422960278
-0.0183875189 -0.0362491470 -0.1460744775
-0.0280309514 -0.0298255326 -0.1555863583
-0.0304655284 -0.0273519555 -0.1525861202
-0.0344752975 -0.0227281294 -0.1618721770
-0.0372116124 -0.0163888889 -0.1450374019
-0.0400751597 -0.0082518608 -0.1547207847
-0.0405659021 -0.0041128521 -0.1482482010
-0.0406255444 0.0004023667 -0.1455224001
-0.0396599904 0.0089895862 -0.1453450952
-0.0378498162 0.0157284062 -0.1560576543
-0.0367329879 0.0183609285 -0.1580596647
-0.0301453304 0.0274848116 -0.1519263074
-0.0258009155 0.0314052502 -0.1446374251
-0.0210920124 0.0350476641 -0.1542500510
-0.0139019364 0.0386930319 -0.1568282170
-0.0085699551 0.0400167275 -0.1510360613
0.0332522235 0.0161750139 -0.1579999924
0.0283723303 -0.0270234191 -0.1579999924
0.0131626666 -0.0371955812 -0.1579999924
-0.0295082836 -0.0264741553 -0.1579999924
-0.0394917143 -0.0008349227 -0.1579999924
-0.0242904015 0.0306855519 -0.1579999924
0.0112758723 0.0322363194 -0.1579999924
-0.0239438744 0.0319273592 -0.1612249393
-0.0398968939 0.0015785105 -0.1602460363
-0.0236696034 -0.0321867369 -0.1613939433
0.0084974167 -0.0389757549 -0.1600453623
0.0360286908 -0.0172259560 -0.1596541258
0.0333550071 0.0221693266 -0.1612742448
0.0070608240 0.0392684407 -0.1611301097
0.0249365754 -0.0062655084 -0.0408159457
0.0209042422 -0.0171148549 -0.0537401627
-0.0246668200 0.0075865259 -0.0464199295
-0.0219106519 0.0153570105 -0.0526073922
0.0283874384 -0.0131721226 -0.0236491937
0.0361139531 -0.0203210541 0.0075572034
0.0369762674 -0.0187943592 -0.0005724335
0.0211070275 -0.0214203752 0.0302893369
0.0274991387 -0.0217887920 0.0247932760
-0.0052663219 -0.0222215775 0.0365775534
0.0040868155 -0.0181273449 0.0367505157
-0.0299207042 -0.0173205077 0.0218202965
-0.0225863467 -0.0117456560 0.0292893307
-0.0368206108 -0.0213434996 -0.0033501941
-0.0367511511 -0.0178423093 0.0046431521
-0.0249117572 -0.0205807819 -0.0273610641
-0.0314019505 -0.0112378625 -0.0195136727
-0.0189047202 -0.0077914674 -0.0351642969
-0.0112065434 -0.0213939100 -0.0549794121
-0.0150776300 -0.0134169151 -0.0346137705
-0.0014231024 -0.0222176728 -0.0433406108
-0.0056243058 -0.0283710899 -0.0782305565
-0.0088531020 -0.0223152462 -0.0541766596
-0.0172268756 -0.0238105304 -0.0804839798
-0.0176704677 -0.0191791853 -0.0644229665
-0.0199622234 -0.0156505584 -0.0607705049
-0.0253501639 -0.0167124085 -0.0851588312
-0.0228547560 -0.0095834203 -0.0581462940
-0.0255979236 -0.0040182020 -0.0631192711
-0.0280365038 0.0015338151 0.0337394974
-0.0369702499 -0.0031434125 0.0234814671
-0.0021438106 0.0094933759 0.0436995146
-0.0013044015 0.0146124770 0.0436001289
-0.0360579744 0.0086401961 -0.0247256411
0.0000505031 0.0238560163 0.0429273668
-0.0203238054 0.0108255298 0.0387159076
-0.0272335775 0.0188817944 0.0336465847
-0.0303575355 0.0156895349 0.0311894187
-0.0334165127 0.0107783763 0.0282151775
-0.0399031297 0.0237101418 0.0156631852
-0.0401472303 0.0184859404 0.0165632885
-0.0425194979 0.0191751496 0.0088431829
-0.0434328985 0.0171522246 0.0006452505
-0.0422417702 0.0253056934 -0.0064270624
-0.0433263382 0.0035387898 -0.0067435384
-0.0405074281 0.0164518364 -0.0159152839
-0.0338402459 0.0247643660 -0.0258794325
-0.0289788093 0.0251666547 -0.0313413148
-0.0231007629 0.0134035090 -0.0395933414
-0.0246958274 0.0160580787 -0.0364817739
0.0184008128 0.0197243379 -0.0543858716
0.0267702229 0.0037108985 -0.0538523349
0.0258491845 0.0049510319 -0.0489958764
0.0154567916 0.0219350968 -0.0470619930
0.0098426224 0.0277714764 -0.0659396316
0.0261114908 0.0215883079 -0.0345330306
0.0237295884 0.0130210831 -0.0389534237
0.0252121553 0.0217194410 -0.0352410797
0.0436847876 0.0022139178 -0.0027104140
0.0385455345 0.0004972741 0.0207770356
0.0258794514 0.0049087232 0.0353619146
0.0178767026 0.0094546697 0.0399661090
0.0119974194 0.0175812488 0.0417535241
0.0309848683 0.0268354555 -0.0291624899
0.0431168824 0.0103961298 -0.0071417241
0.0281837947 0.0162323776 0.0331810770
0.0154190362 0.0215080355 0.0402006428
0.0286785443 0.0041313510 -0.0334169731
0.0346218073 0.0145954292 -0.0265788514
0.0388320077 0.0280481685 -0.0162142189
0.0412548427 0.0240278686 -0.0117408704
0.0429895702 0.0218288499 -0.0043359565
0.0436959511 0.0089021393 -0.0016515743
0.0431491060 0.0143948227 0.0060662803
0.0402025845 0.0232178599 0.0153290377
0.0410935534 0.0087255573 0.0149279037
0.0399749514 0.0006293694 0.0179411604
0.0313984409 0.0210436787 0.0297536041
0.0228702704 0.0244470962 0.0361319152
0.0214862387 0.0119715104 0.0381026118
0.0036124796 0.0210104488 0.0431038857
-0.0240504805 0.0270002024 -0.0349352959
-0.0357821346 0.0277753873 0.0216554493
0.0001967475 0.0292130597 -0.0414785018
0.0299222232 0.0286774045 -0.0289130178
0.0421068430 0.0273254560 0.0036371386
-0.0131390841 0.0244896152 -0.0580741941
-0.0136629030 0.0262287351 -0.0413504780
-0.0065644277 0.0262876573 -0.0544163985
-0.0255624323 0.0007001627 -0.0417492717
-0.0232153240 -0.0135063119 -0.0528891974
-0.0151378147 -0.0226472555 -0.0460228837
-0.0011213381 -0.0278447670 -0.0584573562
-0.0147359438 -0.0229950743 -0.0555365294
-0.0164918244 -0.0229860629 -0.0421321989
-0.0205686751 -0.0184622147 -0.0408499697
-0.0305753717 0.0013970179 -0.0314544548
-0.0431658180 0.0020415279 -0.0077475101
-0.0429918847 -0.0099664474 0.0084122513
-0.0307686694 -0.0054613826 0.0311516705
-0.0224048565 0.0002439886 0.0376304260
-0.0146429191 0.0041625536 0.0413470139
-0.0364442509 -0.0129944053 -0.0239282766
-0.0349306501 -0.0152996579 0.0259489360
-0.0285680677 -0.0203631361 -0.0324362189
-0.0347044359 0.0036816778 -0.0268402702
-0.0074824052 -0.0065270692 0.0431434237
-0.0401574374 -0.0112805537 -0.0171822882
-0.0433954693 -0.0155807955 -0.0045245577
-0.0239284168 -0.0065923196 0.0366680771
-0.0318493420 -0.0135105841 -0.0297064854
-0.0404986998 -0.0166168333 -0.0158706706
-0.0425008129 -0.0119795673 -0.0100800525
-0.0432455068 -0.0185739138 0.0028042384
-0.0432970932 -0.0034260175 0.0066681800
-0.0367323893 -0.0265047953 0.0212745896
-0.0399067503 -0.0174528735 0.0173102844
-0.0341412702 -0.0094441638 0.0273287529
-0.0179882523 -0.0130271977 0.0398156925
-0.0010273617 -0.0084452463 0.0437669534
0.0114158685 -0.0244022352 -0.0538520213
0.0152058864 -0.0224652423 -0.0447384454
0.0086910712 -0.0258320949 -0.0460776780
0.0262767059 -0.0250942643 -0.0337303862
0.0164878694 -0.0112359052 0.0404789538
0.0357285485 -0.0126201775 0.0251600181
0.0408244061 -0.0015059495 -0.0159489207
0.0330514957 -0.0129646251 -0.0284755494
0.0429840977 -0.0067902175 -0.0084621102
0.0065615730 -0.0057124793 0.0433071085
0.0300106411 -0.0114698458 0.0318603710
0.0379140467 -0.0277385883 0.0187264215
0.0433607609 -0.0113556662 0.0056064413
0.0322172633 -0.0255678133 -0.0279275403
0.0141146746 -0.0129161443 0.0412615340
0.0189486902 -0.0032616305 0.0395627596
0.0263546726 -0.0222732024 0.0341557916
0.0393330358 -0.0242514293 0.0168591066
0.0389464090 -0.0112025615 0.0196392746
0.0426692832 -0.0156642823 0.0084520226
0.0425951833 -0.0224640319 -0.0063740698
0.0385103694 -0.0263519018 -0.0177646252
0.0375970756 -0.0055412466 -0.0225477295
0.0279324856 -0.0058759145 -0.0341898511
0.0184945193 -0.0191702037 -0.0439672927
0.0264816227 -0.0160960652 -0.0348746248
-0.0274363716 -0.0283897441 -0.0317134029
-0.0292674950 -0.0282235704 0.0299214443
-0.0338298044 -0.0293236627 0.0209613181
0.0067914266 -0.0274187528 0.0417992331
0.0406466271 -0.0286766378 0.0099264561
0.0057383988 -0.0289617870 0.0412738768
0.0316242109 -0.0194622791 -0.1568640979
0.0302722265 -0.0128547091 -0.0997131025
0.0363199472 0.0071188858 -0.1525303608
0.0356971175 0.0079860906 -0.1346250635
0.0215353976 0.0297679568 -0.1373189710
0.0061128136 0.0364580171 -0.1554752089
-0.0046805487 0.0365897504 -0.1504000161
-0.0208162864 0.0305741352 -0.1492480168
-0.0293712961 0.0106988050 -0.0900110915
-0.0364387562 0.0059765739 -0.1487967275
-0.0349313021 -0.0077841111 -0.1238236790
-0.0304252623 -0.0207280837 -0.1415396435
-0.0120528427 -0.0305953667 -0.0990342203
0.0164449303 -0.0267194577 -0.0907826889
0.0194094967 0.0184755117 -0.0680645788
-0.0089757520 -0.0297301729 -0.0888852997
-0.0114547719 -0.0248950467 -0.0706997035
-0.0162863582 -0.0260175132 -0.0866419303
-0.0250440277 -0.0106871034 -0.0700461899
-0.0254814276 -0.0066719414 -0.0653575150
-0.0280081623 0.0186395000 -0.1044685118
-0.0209787990 0.0131915836 -0.0580187817
0.0116727266 0.0296183467 -0.0931951100
0.0268512045 0.0171109418 -0.0933295059
0.0303703700 -0.0068229243 -0.0891860538
0.0079027012 -0.0309622906 -0.0939284253
-0.0324179673 0.0052947436 -0.0990250057
-0.0199806899 0.0282264928 -0.1106206081
-0.0083540211 0.0300400857 -0.0894935817
0.0164554618 0.0283320945 -0.0983285194
0.0318010152 0.0074989897 -0.0980683046
-0.0281326129 -0.0173222731 -0.1002778369
0.0270669319 -0.0195464627 -0.1028588271
-0.0009414860 -0.0315225178 -0.0913902237
-0.0013094037 -0.0346608062 -0.1117921488
-0.0003432716 -0.0370016665 -0.1435929891
-0.0041680871 -0.0322719905 -0.0974822280
-0.0065481499 -0.0363227962 -0.1471098792
-0.0183872457 -0.0270554578 -0.0982931369
-0.0220457729 -0.0288931817 -0.1311720634
-0.0227659757 -0.0254258819 -0.1082930999
-0.0244080128 -0.0277274239 -0.1468290109
-0.0243621641 -0.0217754524 -0.0981527488
-0.0276674397 -0.0234826825 -0.1303757799
-0.0242574018 -0.0056726426 -0.0581419361
-0.0334888071 -0.0053290211 -0.1066098855
-0.0317934415 -0.0026389627 -0.0934773018
-0.0364090573 -0.0031047424 -0.1333938819
-0.0368608531 0.0012047019 -0.1417552259
-0.0352703307 0.0040367162 -0.1188453570
-0.0366674127 0.0032414778 -0.1395613799
-0.0259563312 0.0201921083 -0.0999634090
-0.0271154627 0.0234790520 -0.1233515429
-0.0229748286 0.0208382133 -0.0887010546
-0.0250364195 0.0237513890 -0.1106096741
-0.0266946041 0.0255692352 -0.1484413782
-0.0217482055 0.0239081496 -0.0958716957
-0.0223045658 0.0285172701 -0.1273382680
-0.0033680969 0.0316870471 -0.0933950202
-0.0031784125 0.0349386987 -0.1157346765
-0.0004396267 0.0294262865 -0.0807815246
0.0000796713 0.0347915238 -0.1129419103
-0.0018947445 0.0370428402 -0.1510533830
0.0043016181 0.0308186850 -0.0891277835
0.0036938250 0.0361035628 -0.1282027828
0.0208757725 0.0245063368 -0.0953696160
0.0232197604 0.0278681954 -0.1291532789
0.0216885174 0.0187162290 -0.0770506959
0.0245018271 0.0256338144 -0.1183272094
0.0273012591 0.0251030499 -0.1576841735
0.0245703743 0.0210880816 -0.0964336475
0.0303705835 0.0206359118 -0.1358013533
0.0305365164 0.0207364049 -0.1451725696
0.0326900517 0.0018499416 -0.0987735257
0.0365939883 0.0017863853 -0.1350046256
0.0248118823 -0.0004169705 -0.0575127378
0.0343258253 -0.0028609449 -0.1104209485
0.0365843410 0.0000168046 -0.1339259547
0.0362719287 -0.0034196399 -0.1307178640
0.0362503124 -0.0072270510 -0.1554426513
0.0223016329 -0.0199838173 -0.0835536656
0.0271003161 -0.0231252109 -0.1214586899
0.0220554164 -0.0215007130 -0.0875616817
0.0222868777 -0.0256300665 -0.1064623630
0.0265988842 -0.0256564842 -0.1487726076
0.0183061078 -0.0264014205 -0.0952453224
0.0060204178 -0.0294283886 -0.0835544215
0.0051449831 -0.0340418003 -0.1097273805
0.0057286994 -0.0365000338 -0.1474442874
0.0009795979 -0.0295777161 -0.0818598742
0.0019682268 -0.0360708598 -0.1258549209
0.0018616742 -0.0368376682 -0.1410909026
-0.0194963673 0.0135007481 -0.0527170595
-0.0107552587 0.0192435570 -0.0445596254
-0.0282093427 0.0025372200 -0.0750384841
-0.0212589117 0.0075084026 -0.0464947544
-0.0230304096 0.0104740045 -0.0604038245
-0.0133614152 0.0264248340 -0.0815154312
-0.0094471762 0.0272541134 -0.0776216418
-0.0075937635 0.0285508369 -0.0810287512
-0.0167971252 0.0172862481 -0.0551685634
-0.0121433979 0.0186596644 -0.0464703983
-0.0007586112 0.0265086133 -0.0662445428
0.0151046407 0.0175243793 -0.0503991866
0.0201426796 0.0060192190 -0.0378505312
0.0083904704 0.0207894893 -0.0460598296
0.0139819333 0.0231641105 -0.0691578308
0.0091840708 0.0219973585 -0.0537411268
0.0056514220 0.0296398198 -0.0841886468
0.0049677695 0.0294186352 -0.0823403732
0.0243108239 0.0160085578 -0.0790494896
0.0217097021 0.0109712219 -0.0556799843
0.0236223282 0.0091095045 -0.0604257180
0.0240937599 0.0053530334 -0.0571954347
0.0215206823 -0.0012074887 -0.0407595630
0.0120869071 -0.0177003709 -0.0418782893
0.0045118352 -0.0212971692 -0.0403255908
0.0067683301 -0.0254029292 -0.0650204825
0.0097855110 -0.0215350180 -0.0526637508
0.0161585685 -0.0181102679 -0.0558752498
0.0143383957 -0.0224097850 -0.0669807833
0.0106919144 -0.0254541543 -0.0719163160
0.0233734085 -0.0007425332 -0.0507239742
0.0293663837 -0.0077299065 -0.0851740183
0.0237540026 -0.0101587170 -0.0630807417
-0.0008898699 -0.0238078937 -0.0524784811
0.0211903725 -0.0240835909 0.0300641401
-0.0258439702 -0.0244704545 0.0287127933
-0.0374864469 -0.0244769277 0.0093663224
0.0094126396 -0.0243649828 -0.0356506867
0.0192196189 0.0284688419 -0.0350413589
0.0219164732 0.0154283435 -0.0336156317
0.0016795723 0.0278189778 -0.0399545217
-0.0078955218 0.0287402106 -0.0391822336
-0.0159527750 0.0228633754 -0.0367126663
-0.0223326232 0.0245101940 -0.0330205439
-0.0084376815 0.0192513292 0.0390698693
-0.0016427326 -0.0073401632 0.0399284505
0.0013081397 0.0033177907 0.0399076632
0.0014981594 0.0266718660 0.0399051261
-0.0111566969 0.0091789131 0.0383554808
-0.0154790195 0.0055219857 0.0368425678
-0.0163137061 0.0113212936 0.0364571445
-0.0216870227 0.0181105247 0.0334938199
-0.0243235045 0.0107560977 0.0317008608
-0.0261897089 0.0237760315 0.0301161684
-0.0292294335 -0.0000148258 0.0272527420
-0.0301974457 0.0245524917 0.0261346528
-0.0342106131 0.0192613993 0.0207525973
-0.0359005830 0.0016532998 0.0175913501
-0.0369312240 0.0199756995 0.0152119323
-0.0380293902 0.0117825511 0.0122211791
-0.0394110288 0.0211536872 0.0066105077
-0.0397576203 0.0079418494 0.0038106897
-0.0400052913 0.0207180519 -0.0003955474
-0.0396518273 0.0158830599 -0.0048211564
-0.0395312699 0.0057609423 -0.0059212907
-0.0389223351 0.0142992672 -0.0089363134
-0.0379262667 0.0050649585 -0.0126766875
-0.0372525460 0.0209547953 -0.0144517018
-0.0352802229 0.0157739123 -0.0187831821
-0.0333869022 0.0039436141 -0.0219580394
-0.0307996370 -0.0033023779 -0.0253875263
-0.0279460852 0.0208039374 -0.0284533010
-0.0245459218 0.0023998705 -0.0315716666
-0.0234348338 0.0139097164 -0.0323165418
0.0273486534 0.0255982809 -0.0291645848
0.0283304784 0.0095752010 -0.0281417971
0.0298270214 0.0227579209 -0.0264746634
0.0325711528 0.0279854271 -0.0230812820
0.0348969601 0.0240565043 -0.0194783986
0.0355034401 0.0064728565 -0.0183186754
0.0382416423 0.0051220868 -0.0117483296
0.0382917269 0.0159132561 -0.0116110389
0.0397617050 -0.0049404154 -0.0040519890
0.0399003423 0.0276513768 -0.0012303840
0.0399547823 -0.0011738859 -0.0002337266
0.0396320674 -0.0056707788 0.0052478393
0.0393323809 -0.0042018006 0.0070713250
0.0389324202 0.0065980654 0.0090289336
0.0359902919 0.0187303964 0.0173280117
0.0368850161 -0.0044057825 0.0153754792
0.0338143068 0.0051624187 0.0212834640
0.0312984230 0.0087937025 0.0248740254
0.0286263949 0.0208598462 0.0278028740
0.0256369144 0.0090489358 0.0305576202
0.0232366300 0.0173302567 0.0325212504
0.0190474625 0.0216954708 0.0351206294
0.0175052511 -0.0048389978 0.0359211181
0.0138391579 0.0270824057 0.0374067135
0.0117833862 0.0028055462 0.0381919664
0.0079360516 0.0190075834 0.0391343023
-0.0157965144 -0.0106413004 0.0318307975
-0.0332201447 -0.0108365562 -0.0153374096
-0.0164519185 -0.0134201791 -0.0316649760
-0.0323883278 -0.0200691254 -0.0111245963
-0.0319293127 -0.0217530763 -0.0177111614
-0.0317061469 -0.0174966340 0.0164029116
-0.0152390457 -0.0124924512 0.0309778128
0.0127081375 -0.0238605189 0.0307412908
0.0328526138 -0.0146339229 0.0111175813
0.0319435701 -0.0150140918 0.0173979942
0.0316478201 -0.0128633516 -0.0165040917
0.0099745986 -0.0203821434 -0.0351757513
-0.0144909844 -0.0208339353 -0.0324522211
-0.0340017304 -0.0229829589 0.0131732323
0.0138161884 -0.0221742191 0.0324032370
0.0340787736 -0.0199029428 -0.0142982181
0.0234979742 -0.0102899245 -0.0307454940
0.0185803755 -0.0103332540 -0.0336826153
-0.0319356946 -0.0091570784 0.0238305476
0.0222714885 -0.0091751176 0.0330442319
-0.0396614468 0.0094187715 -0.1619669376
0.0408652024 0.0043605845 -0.1619676170
0.0302789540 0.0129294502 -0.1378352218
0.0311699495 0.0115092087 -0.1202760528
0.0307652133 -0.0121974345 -0.1122224445
0.0303058031 -0.0133406821 -0.1419983079
0.0147455922 -0.0304057991 -0.1339313654
0.0118541496 -0.0309437595 -0.1292212220
0.0108790951 -0.0323288932 -0.1171301419
-0.0125541948 -0.0303891499 -0.1287176806
-0.0144535833 -0.0302814950 -0.1437059711
-0.0319037448 0.0111338180 -0.1390708003
-0.0301832871 0.0143742291 -0.1185632196
-0.0305207217 0.0148000162 -0.1500387888
-0.0127701722 0.0303508188 -0.1152283745
-0.0110110783 0.0322255446 -0.1276083352
0.0116209246 0.0311439114 -0.1041038479
0.0130975983 0.0302109576 -0.0999528547
0.0163517022 0.0315064884 -0.1543252148
-0.0305383143 -0.0122551762 -0.1232903639
-0.0323914647 -0.0110327732 -0.1489175590
0.0170863241 -0.0317156123 -0.1409766636
0.0203582165 -0.0297874520 -0.1273650529
0.0081410601 -0.0322828142 -0.1017559661
0.0179883013 -0.0316160294 -0.1326938534
-0.0104744431 -0.0333398672 -0.1193264672
-0.0072437043 -0.0356327420 -0.1318349484
-0.0152631590 -0.0304837015 -0.1086996094
-0.0316855762 -0.0183298250 -0.1577620987
-0.0305478279 -0.0150829065 -0.1193021682
-0.0301061565 -0.0199906201 -0.1286612880
-0.0332231844 -0.0105038098 -0.1203032544
-0.0340085291 0.0106740679 -0.1513207637
-0.0356695213 0.0083369746 -0.1358189550
-0.0303691555 0.0196968936 -0.1274328091
-0.0289011581 0.0113339874 -0.0885679313
-0.0149135454 0.0304558172 -0.1480011304
-0.0193244228 0.0295518957 -0.1184333500
-0.0098125058 0.0346300255 -0.1267264922
0.0103523904 0.0344718214 -0.1405478735
0.0092235379 0.0321052048 -0.1024747150
0.0153256853 0.0292349981 -0.1003611595
0.0099771237 0.0347146862 -0.1329246529
0.0309891085 0.0156385050 -0.1546964079
0.0352386332 0.0098642642 -0.1574858585
0.0305799573 0.0153087405 -0.1132596935
0.0329194066 -0.0103279895 -0.1138189602
0.0317726033 -0.0105187548 -0.1032881325
0.0310385482 -0.0157451901 -0.1459519947
-0.0335578169 -0.0126561717 -0.1551114480
0.0141286217 -0.0320205590 -0.1514196165
0.0128925113 0.0335295838 -0.1497510672
-0.0336017595 0.0145106345 -0.1558985118
-0.0176020515 -0.0104768591 -0.0345743812
-0.0287441740 0.0291308159 -0.0294424713
0.0195493239 0.0292456605 0.0358302954
-0.0153324534 0.0290049329 -0.0370207882
0.0364535154 -0.0109414071 0.0058674100
-0.0308164933 -0.0240000132 -0.0129753089
-0.0199415752 -0.0284298260 0.0273127719
-0.0270779442 -0.0284999851 -0.0225488251
-0.0224649137 -0.0284974304 -0.0304266083
0.0299940578 -0.0284142460 -0.0114778171
0.0272914521 -0.0284999851 0.0234512868
0.0051296563 -0.0283988892 0.0371537936
0.0348956989 -0.0284999851 0.0075263986
0.0349506008 -0.0284999851 0.0009197854
0.0177809819 -0.0284999851 -0.0321323824
0.0060202166 -0.0284999851 -0.0319126617
-0.0309743106 -0.0284999851 -0.0136823236
-0.0364639932 -0.0284999851 -0.0120280416
-0.0248238950 -0.0284999851 0.0278922680
0.0022067453 -0.0263916315 -0.0388677163
-0.0310336577 -0.0276329009 -0.0231057600
-0.0361640626 -0.0269936230 0.0141395632
-0.0066111391 -0.0267382909 0.0382683943
0.0279863500 -0.0256566218 0.0267978825
0.0374057343 -0.0254801417 -0.0106336352
0.0100299193 -0.0260380765 -0.0375042562
0.0199163932 -0.0180413627 -0.0286904691
-0.0063309341 -0.0233309819 -0.0343732219
0.0227114650 -0.0197327063 0.0265599495
-0.0032566596 -0.0198547264 0.0347883811
-0.0171881395 -0.0237384160 0.0304129648
-0.0340973758 -0.0238744162 0.0074776710
-0.0185053189 -0.0225907142 -0.0296129176
0.0040784850 -0.0176758394 0.0336066787
-0.0149394403 -0.0175000075 0.0286699111
0.0193434601 -0.0175412023 0.0257859544
0.0018953098 -0.0175000075 -0.0320671970
-0.0189163673 -0.0175097819 -0.0248540837
-0.0321813080 -0.0176462538 0.0087987880
-0.0260684552 -0.0175128610 -0.0212063204
-0.0205608911 -0.0186627441 0.0214088587
0.0200022879 -0.0202676524 -0.0223103062
0.0120467180 -0.0223516836 -0.0273707822
0.0286515513 -0.0250860864 -0.0087615242
0.0297019477 -0.0268499069 -0.0006471835
0.0289532276 -0.0274909304 0.0076297257
0.0106471890 -0.0205135846 0.0279483058
-0.0026847319 -0.0200784837 0.0298594582
-0.0191482668 -0.0221710607 0.0230460961
-0.0278101097 -0.0258888385 0.0109508282
-0.0235512725 -0.0276048802 -0.0183379235
-0.0293033158 -0.0270563519 -0.0063205148
-0.0117275285 -0.0191046872 -0.0274480380
-0.0053086636 -0.0245273802 -0.0375399651
-0.0343882880 -0.0245000068 -0.0152920484
-0.0330381873 -0.0245371870 0.0167390159
0.0111688945 -0.0245000068 0.0340768793
0.0326039454 -0.0245000068 0.0114723904
0.0319022856 -0.0245182716 -0.0175985209
-0.0212989024 -0.0225547683 -0.0221704428
-0.0211613101 -0.0208605038 0.0232159227
-0.0017656374 -0.0192808240 0.0349264346
0.0329999998 -0.0225517019 0.0002097191
-0.0169512949 -0.0175303916 0.0254204835
0.0270438020 -0.0180274682 -0.0122372656
-0.0142383681 -0.0189586089 -0.0304099322
0.0344217891 -0.0255078079 0.0131985419
-0.0344466040 -0.0265024801 -0.0147076625
-0.0108203491 -0.0233398314 0.0330333553
0.0308548059 -0.0218404399 -0.0155223184
0.0373804623 -0.0284688841 -0.0048427941
-0.0349767717 -0.0246717584 0.0156640028
-0.0097528242 -0.0314341353 -0.1575184698
-0.0279888118 -0.0171927814 -0.1564195826
-0.0328671156 0.0008928896 -0.1520503085
-0.0227545570 0.0236431170 -0.1559935356
-0.0075137820 0.0320339416 -0.1574879293
0.0202858569 0.0260209672 -0.1521427160
0.0317101313 0.0083428960 -0.1540081157
0.0294927883 -0.0144125062 -0.1529358698
0.0100515094 -0.0312897756 -0.1574075932
-0.0052833644 0.0318292164 -0.1511134236
0.0149293255 -0.0196012163 -0.1538397953
-0.0170013262 -0.0171415957 -0.1539999992
-0.0227721589 -0.0037798002 -0.1539800425
-0.0216324849 0.0063335470 -0.1539999992
-0.0074345453 0.0263087190 -0.1539449179
0.0167803917 -0.0230529732 -0.1539891276
0.0253452367 -0.0031894349 -0.1539999992
0.0156408247 0.0207050769 -0.1539999992
-0.0040349856 0.0215590480 -0.1528103334
-0.0148355084 -0.0160455862 -0.1511533432
0.0219816391 -0.0025382548 -0.1520962215
-0.0090710353 0.0261506569 -0.1509999931
-0.0222666037 0.0148844281 -0.1510131152
-0.0233362276 -0.0093738454 -0.1509999931
-0.0092734178 -0.0304527170 -0.1509999931
-0.0113969032 -0.0210517533 -0.1509999931
0.0104206764 -0.0267899822 -0.1510028562
0.0218933870 -0.0081351893 -0.1509999931
0.0283546636 0.0121457040 -0.1509999931
-0.0276982077 -0.0082071644 -0.1510000044
0.0047809018 0.0220055626 -0.1511985804
0.0002036526 0.0304328508 -0.1510057738
0.0234423204 0.0160402449 -0.1509999931
-0.0237738480 -0.0036861766 -0.1509999931
0.0319308966 0.0184837781 -0.1579999924
0.0271724334 0.0202257978 -0.1579999924
0.0096407935 0.0365274469 -0.1579999924
-0.0318894076 -0.0097565905 -0.1579999924
-0.0311023688 -0.0184236142 -0.1579999924
0.0169972941 -0.0310528169 -0.1579999924
-0.0293774095 -0.0259975516 -0.1579999924
-0.0323435502 0.0209067480 -0.1580741164
0.0226533476 0.0292017826 -0.1579999924
-0.0195486300 0.0320543141 -0.1579999924
-0.0244483537 0.0311753573 -0.1613624539
-0.0397353394 -0.0037432973 -0.1590807737
-0.0136593616 -0.0374051403 -0.1605165470
0.0267424112 -0.0293525828 -0.1611452247
0.0368643791 0.0145845880 -0.1594131786
-0.0296614838 -0.0107643253 -0.1619785586
-0.0329287509 -0.0072853815 -0.1620000005
-0.0141606017 0.0308148502 -0.1620000005
0.0301191553 0.0217000513 -0.1620000005
0.0292390001 0.0199794498 -0.1620000005
0.0024444907 -0.0327637992 -0.1620000005
-0.0035399652 -0.0330297784 -0.1620000005
0.0258492888 -0.0246510011 -0.1620000005
0.0326118399 -0.0162553318 -0.1620000005
0.0344633621 0.0071326068 -0.1620000005
0.0047599304 0.0383236153 -0.1620000005
0.0084385225 0.0295719453 -0.1620000005
-0.0328009779 0.0046560145 -0.1620000005
-0.0145283785 -0.0272857266 -0.1620000005
-0.0344334743 -0.0134606927 -0.1620000005
-0.0031168878 0.0297735420 -0.1572750731
-0.0209046543 0.0211881414 -0.1606867286
-0.0291268921 0.0067737627 -0.1568121760
-0.0269606923 -0.0127773597 -0.1552722052
-0.0128801913 -0.0268928869 -0.1556816880
0.0044251549 -0.0295219282 -0.1599630061
0.0204436408 -0.0217657484 -0.1579822652
0.0287809463 -0.0077131448 -0.1546053272
0.0287315176 0.0082832395 -0.1545739509
0.0139329509 0.0264485544 -0.1564807766
0.0038982356 -0.0351362459 -0.1586060047
-0.0030367999 0.0345608169 -0.1582761176
-0.0237625725 -0.0134787020 -0.1511149588
0.0245273040 -0.0081285178 -0.1530670751
0.0338499233 0.0199356566 -0.1581337790
-0.0192923607 -0.0342553821 -0.1619097453
-0.0130369897 0.0372819756 -0.1619289626
0.0247576909 0.0164430498 -0.1544156996
0.0296294710 -0.0036513639 -0.1616054753
-0.0028488535 0.0325623411 -0.1522706773
