-0.0075431781 -0.0213080594 -0.0913499966
-0.0086999136 -0.0185661199 -0.0909255460
-0.0007771992 0.0272720254 -0.0201239745
0.0243019734 -0.0128612779 -0.0211411763
-0.0063774249 -0.0138257419 -0.0883499980
-0.0128942259 -0.0275792857 -0.0883499980
-0.0079944507 -0.0276721103 -0.0883499980
-0.0182175777 -0.0134820955 -0.0883499980
-0.0215073316 -0.0135537638 -0.0883499980
-0.0176195607 -0.0111151892 -0.0883499980
0.0152072348 -0.0274546924 -0.0883499980
0.0137884580 -0.0260761495 -0.0883499980
-0.0064939447 -0.0251299768 -0.0883499980
0.0054784649 -0.0311765778 -0.0883499980
0.0071946981 -0.0307212917 -0.0883499980
0.0119529774 -0.0298114386 -0.0883499980
-0.0163947295 -0.0244126827 -0.0883499980
-0.0204443355 -0.0214156787 -0.0883499980
0.0058514965 -0.0242377980 -0.0883499980
0.0132545161 -0.0179908762 -0.0883499980
0.0134624366 -0.0238958753 -0.0883499980
0.0014941865 -0.0225095314 -0.0883499980
0.0078446477 -0.0150273732 -0.0883499980
0.0076901471 -0.0218462501 -0.0883499980
-0.0107746117 -0.0101527527 -0.0883499980
-0.0295385919 0.0158731286 -0.0212099846
-0.0162796883 0.0280708214 -0.0192545476
-0.0135762413 0.0256709851 -0.0211324828
-0.0011083525 0.0316401137 -0.0210573462
-0.0149922253 -0.0257918363 -0.0192698627
-0.0161223660 -0.0260648849 -0.0213304589
-0.0288758050 -0.0180761555 -0.0207422039
-0.0276914739 0.0004239675 -0.0193371101
-0.0341182554 0.0007894171 -0.0214683395
0.0012437081 -0.0334654501 -0.0205815361
0.0152982548 -0.0276001226 -0.0193823116
0.0161516294 -0.0290414607 -0.0216265465
0.0299910720 -0.0158961363 -0.0202828984
0.0302428244 -0.0007491919 -0.0195032705
0.0333784054 -0.0004278182 -0.0216654825
0.0293039714 0.0182817883 -0.0200944175
0.0175684375 0.0285055805 -0.0197172193
0.0159379952 0.0272569368 -0.0217327078
0.0193533502 -0.0250242793 -0.0774576885
0.0179444555 -0.0230121691 -0.0873612058
0.0199927115 -0.0259373819 -0.0873437226
0.0116159687 -0.0139741530 -0.0775758616
0.0146935008 -0.0183693245 -0.0798264337
0.0122629060 -0.0148980752 -0.0836679052
0.0199939586 -0.0274820847 -0.0819395506
0.0174501376 -0.0291324046 -0.0855885556
0.0147716154 -0.0305621407 -0.0845908926
0.0118934123 -0.0317983722 -0.0776111298
0.0072008338 -0.0331743591 -0.0766595735
0.0032239400 -0.0337954977 -0.0766888608
0.0031154164 -0.0338076350 -0.0881726243
0.0005169915 -0.0339461260 -0.0873691870
-0.0037174193 -0.0337412501 -0.0804246058
-0.0064961557 -0.0333437520 -0.0821775143
-0.0118002546 -0.0318287701 -0.0762154314
-0.0126557232 -0.0315202954 -0.0836677453
-0.0150139122 -0.0304435984 -0.0847617476
-0.0180422528 -0.0287566135 -0.0786349460
-0.0215581779 -0.0262196561 -0.0798820737
-0.0236400217 -0.0243860815 -0.0817223958
-0.0254198688 -0.0225404661 -0.0870507135
-0.0265397707 -0.0211742810 -0.0847549532
-0.0167733754 -0.0099136822 -0.0842949900
-0.0128172791 -0.0071435940 -0.0861556507
-0.0194189297 -0.0117661191 -0.0868018025
-0.0184282558 -0.0110724418 -0.0801902993
-0.0277678453 -0.0176120922 -0.0850616089
-0.0238392633 -0.0148612697 -0.0809964341
-0.0124137749 -0.0069418301 -0.0844530085
-0.0101229687 -0.0089033862 -0.0798900298
-0.0082799778 -0.0106547416 -0.0770447351
-0.0056821677 -0.0121976969 -0.0795449115
-0.0006633783 -0.0134509050 -0.0868776915
0.0008464348 -0.0134284850 -0.0804286811
0.0042064834 -0.0128273152 -0.0860989623
0.0067629667 -0.0116418457 -0.0839741508
0.0088531234 0.0338544801 -0.0302701615
0.0089842716 0.0338244431 -0.0246080185
-0.0309591681 0.0163033701 -0.0305170029
-0.0318271142 0.0144279298 -0.0598094432
-0.0316390736 0.0148324298 -0.0629354832
-0.0306963142 0.0168143163 -0.0254338872
-0.0295599076 0.0186432990 -0.0713642452
-0.0294578000 0.0188304224 -0.0553344685
-0.0295081901 0.0187333689 -0.0669268620
-0.0295604428 0.0187147752 -0.0374296119
-0.0185502202 0.0296656773 -0.0303772931
-0.0186616818 0.0295501671 -0.0669930296
-0.0173129997 0.0303996655 -0.0634244856
-0.0173223377 0.0304046941 -0.0522329796
-0.0164877934 0.0308489794 -0.0564742437
-0.0158921017 0.0311330858 -0.0650306569
-0.0144886705 0.0318024602 -0.0749095343
-0.0164506998 0.0308772103 -0.0251807394
-0.0281809729 -0.0206900929 -0.0693405558
-0.0297946417 -0.0183397202 -0.0747876131
-0.0294001772 -0.0189220472 -0.0563172212
-0.0312847217 -0.0155978032 -0.0631432054
-0.0308685031 -0.0163832897 -0.0638715654
-0.0310350087 -0.0160687642 -0.0639317540
-0.0308353926 -0.0164930875 -0.0388188783
-0.0296208183 -0.0185956755 -0.0190718575
-0.0349285999 -0.0010848116 -0.0729206244
-0.0349826049 0.0003992794 -0.0577027746
-0.0349414505 -0.0010419330 -0.0611350395
-0.0349995419 -0.0001603160 -0.0218642186
-0.0347758844 0.0034168530 -0.0718940853
-0.0348480549 0.0026074274 -0.0513807333
-0.0347863098 0.0032998897 -0.0679362024
-0.0100924443 -0.0334893733 -0.0477389472
-0.0103733762 -0.0334029475 -0.0429551314
0.0001943889 0.0349627652 -0.0384763601
0.0009469486 0.0349720474 -0.0372553283
0.0070486446 0.0342677623 -0.0542385491
0.0079790079 0.0340546799 -0.0219022143
0.0042280732 0.0346868391 -0.0679959156
0.0061906523 0.0344284633 -0.0480462082
0.0050053432 0.0345845106 -0.0665204472
0.0028959254 0.0348622179 -0.0600073656
0.0049357677 0.0345936703 -0.0379715593
0.0031635734 0.0348269817 -0.0656086692
0.0024521942 0.0349119481 -0.0635855641
-0.0150044660 0.0315671246 -0.0398215011
-0.0137067533 0.0321783085 -0.0199002442
-0.0150344143 0.0315530198 -0.0269864710
-0.0130266566 0.0324731817 -0.0274453536
-0.0131981700 0.0324144596 -0.0320202875
-0.0097994926 0.0335780867 -0.0221501558
-0.0100269326 0.0335002166 -0.0355021909
-0.0104955678 0.0333397669 -0.0582809454
-0.0098413159 0.0335637673 -0.0553955620
-0.0085747312 0.0338932852 -0.0484271799
-0.0075953062 0.0341068347 -0.0206886479
-0.0077931218 0.0340637039 -0.0260913986
-0.0077613717 0.0340706265 -0.0263365706
-0.0057941253 0.0344995563 -0.0323167106
-0.0059500477 0.0344655597 -0.0746644347
-0.0057562818 0.0345078075 -0.0639700624
-0.0024764221 0.0348684111 -0.0174432115
-0.0054064597 0.0345759539 -0.0722461389
-0.0043751372 0.0346788938 -0.0381988987
-0.0032869939 0.0347875051 -0.0567169488
-0.0040824570 0.0347081072 -0.0756044553
-0.0029200112 0.0348241349 -0.0598026351
0.0004250278 0.0349410982 -0.0691432560
-0.0004456279 0.0349582602 -0.0532314584
-0.0005986376 0.0349610320 -0.0515509509
-0.0288560625 0.0197990106 -0.0655856073
-0.0273889522 0.0216983152 -0.0423487698
-0.0285835742 0.0201747571 -0.0690319008
-0.0275287787 0.0215199879 -0.0434385173
-0.0274955086 0.0215624188 -0.0664718020
-0.0265019362 0.0228295688 -0.0458391670
-0.0265839322 0.0227249954 -0.0672810586
-0.0260854124 0.0233161653 -0.0396762244
-0.0254047840 0.0240039580 -0.0461399600
-0.0252992668 0.0241105859 -0.0352738750
-0.0252470788 0.0241633232 -0.0360489140
-0.0243695137 0.0250501255 -0.0702194998
-0.0243878843 0.0250315615 -0.0692750734
-0.0242310864 0.0251900099 -0.0375298540
-0.0228917483 0.0264329334 -0.0280667248
-0.0214472759 0.0275901743 -0.0216919390
-0.0233267882 0.0260844005 -0.0510821982
-0.0231100391 0.0262580494 -0.0753730994
-0.0222707094 0.0269304794 -0.0712406119
-0.0203947987 0.0284333679 -0.0598365641
-0.0197124939 0.0289047577 -0.0358482223
-0.0346460528 0.0048744216 -0.0443119438
-0.0347512868 0.0037084736 -0.0250180290
-0.0347350765 0.0038880772 -0.0500994305
-0.0345270848 0.0055834437 -0.0319894223
-0.0344232641 0.0060847773 -0.0536243411
-0.0344291078 0.0060565592 -0.0326752097
-0.0345744401 0.0053547728 -0.0533779877
-0.0343305766 0.0065323506 -0.0670627869
-0.0343763320 0.0063114051 -0.0743968810
-0.0343891571 0.0062494747 -0.0726074612
-0.0336966593 0.0093935281 -0.0207433894
-0.0334164797 0.0102407125 -0.0374776575
-0.0331171366 0.0111458418 -0.0310593030
-0.0335992408 0.0096880944 -0.0733926537
-0.0326993627 0.0124090722 -0.0248345244
-0.0331049053 0.0111828257 -0.0508695313
-0.0314192421 0.0153106532 -0.0367888055
-0.0324213748 0.0131453720 -0.0322199772
-0.0314129800 0.0153241836 -0.0321461453
-0.0312299944 -0.0157643915 -0.0427308733
-0.0318635720 -0.0144664399 -0.0587985817
-0.0329292982 -0.0117329948 -0.0290362994
-0.0324570483 -0.0129442527 -0.0188964572
-0.0327500386 -0.0121927719 -0.0256699785
-0.0326342532 -0.0124897459 -0.0472255613
-0.0327984513 -0.0120685998 -0.0520916867
-0.0328907205 -0.0118319416 -0.0693461233
-0.0337963603 -0.0088739452 -0.0327938456
-0.0333655699 -0.0105160192 -0.0299505997
-0.0333043376 -0.0107494227 -0.0581017294
-0.0335877644 -0.0096690649 -0.0627606223
-0.0342238554 -0.0072444324 -0.0501799630
-0.0340193966 -0.0080237823 -0.0612014580
-0.0343230940 -0.0068224309 -0.0324601222
-0.0346429489 -0.0045750187 -0.0310610608
-0.0344804903 -0.0057165094 -0.0398109845
-0.0348720156 -0.0029655164 -0.0318454462
-0.0346568584 -0.0044772859 -0.0415508357
-0.0346256416 -0.0046966262 -0.0704648383
-0.0349351367 -0.0019593278 -0.0250650631
-0.0284595672 -0.0202978159 -0.0431318080
-0.0278691909 -0.0211449979 -0.0665168715
-0.0280095952 -0.0209435196 -0.0478825205
-0.0257006064 -0.0236925979 -0.0639756687
-0.0264372089 -0.0228482151 -0.0715212370
-0.0262302526 -0.0230854535 -0.0555913376
-0.0253795035 -0.0240606848 -0.0450258620
-0.0250480552 -0.0244406309 -0.0539846597
-0.0259852991 -0.0233662487 -0.0267209130
-0.0231345729 -0.0261915808 -0.0565380735
-0.0244294876 -0.0250132977 -0.0469237306
-0.0227742513 -0.0265194486 -0.0662620516
-0.0239695783 -0.0254317834 -0.0325697455
-0.0235826338 -0.0257838763 -0.0313899118
-0.0221925028 -0.0270487996 -0.0527585999
-0.0201643238 -0.0285380139 -0.0536198216
-0.0213294782 -0.0277007660 -0.0369046644
-0.0215799125 -0.0275208108 -0.0385018360
-0.0201624390 -0.0285393683 -0.0277495129
-0.0191075813 -0.0292973600 -0.0431048598
-0.0202451751 -0.0284799164 -0.0206620483
-0.0200851436 -0.0285949106 -0.0261558191
-0.0169074853 -0.0306184196 -0.0436790158
-0.0172730663 -0.0303991683 -0.0566762381
-0.0163933284 -0.0309033420 -0.0447116394
-0.0178555187 -0.0301015005 -0.0244507032
-0.0159974394 -0.0311122612 -0.0179427791
-0.0109762215 -0.0332174885 -0.0608596666
-0.0106987487 -0.0333028501 -0.0640044646
-0.0117393865 -0.0329582973 -0.0397101472
-0.0117745759 -0.0329437213 -0.0181843103
-0.0120169583 -0.0328433229 -0.0678033274
-0.0129448169 -0.0324589901 -0.0591470519
-0.0132386252 -0.0323372903 -0.0644934634
-0.0151876760 -0.0315299645 -0.0336307503
-0.0152627131 -0.0314961359 -0.0179797879
-0.0073890397 -0.0341898011 -0.0725992795
-0.0078794383 -0.0340774845 -0.0480954989
0.0198755500 -0.0287888208 -0.0671552022
0.0183325527 -0.0297488649 -0.0749752899
0.0189102805 -0.0293875960 -0.0738039751
0.0172881523 -0.0304279574 -0.0494420684
0.0155312097 -0.0313052448 -0.0569114484
0.0156617016 -0.0312429946 -0.0600748926
0.0137049183 -0.0321763032 -0.0703258664
0.0317686994 -0.0145593572 -0.0186485864
0.0317668583 -0.0145567693 -0.0648773995
0.0309517275 -0.0163141667 -0.0578378713
0.0308332666 -0.0165621349 -0.0342341095
0.0305611085 -0.0170495016 -0.0400726760
0.0300976782 -0.0177929418 -0.0500899948
0.0303900562 -0.0173243530 -0.0434202850
0.0292626451 -0.0191664323 -0.0537561173
0.0349807523 0.0009878989 -0.0193105033
0.0349761297 0.0006978046 -0.0353405823
0.0349377454 0.0011306857 -0.0625229670
0.0349747945 0.0002771214 -0.0477524651
0.0349946474 -0.0005125593 -0.0334621219
0.0346882698 -0.0043983594 -0.0670050474
0.0347541494 -0.0036598786 -0.0585298216
0.0348198469 -0.0029239873 -0.0645236856
0.0293870478 0.0189516376 -0.0331961809
0.0297842593 0.0183651707 -0.0519820832
0.0298439984 0.0182826051 -0.0423797666
0.0300107310 0.0180095238 -0.0271434273
0.0309512871 0.0162359007 -0.0532478035
0.0315249104 0.0151384909 -0.0698687603
0.0304473254 0.0171841552 -0.0574731599
0.0310812164 0.0160614456 -0.0355462038
0.0098772970 0.0335555612 -0.0396607842
0.0096389808 0.0336288767 -0.0554836559
0.0002426004 -0.0349961517 -0.0229505607
-0.0020632113 -0.0349321838 -0.0572932576
-0.0076520547 -0.0341295624 -0.0420088520
-0.0071829543 -0.0342370011 -0.0211448669
-0.0047389507 -0.0346195815 -0.0619372002
-0.0054261077 -0.0345291165 -0.0457859236
-0.0060462363 -0.0344474758 -0.0395338399
-0.0033986799 -0.0347960297 -0.0468035785
-0.0027452689 -0.0348820520 -0.0238424608
-0.0039260149 -0.0347266054 -0.0357530139
-0.0023869377 -0.0349154384 -0.0506534845
0.0143605781 -0.0318703766 -0.0257052435
0.0137390777 -0.0321630847 -0.0437343205
0.0146713650 -0.0317240052 -0.0188979777
0.0113120490 -0.0330602230 -0.0304016268
0.0129579760 -0.0324966963 -0.0717496956
0.0123138829 -0.0327172186 -0.0279279926
0.0115179931 -0.0329897126 -0.0740378193
0.0111044308 -0.0331313065 -0.0564195125
0.0101912170 -0.0334439694 -0.0708668618
0.0070086015 -0.0342347572 -0.0371940360
0.0081041514 -0.0339958884 -0.0306013996
0.0083376246 -0.0339449829 -0.0305745859
0.0062209992 -0.0344064826 -0.0593722000
0.0058433657 -0.0344888201 -0.0440583345
0.0086491391 -0.0338770616 -0.0758242571
0.0029584639 -0.0348202968 -0.0365033507
0.0045985838 -0.0346565908 -0.0276329137
0.0025935482 -0.0348567203 -0.0316885102
0.0041244790 -0.0347039128 -0.0615350283
0.0043266388 -0.0346837346 -0.0720328414
0.0048847145 -0.0346280311 -0.0685035884
-0.0003407280 -0.0349417197 -0.0723535815
0.0006727199 -0.0349597547 -0.0627004643
0.0000724411 -0.0349502938 -0.0628393022
0.0287715125 -0.0199274455 -0.0708412508
0.0294872466 -0.0188402155 -0.0280991574
0.0269066160 -0.0223134614 -0.0202832227
0.0278654252 -0.0210906467 -0.0488642374
0.0277685820 -0.0212141554 -0.0503460101
0.0285052515 -0.0202746459 -0.0709273035
0.0267837719 -0.0224701304 -0.0473291501
0.0279676056 -0.0209603312 -0.0757237648
0.0255262855 -0.0238811776 -0.0201340938
0.0253185152 -0.0240911348 -0.0354146001
0.0242991430 -0.0251212369 -0.0339321138
0.0253577842 -0.0240514525 -0.0580860530
0.0242826482 -0.0251379054 -0.0537702443
0.0248791335 -0.0245351415 -0.0490674051
0.0224714174 -0.0267696820 -0.0552369920
0.0226613242 -0.0266175379 -0.0387006403
0.0232448757 -0.0261500248 -0.0672541287
0.0208616706 -0.0280593328 -0.0580208799
0.0204131176 -0.0284186916 -0.0574873246
0.0216293301 -0.0274443213 -0.0530334178
0.0190640587 -0.0293374945 -0.0246876556
0.0196276460 -0.0289613814 -0.0460770786
0.0347137304 -0.0041245826 -0.0356583333
0.0347211278 -0.0040426227 -0.0217337681
0.0346900587 -0.0043868553 -0.0191522786
0.0340989116 -0.0076510242 -0.0203618003
0.0346235966 -0.0051174039 -0.0202984258
0.0338664514 -0.0087735377 -0.0188820619
0.0338953536 -0.0086339736 -0.0755826882
0.0341375160 -0.0074646095 -0.0706669617
0.0339071909 -0.0085768128 -0.0615247319
0.0334978884 -0.0099945553 -0.0290434549
0.0335527625 -0.0098286316 -0.0327534000
0.0338044623 -0.0090675625 -0.0705000334
0.0333268074 -0.0105118561 -0.0651027914
0.0332103858 -0.0108638823 -0.0584465156
0.0335103929 -0.0099567454 -0.0747700592
0.0311414581 -0.0159108537 -0.0238041915
0.0318603039 -0.0143576628 -0.0436044176
0.0322150513 -0.0135911696 -0.0382210909
0.0311004344 0.0160252646 -0.0266300926
0.0314524795 0.0153164112 -0.0244491684
0.0319060887 0.0143573904 -0.0410847945
0.0327352800 0.0122306257 -0.0209336035
0.0324131971 0.0130567252 -0.0500992017
0.0329376880 0.0117114762 -0.0515585758
0.0329963840 0.0115609288 -0.0407253570
0.0329098471 0.0117828845 -0.0379786836
0.0335223485 0.0099184152 -0.0495803799
0.0335589481 0.0097789061 -0.0575778788
0.0334368658 0.0102442558 -0.0388935561
0.0340693391 0.0078334128 -0.0645714363
0.0340849242 0.0077740062 -0.0566167240
0.0337086944 0.0092081076 -0.0683681039
0.0346509952 0.0045184825 -0.0176883614
0.0345706485 0.0050830265 -0.0421904271
0.0345251188 0.0054029345 -0.0220427641
0.0346755135 0.0043462089 -0.0735891701
0.0347919822 0.0035278585 -0.0275106076
0.0346800376 0.0043144204 -0.0411094304
0.0349345374 0.0019693647 -0.0196822617
0.0349066902 0.0024357214 -0.0297159698
0.0280293191 0.0209152161 -0.0383537747
0.0279004580 0.0211001300 -0.0226541671
0.0283999923 0.0203833050 -0.0223437454
0.0271922058 0.0219827465 -0.0320516469
0.0269692791 0.0222382919 -0.0453611488
0.0259166605 0.0234449306 -0.0688742183
0.0254055439 0.0240308342 -0.0429137754
0.0264886461 0.0227892516 -0.0376460050
0.0257170881 0.0236737045 -0.0412716153
0.0241212720 0.0252937526 -0.0752575253
0.0243977692 0.0250421592 -0.0335799334
0.0227044800 0.0265829356 -0.0752704998
0.0235252117 0.0258361264 -0.0452529915
0.0231053790 0.0262181452 -0.0216010138
0.0230476858 0.0262706421 -0.0447620487
0.0195822634 0.0289562665 -0.0740594918
0.0220193674 0.0272050306 -0.0631177172
0.0198980872 0.0287293242 -0.0739435577
0.0204758776 0.0283141399 -0.0442610616
0.0217434265 0.0274033141 -0.0173701550
0.0193018549 0.0291577603 -0.0314834233
0.0166373810 0.0307805311 -0.0340218331
0.0171789727 0.0304458777 -0.0613423839
0.0172715544 0.0304099819 -0.0484585013
0.0175240037 0.0302891968 -0.0316191339
0.0186372194 0.0296244371 -0.0600322234
0.0097580222 0.0335922548 -0.0645894275
0.0109755615 0.0332176915 -0.0468282246
0.0136614721 0.0321621408 -0.0257208099
0.0117482934 0.0329546079 -0.0535574074
0.0117601247 0.0329497072 -0.0610233558
0.0137075685 0.0321430470 -0.0442502172
0.0143993187 0.0318565138 -0.0629223992
0.0129864517 0.0324417443 -0.0606098097
0.0159003881 0.0311728702 -0.0277193988
0.0158175396 -0.0063676865 -0.0759999976
0.0086308803 -0.0036979786 -0.0759999976
0.0076781058 -0.0040010494 -0.0759999976
0.0306342573 -0.0047062210 -0.0759999976
0.0243525865 -0.0060321569 -0.0759999976
0.0278714352 -0.0093272031 -0.0759999976
0.0024935461 0.0064424186 -0.0759999976
0.0103791616 0.0255578292 -0.0759999976
0.0092898910 0.0187453090 -0.0759999976
-0.0135281155 0.0318006695 -0.0759999976
-0.0031177688 0.0076925196 -0.0759999976
0.0025687991 0.0097967417 -0.0759999976
0.0095700696 0.0310721240 -0.0759999976
-0.0107969625 0.0109518577 -0.0759999976
-0.0135944676 0.0138327315 -0.0759999976
-0.0196594399 0.0225030298 -0.0759999976
-0.0157006240 0.0201222349 -0.0759999976
-0.0111463394 0.0164143415 -0.0759999976
-0.0146384269 0.0248284690 -0.0759999976
0.0225979185 0.0026081468 -0.0759999976
0.0089182794 0.0002756496 -0.0759999976
0.0182512808 -0.0003411723 -0.0759999976
0.0201701448 -0.0013750835 -0.0759999976
0.0346317191 -0.0012742656 -0.0759999976
0.0157707269 0.0081633165 -0.0759999976
0.0202148336 0.0113245879 -0.0759999976
0.0278906462 0.0101770314 -0.0759999976
0.0325830166 0.0110864371 -0.0759999976
0.0336204362 0.0093906418 -0.0759999976
0.0148629916 0.0293048608 -0.0759999976
0.0157518795 0.0269900897 -0.0759999976
0.0077304650 0.0109200217 -0.0759999976
0.0206117004 0.0269324773 -0.0759999976
0.0151772024 0.0152417746 -0.0759999976
0.0131571614 0.0124973206 -0.0759999976
0.0154378615 0.0129513954 -0.0759999976
0.0150148860 0.0098253479 -0.0759999976
0.0283436591 0.0187278186 -0.0759999976
-0.0088233261 0.0294042036 -0.0759999976
-0.0066050308 0.0301158246 -0.0759999976
-0.0031529498 0.0131248976 -0.0759999976
-0.0027534146 0.0303764689 -0.0759999976
-0.0010113434 0.0213551812 -0.0759999976
0.0018691136 0.0275355650 -0.0759999976
0.0007043298 0.0272654864 -0.0759999976
0.0009773875 0.0113524735 -0.0759999976
-0.0101240672 0.0040527822 -0.0759999976
-0.0173314940 0.0090676095 -0.0759999976
-0.0215582755 0.0116437022 -0.0759999976
-0.0249144060 0.0147231958 -0.0759999976
-0.0238156758 0.0189978408 -0.0759999976
-0.0249357962 0.0184049132 -0.0759999976
-0.0327981335 0.0087600896 -0.0759999976
-0.0164581630 0.0035870949 -0.0759999976
-0.0313138059 0.0097360966 -0.0759999976
-0.0083649677 -0.0016486633 -0.0759999976
-0.0342550766 -0.0048573589 -0.0759999976
-0.0160606796 -0.0011658226 -0.0759999976
-0.0316413130 -0.0000328315 -0.0759999976
-0.0215098408 0.0030005172 -0.0759999976
-0.0330448450 0.0037162594 -0.0759999976
0.0197911532 -0.0240291133 -0.0759999976
0.0137264846 -0.0086478251 -0.0759999976
0.0195583038 -0.0125093683 -0.0759999976
0.0116237009 -0.0094120619 -0.0759999976
0.0197635253 -0.0166754865 -0.0759999976
0.0106490810 -0.0115272060 -0.0759999976
0.0192083765 -0.0173190850 -0.0759999976
0.0014397171 -0.0086636233 -0.0759999976
-0.0292875099 -0.0161936759 -0.0759999976
-0.0012679185 -0.0103066932 -0.0759999976
-0.0084436719 -0.0091595558 -0.0759999976
-0.0107979472 -0.0050270852 -0.0759999976
-0.0294457344 -0.0113639734 -0.0759999976
-0.0070701095 -0.0024334288 -0.0759999976
-0.0292761536 -0.0073648855 -0.0759999976
-0.0200003588 -0.0280347304 -0.0759999976
-0.0008982076 -0.0043936533 -0.0459143376
-0.0001827816 -0.0044828760 -0.0507506621
0.0002603271 -0.0044828760 -0.0639863573
0.0009479270 -0.0043848867 -0.0141616345
0.0012064806 -0.0043314542 -0.0475959006
0.0019675325 -0.0040404241 -0.0689559497
0.0025279402 -0.0037168726 -0.0245483785
0.0028166614 -0.0034885197 -0.0116304329
0.0034474781 -0.0028655728 -0.0465946175
0.0037392685 -0.0024891490 -0.0342410941
0.0039775099 -0.0020765028 -0.0531602122
0.0042732037 -0.0013665216 -0.0523441406
0.0044335577 -0.0006718989 -0.0695050070
0.0043653579 -0.0010586787 -0.0161722364
0.0044828760 -0.0002327233 -0.0199179869
0.0043761776 0.0009973189 -0.0615283787
0.0042834181 0.0013384588 -0.0595425163
0.0041154574 0.0017999266 -0.0181186632
0.0038486772 0.0022996479 -0.0439000005
0.0033598467 0.0029700079 -0.0546830197
0.0030512672 0.0032916621 -0.0277841632
0.0027211404 0.0035686712 -0.0519283351
0.0022184228 0.0038955724 -0.0422693180
0.0017531307 0.0041324896 -0.0356646465
0.0010152515 0.0043730152 -0.0439569584
0.0007998275 0.0044110004 -0.0115982500
0.0003111871 0.0044828760 -0.0130597433
-0.0006481961 0.0044377373 -0.0491202055
-0.0008559707 0.0044011011 -0.0376813914
-0.0015970257 0.0041893073 -0.0413418138
-0.0020663418 0.0039833765 -0.0451586061
-0.0026039683 0.0036669904 -0.0399732692
-0.0031757300 0.0031872254 -0.0680989759
-0.0035814418 0.0027059209 -0.0328385549
-0.0037391116 0.0024894207 -0.0399232812
-0.0041101112 0.0018146149 -0.0192444429
-0.0041776033 0.0016291818 -0.0294452053
-0.0044623584 0.0005085618 -0.0438706496
-0.0044828760 0.0000791554 -0.0540948823
-0.0044753237 -0.0004350322 -0.0185070328
-0.0043918554 -0.0009084056 -0.0121728805
-0.0043401784 -0.0011825113 -0.0239046851
-0.0040679155 -0.0019199159 -0.0137793027
-0.0037037645 -0.0025506441 -0.0471042744
-0.0032900360 -0.0030532051 -0.0521131821
-0.0028870761 -0.0034294347 -0.0504331582
-0.0024691286 -0.0037508273 -0.0297105007
-0.0021205146 -0.0039520997 -0.0329276275
-0.0011654433 -0.0043463902 -0.0428806226
-0.0319218654 -0.0138477808 -0.0169999991
-0.0021640882 -0.0345377991 -0.0169999991
0.0290030509 -0.0184715592 -0.0169999991
0.0277321642 0.0211519949 -0.0169999991
-0.0056278600 0.0337039895 -0.0169999991
-0.0326493237 0.0101472839 -0.0169999991
-0.0022952688 0.0088163312 -0.0088999970
-0.0052125355 0.0023251944 -0.0088999970
-0.0060976729 -0.0040589713 -0.0088999970
0.0004992413 -0.0066987439 -0.0088999970
0.0044515052 -0.0023753760 -0.0088999970
0.0092359852 0.0035022288 -0.0088999970
0.0014073329 0.0062437172 -0.0088999970
-0.0039320957 -0.0324378661 -0.0169000011
-0.0002126646 -0.0152438615 -0.0169000011
0.0139685235 0.0255884420 -0.0169000011
0.0148309159 0.0302454527 -0.0169000011
-0.0087963095 -0.0151488840 -0.0169000011
-0.0136679120 -0.0308760182 -0.0169000011
-0.0073576536 -0.0180385828 -0.0169000011
-0.0049421935 -0.0157867996 -0.0169000011
-0.0072579863 -0.0308995064 -0.0169000011
0.0087031494 0.0102431212 -0.0169000011
0.0187399324 0.0233902265 -0.0169000011
0.0100967109 0.0169128413 -0.0169000011
0.0206524849 0.0112328909 -0.0169000011
0.0183152739 0.0115310790 -0.0169000011
0.0201579074 0.0150993352 -0.0169000011
0.0253775772 0.0215133495 -0.0169000011
0.0193419285 0.0186598956 -0.0169000011
-0.0127015326 -0.0156955710 -0.0169000011
-0.0136720427 -0.0168951750 -0.0169000011
-0.0151507359 -0.0260993438 -0.0169000011
0.0195501078 -0.0146803059 -0.0169000011
0.0236350614 -0.0171973387 -0.0169000011
-0.0136819380 -0.0058688466 -0.0169000011
-0.0299858085 -0.0156621416 -0.0169000011
-0.0097669893 -0.0065088189 -0.0169000011
-0.0285567819 -0.0159720797 -0.0169000011
-0.0224363995 -0.0175134870 -0.0169000011
-0.0103965922 -0.0099679697 -0.0169000011
-0.0210489893 -0.0227244647 -0.0169000011
-0.0243892963 -0.0015280638 -0.0169000011
-0.0240321549 -0.0034709315 -0.0169000011
-0.0280314525 -0.0066749072 -0.0169000011
-0.0281371631 -0.0107350567 -0.0169000011
-0.0166267827 0.0055010267 -0.0169000011
-0.0297113469 0.0071677204 -0.0169000011
-0.0123190031 0.0023243355 -0.0169000011
-0.0325793650 0.0036815502 -0.0169000011
-0.0320866008 -0.0002920414 -0.0169000011
0.0209199392 -0.0119431313 -0.0169000011
0.0279069371 -0.0118190618 -0.0169000011
0.0277366585 -0.0105255929 -0.0169000011
0.0299165371 -0.0098491736 -0.0169000011
0.0160437407 -0.0027871321 -0.0169000011
0.0280326607 -0.0031228137 -0.0169000011
0.0162905786 -0.0012262621 -0.0169000011
-0.0249330719 0.0181174942 -0.0169000011
-0.0236433446 0.0161000081 -0.0169000011
-0.0203964486 0.0107940165 -0.0169000011
-0.0279975025 0.0102671456 -0.0169000011
-0.0270150481 0.0112457871 -0.0169000011
0.0300448088 -0.0022798075 -0.0169000011
0.0122846349 0.0009219663 -0.0169000011
0.0296261742 0.0043352630 -0.0169000011
0.0315542823 0.0080630811 -0.0169000011
0.0144093179 0.0061527910 -0.0169000011
0.0261177651 0.0075085534 -0.0169000011
0.0249055164 0.0112367836 -0.0169000011
0.0217490489 -0.0258462138 -0.0169000011
0.0166246763 -0.0200016442 -0.0169000011
0.0230528955 -0.0228567232 -0.0169000011
0.0019706513 -0.0280406450 -0.0169000011
0.0026753555 -0.0187300892 -0.0169000011
0.0054955508 -0.0277382933 -0.0169000011
0.0065814616 -0.0240324113 -0.0169000011
0.0049883308 -0.0144068465 -0.0169000011
0.0102407979 -0.0242080856 -0.0169000011
0.0130219908 -0.0255594946 -0.0169000011
0.0113671928 -0.0210101420 -0.0169000011
0.0185121461 -0.0281860604 -0.0169000011
-0.0116383514 0.0180852270 -0.0169000011
-0.0190342196 0.0273447793 -0.0169000011
-0.0232130862 0.0246026024 -0.0169000011
-0.0105985517 0.0097767460 -0.0169000011
-0.0250922169 0.0211771225 -0.0169000011
0.0101516949 0.0305005137 -0.0169000011
0.0036309178 0.0202212016 -0.0169000011
0.0013842430 0.0099312156 -0.0169000011
0.0011891564 0.0294387601 -0.0169000011
-0.0017675739 0.0291645275 -0.0169000011
-0.0001692298 0.0218038358 -0.0169000011
-0.0052762897 0.0325694424 -0.0169000011
-0.0042413592 0.0169717578 -0.0169000011
-0.0053954966 0.0193626567 -0.0169000011
-0.0074042468 0.0179304509 -0.0169000011
-0.0123544140 0.0249122676 -0.0169000011
-0.0095031355 0.0191912505 -0.0169000011
-0.0034641494 0.0093404356 -0.0164770504
-0.0062093948 0.0077940972 -0.0111558494
-0.0096401247 0.0026407578 -0.0137542029
-0.0098777373 -0.0013491344 -0.0136354793
-0.0079535579 -0.0060193569 -0.0139225781
-0.0048219000 -0.0087191404 -0.0095467389
0.0005813348 -0.0099619469 -0.0154495464
0.0054431360 -0.0083604694 -0.0167307944
0.0083928505 -0.0053870503 -0.0165777489
0.0099104100 -0.0011638371 -0.0090542487
0.0094467246 0.0031721228 -0.0096224282
0.0067356768 0.0073524943 -0.0128397959
0.0020283671 0.0097579698 -0.0129197360
-0.0085690005 -0.0022674691 -0.0088999970
-0.0063604827 0.0057111134 -0.0088999970
0.0008148308 0.0074603484 -0.0088999970
0.0060741288 0.0035944963 -0.0088999970
0.0077709984 -0.0050582778 -0.0088999970
0.0013433842 -0.0084424955 -0.0088999970
0.0007921064 0.0099619469 -0.0124572675
-0.0040147039 0.0091400501 -0.0089641329
-0.0078993894 0.0060839124 -0.0132734383
-0.0098525655 0.0014918891 -0.0104377290
-0.0095624302 -0.0028542242 -0.0141897270
-0.0068784881 -0.0072326614 -0.0109514795
-0.0028159469 -0.0095763612 -0.0146150074
0.0019682076 -0.0097685781 -0.0131363434
0.0062185261 -0.0077864351 -0.0139906874
0.0093522107 -0.0034317962 -0.0130733570
0.0099619469 0.0001200277 -0.0133548695
0.0083382204 0.0054816724 -0.0145789232
0.0050339615 0.0085967065 -0.0148662986
-0.0033488379 -0.0174876571 -0.0169000011
0.0045576589 -0.0096452936 -0.0169000011
0.0065157652 -0.0174385387 -0.0169000011
0.0154690037 0.0176830720 -0.0169000011
0.0203013245 0.0211886165 -0.0169000011
0.0213259117 0.0199502803 -0.0169000011
-0.0017098293 -0.0184807994 -0.0169000011
-0.0029788092 -0.0178332661 -0.0169000011
-0.0050472236 -0.0306489020 -0.0169000011
0.0117295136 0.0088034290 -0.0169000011
0.0268725858 0.0173521095 -0.0169000011
0.0168554806 0.0097674787 -0.0169000011
0.0274196027 0.0150374642 -0.0169000011
0.0300971059 0.0118851320 -0.0169000011
0.0189338365 0.0273415990 -0.0169000011
0.0072346401 0.0106932206 -0.0169000011
0.0199805092 0.0274076221 -0.0169000011
-0.0107324783 -0.0055983246 -0.0169000011
-0.0183833347 -0.0189302019 -0.0169000011
-0.0191821430 -0.0191781170 -0.0169000011
-0.0218499970 -0.0180790503 -0.0169000011
-0.0250678677 -0.0171691514 -0.0169000011
-0.0065708222 -0.0292112882 -0.0169000011
-0.0038009156 -0.0106187462 -0.0169000011
0.0061647865 -0.0186726659 -0.0169000011
0.0064836913 -0.0230681041 -0.0169000011
0.0042907536 -0.0229601453 -0.0169000011
0.0026956586 -0.0262443904 -0.0169000011
0.0007860989 -0.0136989663 -0.0169000011
0.0058487850 0.0220690274 -0.0169000011
0.0046737538 0.0150014696 -0.0169000011
0.0068480280 0.0183791528 -0.0169000011
0.0147118139 0.0312139977 -0.0169000011
-0.0084617393 -0.0235331192 -0.0169000011
-0.0133078720 -0.0248080840 -0.0169000011
-0.0162099718 -0.0287297698 -0.0169000011
-0.0111172464 -0.0159629437 -0.0169000011
-0.0124121293 -0.0175409039 -0.0169000011
0.0202597763 -0.0240909293 -0.0169000011
0.0200882629 -0.0280312365 -0.0169000011
0.0144845325 -0.0214601677 -0.0169000011
0.0146484037 -0.0121668484 -0.0169000011
0.0144359430 -0.0134118258 -0.0169000011
0.0197154048 -0.0229494993 -0.0169000011
0.0251853685 0.0075735570 -0.0169000011
0.0329680557 0.0074391933 -0.0169000011
0.0106994571 0.0018570825 -0.0169000011
0.0251963884 0.0017549919 -0.0169000011
0.0213594766 0.0009403259 -0.0169000011
0.0158079279 -0.0057495194 -0.0169000011
0.0197090087 -0.0092144435 -0.0169000011
0.0142462653 -0.0089308564 -0.0169000011
0.0253058449 -0.0140417723 -0.0169000011
0.0124684689 -0.0088018326 -0.0169000011
0.0296089351 0.0008622606 -0.0169000011
0.0341993772 -0.0029293946 -0.0169000011
0.0155187647 -0.0020979407 -0.0169000011
0.0206949869 -0.0039293644 -0.0169000011
0.0316425903 -0.0112172637 -0.0169000011
0.0000016771 0.0148555462 -0.0169000011
0.0031839558 0.0344505417 -0.0169000011
0.0054062196 0.0311274873 -0.0169000011
-0.0158388525 0.0207179573 -0.0169000011
-0.0112246380 0.0164460813 -0.0169000011
-0.0113773372 0.0202522780 -0.0169000011
-0.0084810638 0.0178392922 -0.0169000011
-0.0145854893 0.0112174106 -0.0169000011
-0.0217287711 0.0190846527 -0.0169000011
-0.0213509849 0.0226770869 -0.0169000011
-0.0141028390 0.0051546762 -0.0169000011
-0.0245215276 0.0121446146 -0.0169000011
-0.0123640787 0.0065888083 -0.0169000011
-0.0295221837 0.0184801750 -0.0169000011
-0.0181701005 0.0133447266 -0.0169000011
-0.0254585583 -0.0017970657 -0.0169000011
-0.0188245286 -0.0011312375 -0.0169000011
-0.0243997603 -0.0141552965 -0.0169000011
-0.0224154189 -0.0103246243 -0.0169000011
-0.0098519619 -0.0033695297 -0.0169000011
-0.0175447898 -0.0057171768 -0.0169000011
-0.0318320158 -0.0053439957 -0.0169000011
-0.0060819434 0.0171737349 -0.0169000011
-0.0069195381 0.0289564239 -0.0169000011
-0.0094362478 0.0314298793 -0.0169000011
-0.0029828598 0.0208476266 -0.0169000011
-0.0020817370 0.0266150426 -0.0169000011
-0.0183682234 0.0010082507 -0.0169000011
-0.0329449344 0.0015194038 -0.0169000011
-0.0276170685 0.0020036281 -0.0169000011
-0.0223315152 0.0058307948 -0.0169000011
-0.0310344963 0.0075790342 -0.0169000011
-0.0302311257 0.0093914307 -0.0169000011
-0.0302922224 -0.0174608942 -0.0167134583
-0.0294422253 -0.0188806269 -0.0050251507
-0.0194136448 -0.0290875790 -0.0154591509
0.0000221339 0.0349924394 -0.0026332479
0.0009570824 0.0349641289 -0.0119424623
-0.0186942370 0.0295685945 -0.0033332669
-0.0164588705 0.0308769894 -0.0120469297
0.0030892241 0.0348395284 -0.0080943923
0.0042030830 0.0347358750 -0.0029350743
0.0076780229 0.0341433669 -0.0038811101
-0.0139641398 0.0320692663 -0.0064859191
-0.0120389999 0.0328174257 -0.0022833564
-0.0088227989 0.0338262549 -0.0092133977
-0.0066800835 0.0343546557 -0.0111374323
-0.0053520830 0.0345458983 -0.0122617815
-0.0025465928 0.0348964298 -0.0088176762
-0.0273092619 0.0218723353 -0.0146434744
-0.0258551515 0.0235330070 -0.0107189749
-0.0237436569 0.0256532729 -0.0080664391
-0.0207032355 0.0281686481 -0.0039241439
-0.0204898869 0.0283302779 -0.0096633045
-0.0305708643 0.0169919954 -0.0128484168
-0.0282277260 0.0206216843 -0.0051408408
-0.0314954251 0.0152130603 -0.0041481296
-0.0325496290 0.0128155233 -0.0095200699
-0.0336569613 0.0095241190 -0.0093745333
-0.0339058821 0.0085988472 -0.0099293351
-0.0345621804 0.0054894966 -0.0152550551
-0.0347417976 0.0038533044 -0.0064317254
-0.0349851003 -0.0007715748 -0.0118358225
-0.0316814087 -0.0148319584 -0.0039528519
-0.0323298567 -0.0132933422 -0.0125140259
-0.0331230391 -0.0112136855 -0.0043544493
-0.0339592736 -0.0084542978 -0.0087743349
-0.0345696809 -0.0053731837 -0.0028811955
-0.0346699590 -0.0046664340 -0.0073515920
-0.0196761253 -0.0289329656 -0.0136185680
-0.0211982871 -0.0277966497 -0.0065835405
-0.0230473106 -0.0263304319 -0.0046748630
-0.0251124524 -0.0243463673 -0.0138811810
-0.0274701808 -0.0216526208 -0.0052786939
-0.0283007678 -0.0205414694 -0.0076875647
-0.0107515646 -0.0333000054 -0.0070245794
-0.0135701458 -0.0322428795 -0.0028347161
-0.0136540528 -0.0266259025 -0.0009999970
-0.0200700699 0.0196492592 -0.0009999970
-0.0252698535 0.0233585920 -0.0009999970
-0.0117288147 0.0325471538 -0.0009999970
0.0232959251 0.0179991109 -0.0009999970
0.0196279657 0.0279377493 -0.0009999970
0.0270285432 0.0075126315 -0.0009999970
0.0167837964 -0.0277152645 -0.0009999970
0.0054075223 -0.0333678392 -0.0009999970
-0.0071269853 -0.0330695493 -0.0009999970
-0.0250875178 -0.0193256720 -0.0009999970
-0.0182208488 -0.0214666317 -0.0009999970
-0.0173988410 -0.0300389254 -0.0009999970
-0.0267079080 -0.0103165098 -0.0009999970
-0.0155686405 0.0278778885 -0.0009999970
-0.0292918298 -0.0114193579 -0.0009999970
-0.0033835066 -0.0293435818 -0.0009999970
-0.0054976002 -0.0282479287 -0.0009999970
0.0127564706 -0.0307158504 -0.0009999970
0.0240542054 -0.0150628148 -0.0009999970
-0.0308036591 -0.0159967284 -0.0009999970
-0.0277176292 0.0152360386 -0.0009999970
-0.0313438691 0.0067781919 -0.0009999970
-0.0310107220 -0.0042717482 -0.0009999970
0.0111124679 0.0262397311 -0.0009999970
-0.0029444020 0.0301789966 -0.0009999970
0.0039000486 0.0298057333 -0.0009999970
0.0149145215 0.0256683470 -0.0009999970
0.0277539152 0.0117045870 -0.0009999970
0.0287425821 0.0155428729 -0.0009999970
0.0334988703 0.0058411279 -0.0009999970
0.0308920698 -0.0092842623 -0.0009999970
0.0295407860 -0.0168598036 -0.0009999970
0.0194701106 -0.0267143929 -0.0009999970
0.0260200793 -0.0138293572 -0.0009999970
0.0172085447 0.0304766294 -0.0150902630
0.0169052028 0.0306333888 -0.0042379879
0.0305400680 0.0170419343 -0.0123831662
0.0171192622 -0.0305261646 -0.0043585089
0.0167554387 -0.0307283114 -0.0136222501
0.0008698861 -0.0349556614 -0.0022692617
-0.0013457460 -0.0349395340 -0.0149612742
0.0093870767 0.0337112242 -0.0034285340
-0.0042738699 -0.0347241040 -0.0152969414
-0.0072018494 -0.0342372164 -0.0078113597
0.0135371531 -0.0322709740 -0.0139129371
0.0123153568 -0.0327186035 -0.0079425853
0.0098389787 -0.0335756616 -0.0067922802
0.0078781552 -0.0340592072 -0.0153034818
0.0050936773 -0.0345823499 -0.0054001222
0.0029236933 -0.0348728691 -0.0079527007
0.0264935292 -0.0228039457 -0.0048953502
0.0251788764 -0.0243053493 -0.0014981786
0.0228439759 -0.0264913755 -0.0018314034
0.0224615748 -0.0268365551 -0.0091005046
0.0199137052 -0.0287667851 -0.0047261285
0.0304552899 -0.0171869324 -0.0137473944
0.0290277021 -0.0194952731 -0.0078356190
0.0317019084 -0.0147434629 -0.0098705294
0.0315688334 -0.0150461104 -0.0023009933
0.0331414013 -0.0111191996 -0.0011467026
0.0338121428 -0.0090365411 -0.0137756149
0.0339545932 -0.0083714021 -0.0032950742
0.0348912089 -0.0024922673 -0.0136149381
0.0349635259 -0.0000607712 -0.0151947885
0.0313142268 0.0156209253 -0.0046937356
0.0317703330 0.0146209617 -0.0154975409
0.0329126453 0.0119005908 -0.0054939305
0.0337362921 0.0092115031 -0.0087603117
0.0344223044 0.0061170867 -0.0109332720
0.0347749542 0.0035520320 -0.0036200192
0.0349687238 0.0014767676 -0.0078976059
0.0202435129 0.0285433905 -0.0141515007
0.0234568951 0.0259369276 -0.0043620646
0.0250474011 0.0244088647 -0.0160825075
0.0264010547 0.0229122433 -0.0088462531
0.0284057488 0.0203899827 -0.0058343679
0.0113929077 0.0330594658 -0.0035371137
0.0124320403 0.0326697328 -0.0116844180
-0.0265932044 0.0141648077 -0.0071914879
-0.0297682390 0.0170971856 -0.0052576651
-0.0162383842 0.0304255908 -0.0069781925
-0.0010569482 0.0275694504 -0.0071428213
0.0000000002 0.0286745527 -0.0052655874
-0.0180488788 -0.0291820299 -0.0071880697
-0.0276831966 -0.0173302961 -0.0069378632
-0.0296282299 -0.0167538630 -0.0052916510
-0.0312303364 0.0008745556 -0.0073846659
0.0012393350 -0.0334713830 -0.0066243441
-0.0006152165 -0.0280078123 -0.0054128308
0.0142018290 -0.0259290705 -0.0075542333
0.0169525759 -0.0268766037 -0.0064936417
0.0278102444 -0.0169058469 -0.0054945004
0.0320433887 -0.0004998565 -0.0076375776
0.0293823727 0.0012302955 -0.0063452794
0.0298155380 0.0161169122 -0.0057040454
0.0141285053 0.0236708301 -0.0076806221
0.0146488362 0.0277473299 -0.0061207472
-0.0025604534 0.0036981011 -0.0007909923
-0.0044828760 0.0000315305 -0.0042055394
-0.0029301044 -0.0033933297 -0.0018545090
0.0017160695 -0.0041459789 -0.0048347398
0.0044048051 -0.0008349627 -0.0082432944
0.0032686419 0.0030787016 -0.0067480402
0.0051470964 -0.0018213760 -0.0000000024
0.0173742800 -0.0122583709 -0.0000000024
0.0169409636 -0.0105869625 -0.0000000024
0.0246314254 -0.0099349097 -0.0000000024
0.0175051122 0.0119317309 -0.0000000024
0.0039352299 -0.0073394853 -0.0000000024
0.0105376678 -0.0159786995 -0.0000000024
0.0173710084 -0.0195105936 -0.0000000024
0.0047839884 -0.0048621839 -0.0000000024
0.0158448407 0.0131238281 -0.0000000024
0.0164397880 0.0157857202 -0.0000000024
0.0138159546 0.0197405918 -0.0000000024
0.0077759112 0.0135056103 -0.0000000024
0.0111972570 0.0254881316 -0.0000000024
0.0112422441 0.0031183940 -0.0000000024
0.0201524777 0.0066630961 -0.0000000024
0.0188040520 0.0100927559 -0.0000000024
0.0236326096 -0.0084670971 -0.0000000024
0.0108903244 -0.0027769128 -0.0000000024
0.0098147162 -0.0010965255 -0.0000000024
0.0077860556 -0.0000658493 -0.0000000024
0.0239204338 0.0007280156 -0.0000000024
0.0275752981 0.0035148181 -0.0000000024
0.0060117398 -0.0262638277 -0.0000000024
0.0068133150 -0.0186047637 -0.0000000024
0.0111010234 -0.0197350619 -0.0000000024
-0.0014207858 -0.0250294543 -0.0000000024
0.0017710270 -0.0253460182 -0.0000000024
0.0018236118 -0.0122913061 -0.0000000024
-0.0227430456 -0.0042302871 -0.0000000024
-0.0139383399 -0.0043640009 -0.0000000024
-0.0119661602 0.0012956192 -0.0000000024
-0.0123602996 0.0000862098 -0.0000000024
-0.0265046245 -0.0024540479 -0.0000000024
-0.0073806524 -0.0195535400 -0.0000000024
-0.0045510962 -0.0252369040 -0.0000000024
-0.0151682402 -0.0208014184 -0.0000000024
-0.0109430162 -0.0163961278 -0.0000000024
-0.0090853579 -0.0140642048 -0.0000000024
-0.0120620802 -0.0248531469 -0.0000000024
-0.0255325464 -0.0093544765 -0.0000000024
-0.0064014050 -0.0037799699 -0.0000000024
-0.0145519109 -0.0101954089 -0.0000000024
-0.0185510714 -0.0170016534 -0.0000000024
-0.0113006182 -0.0118666047 -0.0000000024
-0.0210259823 0.0171366475 -0.0000000024
-0.0208412040 0.0132233335 -0.0000000024
-0.0247436061 0.0105297959 -0.0000000024
-0.0086979692 0.0024730778 -0.0000000024
-0.0198919936 0.0038763737 -0.0000000024
-0.0067769076 0.0114955580 -0.0000000024
-0.0135051662 0.0199370952 -0.0000000024
-0.0144872474 0.0189795774 -0.0000000024
-0.0179183470 0.0173098980 -0.0000000024
-0.0033329318 0.0143094096 -0.0000000024
-0.0091402777 0.0211130799 -0.0000000024
-0.0070212897 0.0128901708 -0.0000000024
0.0053974433 0.0177721450 -0.0000000024
0.0045774474 0.0182177988 -0.0000000024
0.0015633156 0.0125560604 -0.0000000024
-0.0009833195 0.0156821579 -0.0000000024
-0.0017834134 0.0160149176 -0.0000000024
0.0035358737 -0.0277316750 -0.0009653743
0.0278742050 -0.0021796226 -0.0007694710
0.0091022302 0.0264354202 -0.0001762369
-0.0236440781 0.0149275789 -0.0001437206
-0.0172152683 -0.0220279647 -0.0007709578
-0.0305640416 -0.0091031189 -0.0078139243
-0.0224216879 -0.0207776359 -0.0043266408
-0.0206924948 -0.0221280936 -0.0075226942
0.0071171902 -0.0308009873 -0.0018273677
0.0216761781 -0.0206989038 -0.0069911562
0.0231026384 -0.0223127387 -0.0068532268
0.0288650121 -0.0086455344 -0.0038037757
0.0299976380 0.0092686333 -0.0030062549
0.0308431352 0.0071580408 -0.0010739552
0.0207272372 0.0215574023 -0.0031222658
0.0224175625 0.0230644857 -0.0016632703
0.0088168931 0.0289839787 -0.0015177308
-0.0092452641 0.0297022169 -0.0059199063
-0.0074364378 0.0310427065 -0.0031106162
-0.0213731354 0.0207983388 -0.0037580718
-0.0311634782 0.0082767541 -0.0023538017
-0.0290694309 0.0089153405 -0.0020655468
-0.0009249788 -0.0273907014 -0.0070319462
-0.0288820704 -0.0074405277 -0.0085207545
0.0084654115 0.0290804728 -0.0086668647
