0.0038071393 -0.0187719791 -0.1541057772
0.0014314977 -0.0275554491 -0.1512805773
-0.0027670419 -0.0028204752 -0.1524492779
-0.0038979893 -0.0044167130 -0.1546073643
-0.0015116919 0.0091717304 -0.1581613003
0.0024810428 -0.0018379436 -0.1578361636
-0.0172180735 0.0196271848 -0.1728741507
0.0167152421 0.0149716717 -0.1728776932
0.0138986398 -0.0058117810 -0.1756716730
0.0248256716 0.0092025424 -0.1567110354
-0.0189254079 0.0030995064 -0.1712367186
-0.0215207634 0.0128933551 -0.1670610686
-0.0227125126 -0.0180299321 -0.1646090533
-0.0242409700 0.0156348738 -0.1601071348
-0.0013344549 -0.0161847072 -0.1799022138
-0.0082390948 0.0028737185 -0.1783790299
-0.0094296972 0.0043384585 -0.1778983950
-0.0134878122 -0.0037962330 -0.1758480376
0.0122219532 0.0008773646 -0.1765858323
0.0076980734 -0.0016810584 -0.1786707889
0.0008834929 -0.0124714992 -0.1798618467
0.0243161321 0.0087140986 -0.1599716874
0.0229838590 -0.0159893564 -0.1645264168
0.0215625841 0.0170248834 -0.1671191423
-0.0170669658 -0.0225768557 -0.1380759397
0.0024386034 -0.0254684981 -0.1305008315
-0.0142686414 0.0086472094 -0.1347661707
-0.0249393411 -0.0127228686 -0.1548111240
-0.0247950564 -0.0122996779 -0.1530069121
0.0213060054 0.0115043043 -0.1425578093
0.0230870441 -0.0046273496 -0.1460253097
0.0240429058 0.0182456507 -0.1490760056
0.0246428631 -0.0222737380 -0.1523313426
0.0013375596 0.0222987334 -0.1302055170
0.0107061351 -0.0166204618 -0.1326246237
0.0128808375 0.0014770110 -0.1337963438
-0.0121866139 0.0126744157 -0.1333133080
-0.0116720727 0.0205456234 -0.1330242595
-0.0047308353 -0.0072625934 -0.1309120422
-0.0017551446 -0.0087176987 -0.1303352006
-0.0234335085 0.0206561941 -0.1465209066
-0.0219990372 0.0143564446 -0.1436598097
-0.0195057120 -0.0209304145 -0.1395325299
0.0237433864 0.0244999994 -0.1517826395
0.0081935273 0.0244999994 -0.1495487482
-0.0048302811 0.0244999994 -0.1581892469
0.0111044042 0.0244999994 -0.1375901424
-0.0028543947 0.0244999994 -0.1407670911
-0.0122507083 0.0244999994 -0.1701080712
-0.0154303358 0.0244999994 -0.1487281362
0.0167926674 0.0244999994 -0.1651288943
-0.0003473817 -0.0229976778 -0.1320191190
-0.0070107241 -0.0317000002 -0.1547902270
-0.0142968894 -0.0255999994 -0.1735545038
-0.0217786708 -0.0255999994 -0.1449880539
0.0162184524 -0.0255999994 -0.1434853821
-0.0104730343 -0.0255999994 -0.1549468037
0.0118732281 -0.0255999994 -0.1400957736
-0.0015493206 -0.0255999994 -0.1719547355
0.0180949601 -0.0255999994 -0.1712820614
-0.0016720370 -0.0305544184 -0.1642057822
0.0043157722 -0.0273723337 -0.1463114449
0.0044558801 -0.0317000002 -0.1614207395
-0.0074213581 -0.0275860296 -0.1605480136
0.0098271636 -0.0284801130 -0.1547016374
-0.0006777888 -0.0257000010 -0.1416117110
-0.0134821997 -0.0257000010 -0.1607605149
-0.0123239158 -0.0257000010 -0.1410496961
-0.0049790521 -0.0257000010 -0.1663387554
-0.0160998608 -0.0257000010 -0.1541701677
0.0073004810 -0.0257000010 -0.1686060462
0.0181291077 -0.0257000010 -0.1710060006
0.0014734877 -0.0348556449 -0.1515580117
-0.0197968553 -0.0274142071 -0.1407242749
0.0228928559 -0.0272017422 -0.1465921680
0.0091354518 -0.0388255919 -0.1318246661
-0.0075313925 -0.0338972903 -0.1315915246
-0.0221267158 -0.0378804153 -0.1437824146
0.0170657884 -0.0372345345 -0.1729540194
-0.0222052402 -0.0282153285 -0.1658378047
-0.0082130392 -0.0341314599 -0.1780513267
0.0119305152 -0.0288038698 -0.1765481175
0.0239226177 -0.0270688974 -0.1614299221
0.0078845011 -0.0395000018 -0.1315220388
-0.0007039745 -0.0395000018 -0.1720072098
-0.0047241277 -0.0395000018 -0.1482320277
-0.0134828350 -0.0395000018 -0.1590991402
0.0144309711 -0.0395000018 -0.1620174061
0.0212395372 -0.0395000018 -0.1514400757
0.0101360778 -0.0395000018 -0.1673478203
-0.0042821285 -0.0395000018 -0.1467558793
0.0174183330 -0.0351115172 -0.1371180411
0.0083976897 -0.0366018460 -0.1759829615
0.0012856186 -0.0369230174 0.0146059200
0.0134961040 -0.0427950450 -0.0046835971
-0.0108971559 -0.0386909218 -0.0091207554
0.0060989515 -0.0351499657 0.0175903217
-0.0151751423 -0.0350491374 -0.0112191351
-0.0020454516 -0.0350736216 -0.0223154818
0.0159359799 -0.0350347572 -0.0190429134
-0.0149171902 -0.0350184084 0.0206208747
-0.0204874933 -0.0351078666 0.0029610400
-0.0096787163 -0.0429353897 -0.0150808188
-0.0068515332 -0.0428683761 0.0145998150
-0.0081114751 -0.0428415784 0.0189098075
0.0185064456 -0.0429055622 0.0001399024
0.0157859707 -0.0429804113 -0.0109932941
-0.0223903647 -0.0428669995 -0.0030758830
0.0010754673 -0.0363621459 -0.0207137395
0.0246070923 -0.0383945646 0.0072090830
0.0000520416 -0.0426445506 0.0259548556
-0.0221936300 -0.0378507940 0.0128415962
-0.0202890886 -0.0394097003 -0.0155241722
0.0042628950 -0.0416130479 -0.0253135598
0.0247108817 -0.0391553939 -0.0071315747
0.0199893221 -0.0390953251 0.0089672596
-0.0159962750 -0.0404187053 -0.0103677837
0.0025142458 -0.0350702760 0.0050079385
0.0023560599 -0.0429411767 0.0074087532
0.0075400765 -0.0428590794 -0.0038038835
-0.0023381461 -0.0406473168 0.0039906261
0.0062094098 -0.0385123377 -0.0002795165
-0.0026891986 -0.0381766476 -0.0110268444
0.0077961548 -0.0372511878 0.0087057752
-0.0073802968 -0.0383093254 0.0086995168
0.0028912125 -0.0362917506 0.0114810857
0.0067131521 -0.0362598083 -0.0094428797
-0.0083112697 -0.0351675429 0.0077320444
0.0123001633 -0.0427108353 0.0061151156
-0.0099883518 -0.0393157068 -0.0105727925
0.0138840847 -0.0369939998 -0.0043701540
-0.0000727886 -0.0372348762 0.0145323245
-0.0146168923 -0.0357822620 -0.0030065143
-0.0103423599 -0.0538242290 -0.1353284781
0.0209557358 -0.0523739780 -0.1614955429
0.0078214521 -0.0542617891 -0.1335686905
-0.0196787081 -0.0496406880 -0.1437188473
0.0086208041 -0.0497358681 -0.1760993805
0.0110430457 -0.0554999970 -0.1606174303
0.0140894584 -0.0554999970 -0.1513063039
-0.0098299802 -0.0554999970 -0.1512179373
-0.0142916902 -0.0554999970 -0.1427188258
0.0086608295 -0.0554999970 -0.1346037123
-0.0163692898 -0.0554999970 -0.1452668069
-0.0097670048 -0.0450112608 -0.1761154046
-0.0193950431 -0.0485296779 -0.1651293881
0.0218628863 -0.0480951368 -0.1491284430
-0.0075825528 -0.0440105138 -0.1650281553
-0.0073834854 -0.0444999896 -0.1360923329
0.0002921503 -0.0444999896 -0.1367202629
0.0079416841 -0.0438853889 -0.1663352751
-0.0044247180 -0.0443569102 -0.1701415463
0.0076363293 -0.0543046548 -0.1491446112
-0.0080746598 -0.0512035992 -0.1505051872
-0.0005476537 -0.0460509986 -0.1645532567
0.0062273225 -0.0455000065 -0.1588271312
-0.0169229358 -0.0462764341 -0.1647905416
-0.0083468922 -0.0544025876 -0.1393824346
-0.0046212284 -0.0431108415 -0.1458863150
-0.0048219258 -0.0522858372 0.0002962221
0.0031131304 -0.0480350701 -0.0025999442
-0.0092712398 -0.0304125494 0.0047995718
0.0135628026 -0.0304881436 -0.0059450505
-0.0150542404 -0.0305476643 0.0033211870
-0.0003875695 -0.0325384321 -0.0153160860
-0.0065608421 -0.0341269318 0.0120875100
-0.0039751410 -0.0350272995 0.0068973476
0.0000416727 -0.0373744849 0.0052353029
-0.0033589885 -0.0482379114 -0.0007698789
0.0019839404 -0.0552485007 0.0034674010
-0.0000274331 -0.0486697459 -0.0038509595
0.0065764319 -0.0314680089 0.0052967353
0.0049463472 -0.0328982454 0.0071988758
-0.0046769457 -0.0322451263 0.0125414377
0.0035994835 -0.0324365636 -0.0133242309
0.0098017799 -0.0432237397 -0.0048056683
-0.0112563469 -0.0515206237 0.0180116160
0.0202434470 -0.0486717251 -0.0101153027
-0.0145486849 -0.0499467766 -0.0164565418
-0.0211163884 -0.0486870068 0.0053261423
0.0023705213 -0.0484571242 -0.0219434044
0.0185125004 -0.0554999970 -0.0049165261
0.0055817018 -0.0554999970 -0.0183629523
-0.0052940608 -0.0554999970 -0.0193487106
0.0035534820 -0.0554999970 0.0185593227
-0.0175095818 -0.0554999970 0.0002570854
-0.0196581159 -0.0554999970 0.0060972754
0.0203141040 -0.0540393218 -0.0112267437
-0.0133589193 -0.0506075813 -0.0183384133
0.0206520157 -0.0448611847 -0.0092130633
-0.0106096919 -0.0444453931 0.0077048459
-0.0205298495 -0.0445269914 -0.0011685588
-0.0233613685 -0.0448477603 0.0020496039
0.0157818911 -0.0444999896 0.0030358597
-0.0037308833 -0.0444999896 -0.0195579303
0.0092636814 -0.0551785637 0.0005217497
-0.0085868833 -0.0476988464 0.0041176578
-0.0015493679 -0.0510406334 -0.0096769994
0.0035947998 -0.0455000065 -0.0053705605
0.0079452993 -0.0525220740 -0.0144653783
-0.0080316638 -0.0470755382 0.0156187529
-0.0096957597 -0.0435277294 0.0007900237
-0.0233001838 -0.0548302254 -0.0457554157
-0.0233001862 -0.0543023255 -0.0362762633
-0.0233000217 -0.0502137911 -0.0690003037
-0.0233000746 -0.0503453105 -0.0403996807
-0.0232999995 -0.0521400640 -0.1149363142
-0.0232999995 -0.0467435731 -0.1185618698
-0.0232999995 -0.0481219274 -0.0958871427
-0.0048530279 -0.0475790917 0.0233403427
0.0232393312 -0.0489788573 0.0048394998
-0.0191662060 -0.0540618417 0.0143651942
0.0234016551 -0.0550000034 -0.1048757381
-0.0026848619 -0.0551042427 0.0234924386
-0.0074828826 -0.0450000130 -0.1777017728
0.0240112443 -0.0467321642 0.0019721994
0.0088536056 -0.0544178169 0.0219135915
-0.0084539806 -0.0457591242 0.0223184514
-0.0225738521 -0.0538393827 0.0083009164
-0.0242999997 -0.0511581422 -0.0813727341
-0.0242999997 -0.0514253063 -0.0578369142
-0.0242999997 -0.0503425947 -0.1294619972
-0.0242999997 -0.0454202932 -0.0511287947
-0.0242999997 -0.0481356124 -0.0763868090
-0.0242999997 -0.0458594254 -0.0255827556
-0.0242999997 -0.0476389506 -0.1010698256
-0.0231722132 -0.0525610374 -0.1598878260
-0.0050815069 -0.0489392293 -0.1785499080
0.0155352190 -0.0487932596 -0.1733954017
0.0227358387 -0.0537555431 -0.1617790783
0.0242999997 -0.0536361155 -0.0353476092
0.0242999997 -0.0511263036 -0.0282402639
0.0242999997 -0.0505052850 -0.0685805740
0.0242999997 -0.0456206987 -0.0843636399
0.0242999997 -0.0465518454 -0.0919439525
0.0242999997 -0.0509505021 -0.1155099701
0.0242999997 -0.0485576345 -0.1147962117
0.0197673026 -0.0492396266 -0.1669736406
0.0016435956 -0.0516508307 -0.1784196237
-0.0189651162 -0.0465862283 -0.1678180680
0.0232999995 -0.0497447315 -0.1152245487
0.0232999995 -0.0503434864 -0.1234863044
0.0232999995 -0.0543847246 -0.0691990912
0.0232999995 -0.0542901995 -0.0141133165
0.0232920234 -0.0450283911 -0.1333140130
0.0232941570 -0.0478564418 -0.0951624774
0.0232842203 -0.0469502712 -0.0827397273
0.0058801717 -0.0573415040 -0.0051198617
0.0020916317 -0.0470326746 0.0094538011
-0.0088065817 -0.0549872285 -0.0036235049
0.0035475109 -0.0520335998 -0.0087444631
-0.0083595192 -0.0532205308 0.0039814311
0.0082596259 -0.0466512388 -0.0029085576
-0.0017484622 -0.0554999970 0.0053563840
-0.0042995574 -0.0569396084 0.0028344280
-0.0003548739 -0.0486808450 0.0044736758
0.0038735187 -0.0496824728 -0.0025139396
0.0006183256 -0.0555470018 0.0049703030
0.0017939067 -0.0465418055 0.0088755610
0.0046994995 -0.0457181506 -0.0059853323
0.0075977552 -0.0551151981 0.0002705583
-0.0076542171 -0.0603223918 0.0005407415
0.0194570815 -0.0443985270 -0.1421666978
0.0080571914 -0.0436952661 -0.1314055803
0.0046686780 -0.0444590960 -0.1736714848
0.0158280228 -0.0443975625 -0.1486261317
-0.0199619162 -0.0442765367 -0.1504599584
0.0125911328 -0.0413714159 -0.1691923747
-0.0062752501 -0.0395435296 -0.1737005694
0.0155914415 -0.0395780094 -0.1572707815
0.0191721720 -0.0395000018 -0.1541919777
0.0246802743 -0.0384966152 -0.1601252040
0.0200342907 -0.0401775238 -0.1712843338
-0.0154576919 -0.0395333619 -0.1751726102
-0.0225939287 -0.0429273900 -0.1426700764
0.0079903226 -0.0439966531 -0.1309901639
0.0143008265 -0.0414923925 -0.1615454650
-0.0132850507 -0.0400092631 -0.1615221219
0.0156550158 -0.0423542326 -0.1530778990
-0.0195315250 -0.0431768323 -0.1623748164
0.0197206587 -0.0407605525 -0.1451476840
-0.0134127230 -0.0408959590 -0.1671938663
-0.0008607870 -0.0430899455 -0.1313763805
0.0173584843 -0.0427613281 -0.1422312882
0.0120882699 -0.0418208258 -0.1743210717
-0.0182297506 -0.0429776603 -0.1702439265
-0.0207422624 -0.0416871384 -0.1547941794
-0.0051580744 -0.0270136074 -0.1183619905
-0.0035208630 -0.0299655484 -0.1253513283
0.0056880084 -0.0248734534 -0.1257868243
-0.0203034336 -0.0272352696 -0.1261747597
-0.0075240522 -0.0289692054 -0.1192397517
0.0123754094 -0.0200416229 -0.1232379459
0.0148039298 -0.0286228292 -0.1256157595
-0.0113919602 -0.0270140709 -0.1199625320
-0.0285678761 -0.0508633376 -0.0105925260
-0.0286657698 -0.0538182638 -0.0160103952
-0.0208286466 -0.0522713738 0.0177714852
0.0285238286 -0.0513854503 -0.0129173759
0.0312949884 -0.0556206141 -0.0489420083
0.0362533365 -0.0521147402 -0.1238506197
0.0379873116 -0.0533656053 -0.1566668342
0.0147715410 -0.0523104970 -0.1902173830
0.0378375551 -0.0497498712 -0.1439700048
0.0197711269 -0.0517658413 0.0185987989
0.0016055940 -0.0514026459 -0.1924888863
-0.0278253483 -0.0526524997 -0.1806735143
-0.0089652662 -0.0582803156 -0.1885940336
-0.0356098012 -0.0577835656 -0.1372198142
-0.0379935156 -0.0503715537 -0.1519324240
-0.0348452796 -0.0538005689 -0.1053258542
-0.0339131957 -0.0503366817 -0.0861918010
0.0338655249 -0.0566945474 -0.0923458455
0.0083045440 -0.0585893882 -0.1883803506
0.0221033564 -0.0601161135 -0.0149008339
0.0050412384 -0.0635393948 -0.0160293475
0.0071021183 -0.0639376526 -0.0432074728
0.0037678277 -0.0645465445 -0.0616548042
0.0307477994 -0.0588716908 -0.0857420702
0.0294577299 -0.0585284676 -0.0571424109
0.0026910498 -0.0652559896 -0.1389531974
0.0083257700 -0.0645774500 -0.0815369196
0.0129833611 -0.0645526364 -0.1259986663
0.0253050173 -0.0612423983 -0.0911377388
0.0245145970 -0.0609133588 -0.0658524085
0.0217475444 -0.0625964531 -0.1082246721
0.0170334688 -0.0627547698 -0.0557184879
0.0178417280 -0.0616452269 -0.0193531117
0.0150516234 -0.0635322688 -0.0784979677
0.0119811239 -0.0638131689 -0.0643055834
0.0328447325 -0.0512618314 -0.0707177515
0.0243538238 -0.0589907580 -0.0116995557
0.0139497430 -0.0579777194 0.0210911293
-0.0257248118 -0.0534006746 -0.1857997171
-0.0383564779 -0.0525253574 -0.1211263681
-0.0354131615 -0.0509643519 -0.0738276444
0.0322940444 -0.0522398802 -0.1784462847
0.0338006751 -0.0545307057 -0.0539984828
0.0338583865 -0.0521560124 -0.0537460450
-0.0344627397 -0.0504994137 -0.0646880877
-0.0382694302 -0.0504084093 -0.1220804502
0.0160853096 -0.0503318480 -0.1906532809
0.0307784303 -0.0503165284 -0.0170922205
-0.0008314370 -0.0567041824 0.0263137780
-0.0174827608 -0.0560847670 0.0203436393
0.0083961961 -0.0611792530 0.0140432805
0.0040807450 -0.0635931769 -0.0133029242
0.0099123885 -0.0607907447 0.0147422105
-0.0269970984 -0.0593170528 -0.0452364659
-0.0105909606 -0.0612420663 0.0102991426
-0.0241616668 -0.0600738244 -0.0360701516
-0.0213265501 -0.0600744896 -0.0095438726
-0.0126367351 -0.0631029818 -0.0274805872
-0.0047895649 -0.0633102038 -0.0128323758
-0.0150866573 -0.0625893167 -0.0292891841
-0.0077444285 -0.0651664813 -0.1199203335
-0.0045095465 -0.0639601873 -0.0294327140
-0.0300094587 -0.0588864792 -0.0754949241
0.0001077571 -0.0651846711 -0.1163924366
-0.0205025693 -0.0632706776 -0.1285338670
-0.0228275457 -0.0626118267 -0.1230130100
-0.0232426038 -0.0618238112 -0.0872803922
-0.0272453137 -0.0601488938 -0.0749137134
-0.0166318324 -0.0634827836 -0.0935256595
-0.0143761635 -0.0638542556 -0.0920110662
-0.0139501317 -0.0636305699 -0.0729552362
-0.0119928872 -0.0638069576 -0.0645524745
-0.0075788530 -0.0645248071 -0.0763719197
-0.0065494187 -0.0648271421 -0.0878517403
-0.0048980126 -0.0645569702 -0.0663722987
-0.0025484955 -0.0645888182 -0.1585376385
-0.0055354370 -0.0649567219 -0.1446177553
-0.0323441911 -0.0595861108 -0.1422864515
-0.0221667294 -0.0629809505 -0.1355106617
-0.0104224249 -0.0625697908 -0.1738509773
-0.0198298073 -0.0633612959 -0.1512925661
-0.0102276856 -0.0603637028 -0.1829115807
-0.0018861543 -0.0636441766 -0.1711942433
-0.0168868452 -0.0637798072 -0.1496487591
0.0063840372 -0.0651825887 -0.1407370953
0.0187015384 -0.0595766817 -0.1811325992
0.0345954905 -0.0585515186 -0.1464905393
-0.0019350840 -0.0597341204 -0.1871569890
0.0123583018 -0.0617913726 -0.1767186541
0.0294750808 -0.0603949202 -0.1185572794
0.0068357971 -0.0597496971 -0.1856378454
0.0095819802 -0.0639327819 -0.1642480710
0.0157480666 -0.0633442475 -0.1626760546
-0.0271866171 -0.0524664989 -0.0506921193
-0.0291487763 -0.0577456386 -0.0099403852
-0.0214032493 -0.0505804299 0.0197604087
-0.0288095326 -0.0545051057 0.0031026161
-0.0304559279 -0.0557165128 -0.1804941613
-0.0334105130 -0.0605556986 -0.1619943711
-0.0256923056 -0.0596398065 -0.1813885710
-0.0367121614 -0.0585642947 -0.1254210833
-0.0371124912 -0.0545335653 -0.1016724228
-0.0361196019 -0.0556492594 -0.0893704752
-0.0313569466 -0.0584724655 -0.0414946280
-0.0314532163 -0.0593090030 -0.0539704751
0.0401558991 -0.0510603146 -0.1517835867
0.0393623090 -0.0537120966 -0.1475526384
0.0182585244 -0.0577011140 -0.1891423041
0.0335097690 -0.0602313089 -0.1644424609
0.0396117335 -0.0539669995 -0.1572857448
0.0253868966 -0.0551201874 0.0134530119
0.0038249866 -0.0599538148 0.0246177985
0.0182483371 -0.0543448677 0.0225066228
0.0276937790 -0.0602561608 -0.0313125711
0.0363661053 -0.0585354265 -0.1186916677
0.0360751068 -0.0567000017 -0.0934441763
-0.0125653137 -0.0641971793 -0.0073696996
-0.0017430340 -0.0633405593 0.0121461446
-0.0191470602 -0.0604191181 0.0148392481
-0.0210518704 -0.0625338366 -0.0156816379
-0.0031457244 -0.0671276915 -0.1378335385
-0.0251874581 -0.0638583358 -0.1293451260
-0.0293904232 -0.0622566797 -0.1151595688
-0.0221296815 -0.0628199880 -0.0371650529
-0.0140638436 -0.0645012908 -0.0229546721
-0.0087922807 -0.0651411143 -0.0227016644
-0.0100821243 -0.0654053510 -0.0442441117
-0.0039783938 -0.0671723114 -0.1242628758
-0.0241542596 -0.0636280156 -0.1024273823
-0.0249573919 -0.0635424102 -0.1094191741
-0.0157080559 -0.0657495703 -0.1016563517
-0.0189329486 -0.0641561228 -0.0592258420
-0.0256640511 -0.0613140453 -0.0302084418
-0.0101506559 -0.0664244234 -0.1012557496
-0.0064500859 -0.0658827053 -0.0485077430
-0.0070828944 -0.0660457202 -0.0615384111
-0.0054352279 -0.0667633618 -0.0953449421
-0.0021743927 -0.0662360298 -0.0554849899
-0.0010250657 -0.0666789342 -0.0804283897
-0.0178640209 -0.0656515776 -0.1313153191
-0.0124722234 -0.0660113978 -0.1571610728
-0.0083271305 -0.0667528839 -0.1457765554
-0.0277978320 -0.0613718251 -0.1724333624
-0.0242843865 -0.0638071021 -0.1600141803
-0.0251927331 -0.0640947120 -0.1517217785
-0.0084301694 -0.0653952401 -0.1675648148
-0.0223712034 -0.0647618026 -0.1486056461
0.0287250454 -0.0627497426 -0.1393947809
0.0230191906 -0.0644938861 -0.1222364852
0.0177937633 -0.0619676326 -0.1797661517
0.0241723027 -0.0642787427 -0.1473209592
0.0211561355 -0.0640937624 -0.1651815265
0.0205278677 -0.0645582374 -0.1617532576
0.0059540472 -0.0661417787 -0.1641296744
0.0133217378 -0.0660733293 -0.1547244467
0.0126010612 -0.0636827212 -0.1772334448
0.0011441560 -0.0658190344 -0.0272866332
0.0274100966 -0.0620332120 -0.0776404607
0.0347902876 -0.0599302779 -0.1160963445
0.0115286592 -0.0666119979 -0.1379265038
0.0063202715 -0.0670630224 -0.1394060636
0.0272030948 -0.0624982323 -0.0920548076
0.0229590401 -0.0637092267 -0.0861769702
0.0159295694 -0.0658651588 -0.1190491632
0.0137976566 -0.0661665195 -0.1140622928
0.0195891822 -0.0642144515 -0.0666888260
0.0201991425 -0.0632093810 -0.0284459373
0.0071195937 -0.0659485368 -0.0538896008
0.0071498331 -0.0664307193 -0.0790356976
0.0038309874 -0.0664873064 -0.0665119092
0.0042584160 -0.0665870868 -0.0755559023
0.0194397695 -0.0626341109 -0.0052132477
0.0300245691 -0.0604885867 -0.0657952382
0.0056185780 -0.0654061640 -0.0137275809
0.0037802785 -0.0649124764 -0.0054501091
-0.0349828824 -0.0543551332 -0.1123249477
0.0327803940 -0.0519091822 -0.1105750076
0.0340838562 -0.0491565204 -0.0825975867
-0.0008460147 0.0272599918 -0.2282983110
0.0266728942 -0.0008405009 -0.2302579621
0.0229542354 -0.0133790183 -0.2233236123
-0.0191644224 -0.0186522596 -0.2306678171
-0.0268298176 -0.0035402401 -0.2275127174
0.0185905401 0.0126059482 -0.2262075476
0.0097633518 -0.0164203085 -0.2261684496
-0.0153670821 0.0155124716 -0.2260901612
-0.0137527135 -0.0138037142 -0.2256279805
0.0158413448 0.0045146024 -0.2258147357
0.0064128004 -0.0149048604 -0.2251962293
0.0069140367 0.0145635550 -0.2231588372
-0.0266787635 0.0031814466 -0.2234511782
0.0213962294 -0.0011609863 -0.2230999917
-0.0228208297 -0.0123211010 -0.2233360757
-0.0120220760 0.0156634683 -0.2231971926
0.0198817249 0.0111050194 -0.2233566533
-0.0133191208 0.0236874915 -0.2240103059
0.0262634767 0.0080115919 -0.2311390437
0.0067543603 -0.0262735468 -0.2311408208
-0.0277334919 0.0111791197 -0.2312378986
0.0216296371 -0.0182383118 -0.2311940653
0.0196697737 0.0249632024 -0.2318516214
-0.0018565083 -0.0317075978 -0.2339545063
0.0237370304 -0.0145030056 -0.2343499959
-0.0230188586 0.0198782000 -0.2343499959
-0.0285891623 -0.0116687122 -0.2345271164
-0.0006049736 -0.0289476409 -0.2344918127
0.0285143984 0.0032448168 -0.2343937363
0.0141270846 -0.0204645927 -0.2313625392
0.0237029680 0.0066416816 -0.2292058231
0.0064622191 0.0238275837 -0.2292513009
-0.0124029891 0.0213741616 -0.2322609165
-0.0220815968 -0.0117185729 -0.2337058651
-0.0024282519 -0.0250261024 -0.2329686163
0.0286312556 -0.0076892503 -0.2311030797
0.0230983185 0.0026385671 -0.2246569300
0.0088012412 0.0261092743 -0.2300290588
-0.0293148782 -0.0129653439 -0.2335750318
-0.0113333293 -0.0450000018 -0.0845630012
-0.0240276273 -0.0186326178 -0.1849482335
-0.0229627614 -0.0390606857 -0.1856836080
-0.0157909335 -0.0348216550 -0.1899669360
-0.0047758957 -0.0317773912 -0.1929112236
0.0031959826 -0.0339905590 -0.1931408667
0.0091998872 -0.0366146438 -0.1923230415
0.0188359309 -0.0460134976 -0.1887453141
0.0318426202 -0.0352060613 -0.1764835417
0.0351261134 -0.0342741494 -0.1702757518
0.0364582147 -0.0292305711 -0.1664587776
0.0377796821 -0.0384600898 -0.1605450034
0.0382491208 -0.0294759037 -0.1518644169
0.0376519003 -0.0162600611 -0.1478698630
0.0346146881 -0.0249189866 -0.1385933893
0.0252821550 -0.0345383626 -0.1265144726
0.0166319010 -0.0374434393 -0.1204754078
-0.0031498459 -0.0351310678 -0.1169634950
-0.0116939642 -0.0265326087 -0.1186190279
-0.0219657945 -0.0349431796 -0.1237195767
-0.0259659460 -0.0379908652 -0.1267216853
-0.0334083812 -0.0397805959 -0.1365685458
-0.0380434102 -0.0215904211 -0.1505562230
-0.0379513602 -0.0183430502 -0.1611327958
-0.0385093979 -0.0438705353 -0.1537329116
-0.0347371372 -0.0411916944 -0.1713659918
-0.0329809341 -0.0282235044 -0.1746141495
-0.0326099419 -0.0433588460 -0.1751035103
-0.0127445428 -0.0349489608 -0.1152719462
0.0000222925 -0.0357211203 -0.1126411987
-0.0206170938 -0.0410000011 -0.0914433016
-0.0131980053 -0.0410000011 -0.0615031945
-0.0198387871 -0.0410000011 -0.0521083411
-0.0197785205 -0.0410000011 -0.0162386752
0.0291725943 -0.0398791893 -0.0397972146
0.0272263153 -0.0396635985 -0.0117965990
0.0061948923 -0.0401960444 -0.0404326638
0.0231482492 -0.0410000011 -0.0631341552
0.0184816952 -0.0410000011 -0.1078423356
-0.0000693181 -0.0410000011 -0.0540494297
0.0197085876 -0.0325365866 -0.0138079641
-0.0172530222 -0.0325019409 -0.0109092389
0.0160395195 -0.0326948033 -0.0214917197
-0.0225427575 -0.0325067093 -0.0181435457
-0.0110686503 -0.0324658605 -0.0287116323
0.0221005427 -0.0326075229 -0.0322606303
0.0167212193 -0.0325348830 -0.0364986856
-0.0137356888 -0.0340568724 -0.0127212975
0.0362516170 -0.0480000004 -0.1173639434
-0.0366162839 -0.0480000004 -0.1177384788
-0.0343921728 -0.0452129660 -0.0958950498
-0.0321232677 -0.0433965896 -0.0640047132
-0.0372522992 -0.0469862873 -0.1357882419
0.0345898006 -0.0394311765 -0.1006732258
0.0328544420 -0.0476985761 -0.0742818481
0.0331976126 -0.0389000601 -0.0791051895
0.0293576935 -0.0370909455 -0.0251335543
0.0282408483 -0.0409055531 -0.0092309555
0.0302957273 -0.0424483051 -0.0383179809
-0.0330568008 -0.0359999985 -0.0997121988
-0.0336411116 -0.0359999985 -0.1199741685
0.0280870540 -0.0491923209 -0.0018283844
0.0275956161 -0.0505006368 -0.1825140695
-0.0375194040 -0.0504706131 -0.1199191284
0.0326482479 -0.0504525793 -0.0542145453
-0.0281265003 0.0097963581 -0.1292023302
-0.0284328795 0.0218957178 -0.1306463266
-0.0105048113 0.0160358640 -0.1184958314
-0.0140142028 0.0102040443 -0.1214828141
-0.0204403936 0.0129772680 -0.1289411684
-0.0086311204 0.0378225470 -0.1320379910
0.0115307636 0.0017579221 -0.1186607422
0.0194405579 0.0333336519 -0.1309546865
0.0194940825 -0.0166922718 -0.1291582341
0.0141892400 0.0106690987 -0.1227552997
0.0192432497 0.0302921892 -0.1296004167
0.0178758136 -0.0224999990 -0.1233502151
-0.0247085364 0.0363336982 -0.1680737500
-0.0320151971 -0.0024788160 -0.1752891709
-0.0362883759 0.0267418512 -0.1558226121
-0.0321941726 0.0094271508 -0.1739244262
-0.0316331218 -0.0127513080 -0.1710666513
-0.0374212033 0.0105320436 -0.1567108576
-0.0370361477 0.0086882214 -0.1509300683
-0.0318700708 -0.0134767318 -0.1334873732
-0.0290642672 -0.0084092510 -0.1419725520
-0.0341683881 0.0178215829 -0.1494110083
-0.0319978087 0.0064194264 -0.1377473012
-0.0303717161 0.0214273185 -0.1333613636
0.0372707500 0.0099660462 -0.1579192184
0.0306216037 0.0181352534 -0.1765649368
0.0288264894 -0.0093035082 -0.1678397722
0.0323481862 0.0050903773 -0.1614210966
0.0178065699 0.0382847217 -0.1668074335
0.0331455313 -0.0126999563 -0.1613141106
0.0301894789 0.0079374850 -0.1315483899
0.0263285166 0.0350013153 -0.1394086633
0.0327461596 0.0302939809 -0.1498456952
0.0318746308 -0.0019255803 -0.1483758090
0.0309511057 -0.0075834197 -0.1400814102
0.0225575246 0.0378996402 -0.1518802190
0.0321154108 0.0033702603 -0.1381553390
0.0063731606 0.0297718616 -0.2311000079
-0.0191255381 0.0259929937 -0.2318577370
-0.0117570294 -0.0308269164 -0.2330436856
0.0316818650 -0.0000671197 -0.2318286072
0.0138488681 0.0292626682 -0.2325677206
-0.0026361695 0.0338011188 -0.2190945322
-0.0272989436 -0.0197899554 -0.2052589167
-0.0292069539 -0.0168105080 -0.2069584100
-0.0209833919 -0.0266241198 -0.2188122761
-0.0103493850 -0.0323049005 -0.2096739814
-0.0109160637 -0.0321155339 -0.2193818736
-0.0151620958 -0.0299010962 -0.1998681245
0.0003342587 -0.0341546372 -0.2001658484
0.0026828000 -0.0337399210 -0.2328969296
0.0125465537 -0.0314978797 -0.2254093742
0.0126632726 -0.0314655242 -0.2163043487
0.0179462509 -0.0287123937 -0.2188054237
0.0263664438 -0.0213292609 -0.2340905318
0.0257199238 -0.0223755631 -0.1999331173
0.0320174123 -0.0116755427 -0.1939136327
0.0327227332 -0.0085237101 -0.2313675689
0.0333627421 -0.0063651199 -0.1841221102
0.0338784044 0.0012414578 -0.2220847893
0.0328676327 0.0080040147 -0.2259809982
0.0261818986 0.0215343873 -0.2253355381
0.0272556699 0.0200953646 -0.2031105164
0.0314664373 0.0125165316 -0.2113078033
0.0222869065 0.0252850006 -0.1965415509
0.0217588550 0.0257955623 -0.2228228480
0.0075377571 0.0328819975 -0.2329115918
0.0075690608 0.0328944526 -0.2057515740
0.0134799440 0.0310117298 -0.2182221305
-0.0002932822 0.0341306540 -0.1986950895
-0.0093207965 0.0328777127 -0.2020395846
-0.0118531655 0.0318131157 -0.2277111926
-0.0212036047 0.0266616179 -0.2044951624
-0.0260390173 0.0217727989 -0.2333049749
-0.0246680410 0.0232487651 -0.2191574903
-0.0314527498 0.0124503670 -0.2101805560
-0.0302582682 0.0151700291 -0.2260140072
-0.0321293726 0.0109384800 -0.2254515920
-0.0338023909 0.0029307018 -0.1960912449
-0.0339292026 -0.0002854814 -0.1928982726
-0.0336834798 -0.0045429852 -0.2135481181
-0.0327759829 -0.0079115881 -0.1904306958
-0.0331887908 -0.0068726059 -0.2161860145
0.0338892856 0.0015380100 -0.2109546352
0.0331645256 0.0078603769 -0.1895292823
0.0288045575 -0.0220308265 -0.1858974525
0.0181478699 0.0333138672 -0.1870247409
0.0341003902 -0.0001080205 -0.1796863385
0.0269095032 -0.0173085687 -0.1241247627
0.0128512218 -0.0162687404 -0.1160063549
0.0045842890 -0.0173628475 -0.1144456859
-0.0046836560 -0.0091988932 -0.1144627273
0.0368253447 0.0080984954 -0.1726269349
0.0160943965 0.0410086147 -0.1467051847
0.0132729146 0.0396151268 -0.1796291851
0.0161336338 0.0383211290 -0.1810084081
-0.0239620743 0.0401995775 -0.1578422701
-0.0310978080 0.0372379289 -0.1664789615
0.0076609873 0.0406346667 -0.1342556584
-0.0091578651 0.0411820057 -0.1534960398
-0.0011656652 0.0412591343 -0.1515832379
-0.0293296686 0.0352029901 -0.1745616956
-0.0120055379 0.0408193561 -0.1709906342
0.0268166618 0.0305425886 -0.1821549742
-0.0012374663 0.0403566142 -0.1317671315
0.0087074799 0.0413384400 -0.1483836603
-0.0087314010 0.0323657212 -0.1189525473
-0.0374588888 0.0209105246 -0.1690780377
-0.0138380523 0.0333112163 -0.1216280065
-0.0389551033 0.0121658495 -0.1440052735
-0.0213989606 0.0385311601 -0.1323792799
-0.0271978547 0.0283195844 -0.1272061004
0.0407807481 -0.0246482283 -0.1540894427
0.0403198454 0.0034691668 -0.1605241622
0.0397745120 -0.0181764670 -0.1637821113
-0.0396197866 0.0017076392 -0.1640584479
-0.0398818076 -0.0225303740 -0.1627335722
-0.0382832284 0.0284631385 -0.1597530211
-0.0401009056 0.0195461261 -0.1512183807
-0.0395851755 0.0088787918 -0.1461504714
-0.0384174074 -0.0193274016 -0.1406604890
-0.0377867945 -0.0061722645 -0.1393887215
-0.0348208912 0.0186809771 -0.1349355895
-0.0277566620 -0.0096567451 -0.1249888880
-0.0277425991 0.0117309489 -0.1252812956
-0.0225862527 -0.0187281309 -0.1210711632
-0.0329593734 0.0202386389 -0.1783275447
-0.0094490848 0.0132054732 -0.1156383524
0.0257762971 0.0396090783 -0.1448333847
0.0083862621 0.0303237099 -0.1181174613
0.0197268571 0.0331011522 -0.1242742321
0.0061268852 0.0135091643 -0.1148294148
0.0087547273 0.0160545116 -0.1156575956
0.0080935129 -0.0021304877 -0.1149181201
0.0199799376 -0.0162248008 -0.1191611926
0.0305591252 0.0274701099 -0.1307014973
0.0250668583 0.0147725425 -0.1232307735
0.0322031115 0.0254297325 -0.1323130479
0.0311696912 0.0206433133 -0.1298107453
0.0050035025 0.0412360043 -0.1690841159
0.0305612170 0.0007735336 -0.1282287899
0.0375182936 0.0153633936 -0.1396649835
0.0207506247 0.0397899857 -0.1703917980
0.0332758893 -0.0054668572 -0.1314795789
0.0356071728 -0.0042263390 -0.1353492432
0.0382555424 0.0017328255 -0.1412377693
0.0392399709 0.0204374829 -0.1485445871
0.0282323830 0.0357603227 -0.1747212657
-0.0181182056 -0.0037421584 -0.1185296242
0.0386524453 -0.0263703426 -0.1379886906
0.0403659298 -0.0317406459 -0.1489389529
0.0397520488 -0.0019036502 -0.1449422988
0.0203149633 -0.0296549763 -0.1918429814
0.0150163700 -0.0414443226 -0.1926387273
0.0016919392 0.0355533628 -0.1915334672
-0.0336955864 0.0160611403 -0.1779262552
-0.0388726918 0.0027540907 -0.1675100184
-0.0138785844 0.0310595553 -0.1947552081
-0.0309739620 -0.0136860348 -0.1862872382
-0.0187147645 0.0371555376 -0.1822807803
-0.0177972619 -0.0297760599 -0.1951407987
-0.0184164813 -0.0477539656 -0.1908877999
-0.0308615372 -0.0352653485 -0.1813900466
-0.0326341154 -0.0409912380 -0.1787190863
-0.0365247591 -0.0274997253 -0.1732147073
-0.0390740735 -0.0413865109 -0.1658746701
-0.0365312782 -0.0350834328 -0.0843829253
-0.0381256235 -0.0372354960 -0.1090435094
-0.0348894410 -0.0361499119 -0.0598344087
-0.0337535665 -0.0427967716 -0.0473916689
-0.0333841509 -0.0446419560 -0.0432051024
-0.0334469028 -0.0405049500 -0.0420258112
-0.0328709155 -0.0368384517 -0.0348980694
-0.0323942745 -0.0424253426 -0.0295169097
-0.0315231389 -0.0353475540 -0.0188395452
-0.0262193130 -0.0401693338 0.0140415777
-0.0066598378 -0.0366012227 0.0288140049
-0.0210841382 -0.0395675190 0.0209229024
-0.0398317384 -0.0452985726 -0.1428394646
-0.0403936683 -0.0358678614 -0.1429951108
-0.0109892343 -0.0462287876 -0.1941649621
0.0149864271 -0.0491782801 0.0253089925
0.0315414258 -0.0453323987 -0.0189083571
0.0317740808 -0.0363711151 -0.0192072663
0.0329795420 -0.0364444357 -0.0355652546
0.0301663918 -0.0498609737 -0.0054030295
0.0293888689 -0.0368722749 0.0041934235
0.0397251742 -0.0365774055 -0.1333826809
0.0399849292 -0.0501725586 -0.1605819755
0.0400235130 -0.0370935729 -0.1627123611
0.0378343957 -0.0327460543 -0.1700428330
0.0287095575 -0.0411655805 -0.1838597613
0.0235456426 -0.0404095544 -0.1879674782
0.0057557720 -0.0409153446 -0.1956787074
0.0383610032 -0.0427470756 -0.1134589077
0.0363027870 -0.0451827704 -0.0855894866
0.0377665034 -0.0379883234 -0.1017526237
0.0374785869 -0.0397860629 -0.0988293892
0.0363569506 -0.0421597251 -0.0843421924
0.0274202475 -0.0362396190 0.0111522084
0.0074862903 -0.0487375778 0.0281816495
0.0361807576 -0.0334942449 -0.1128773800
0.0335523059 -0.0350578577 -0.0435887523
0.0094912881 -0.0299739645 -0.0562818828
0.0054943715 -0.0293129229 -0.0710150738
-0.0179877612 -0.0307160238 -0.0638005598
-0.0043123287 -0.0293556816 -0.0643150867
-0.0162185250 -0.0308322073 -0.0490377489
-0.0299213335 -0.0336127850 -0.0245527045
-0.0388886344 -0.0343074829 -0.1235971851
-0.0165740790 -0.0247347770 -0.1167125159
-0.0235589322 -0.0302084254 -0.1163085413
-0.0301351317 -0.0320134731 -0.1116558733
-0.0066251404 -0.0288328903 -0.0973001811
-0.0341710550 -0.0336580681 -0.0752017293
-0.0136749846 -0.0292662046 -0.1058489500
-0.0030120621 -0.0287761411 -0.0977605385
0.0306286399 -0.0329249333 -0.0656869460
0.0169483661 -0.0305273444 -0.0552528152
0.0317976028 -0.0334360808 -0.0577325039
0.0062139825 -0.0288499378 -0.1035104393
0.0114128448 -0.0290989929 -0.0974871966
0.0148237098 -0.0296730862 -0.0879831793
0.0228567547 -0.0311302972 -0.0919186725
0.0286621688 -0.0324411537 -0.0686743544
0.0238738332 -0.0237974277 -0.1206698150
0.0066218885 -0.0270974247 -0.1113193572
0.0038340664 -0.0268050550 -0.1123398081
0.0302152523 -0.0235160505 -0.1271413847
0.0022941879 -0.0308776703 -0.0786289059
0.0024353267 -0.0317058526 -0.0923664007
0.0039857221 -0.0332398792 -0.0707735214
-0.0120082553 -0.0358932559 -0.0772181511
-0.0131486422 -0.0343390072 -0.0993045946
-0.0093499999 -0.0416346327 -0.0850169318
0.0094036101 -0.0413263546 -0.0885202991
0.0094970214 -0.0372729204 -0.0760850905
0.0123793332 -0.0341281419 -0.0842517673
0.0108595667 -0.0444526320 -0.0695577990
-0.0074123396 -0.0398711673 -0.0681008728
-0.0184834436 -0.0383424394 -0.0708791031
-0.0148680458 -0.0335000008 -0.0789374771
0.0254683790 -0.0478416138 0.0103251685
0.0134929166 -0.0470180062 0.0240537589
-0.0095486434 -0.0421598399 0.0256420050
-0.0255746279 -0.0443386688 0.0102943753
0.0145366991 -0.0402565401 -0.0206306957
-0.0161963158 -0.0360465357 -0.0192580697
0.0233628779 -0.0349966871 -0.0026583974
0.0221459821 -0.0353435624 0.0126055833
0.0049000020 -0.0350000001 -0.0243397116
-0.0167301610 -0.0351809668 0.0159766318
-0.0287569710 -0.0407479093 -0.0166901649
-0.0286196670 -0.0451176498 -0.0140627627
0.0178889067 -0.0351825405 0.0181787317
-0.0231218147 -0.0375181104 -0.0167639212
-0.0236074840 -0.0374829306 -0.0608080417
-0.0224375020 -0.0359999985 -0.0737185390
-0.0214255681 -0.0390587518 -0.0859279924
-0.0209999997 -0.0364872802 -0.1158308477
-0.0329030591 -0.0382567074 -0.0922312596
-0.0152622045 0.0145969735 -0.1282635919
-0.0197343340 -0.0154611469 -0.1289940018
0.0060541081 -0.0337780310 -0.1171558874
0.0095975939 0.0019863957 -0.1181254778
0.0074487114 0.0246339783 -0.1190881476
0.0302361960 0.0021742424 -0.1315590779
-0.0097918845 0.0128304055 -0.1181733866
0.0028345194 -0.0248041729 -0.1167272599
-0.0018302034 0.0352301986 -0.1246766569
0.0135773023 0.0384243770 -0.1404843619
-0.0181242334 0.0383550880 -0.1487988512
0.0016275963 0.0385104776 -0.1389550731
0.0176774604 -0.0110943875 -0.1297246653
0.0148724441 0.0230952478 -0.1277982833
-0.0214008743 0.0381645973 -0.1648175060
0.0092290356 0.0270797523 -0.1903982113
-0.0267275391 -0.0020795291 -0.1826633229
0.0286497554 -0.0239811100 -0.1803734794
0.0289481976 -0.0037745864 -0.1797965966
0.0182611293 0.0273244297 -0.1862639835
-0.0269430963 0.0298572933 -0.1778673691
-0.0104483405 0.0327272652 -0.1872191651
-0.0037485571 0.0351640547 -0.1860790293
0.0037503828 0.0383220957 -0.1766670438
-0.0100599436 0.0386446526 -0.1699239561
0.0105944650 0.0384786076 -0.1646497960
0.0135585826 0.0385962984 -0.1560666475
0.0035339361 0.0387473290 -0.1552538588
0.0252422952 0.0113378165 -0.2157333263
0.0286632524 -0.0004864999 -0.1992429506
0.0252736417 -0.0109274007 -0.2255665938
0.0004650344 -0.0298041415 -0.2085650642
0.0102088322 -0.0254275600 -0.2230915862
0.0239036831 -0.0177695102 -0.2095212605
-0.0197194750 -0.0196377467 -0.1918085319
-0.0286043993 0.0018603711 -0.1985957031
-0.0277638058 -0.0006980756 -0.1914931546
-0.0194818175 0.0200824613 -0.1910255223
-0.0013797731 0.0313467704 -0.2272078910
0.0172869216 0.0234462966 -0.2060039479
-0.0299679086 0.0154951331 -0.1615739524
-0.0276266720 0.0125944243 -0.1634995789
-0.0308950014 -0.0118839893 -0.1636542542
0.0272476980 -0.0094080724 -0.1648440376
0.0310579537 -0.0059679800 -0.1617721534
0.0308704216 -0.0160000008 -0.1451301246
0.0272338106 0.0082846089 -0.1446440349
0.0315766813 -0.0106023469 -0.1452536710
-0.0273611658 0.0135665903 -0.1440653011
-0.0302300665 -0.0053909881 -0.1481374106
-0.0181116287 -0.0188317007 -0.1278134711
0.0015802864 -0.0319692060 -0.0431734275
-0.0165277515 -0.0314727600 -0.0430501572
-0.0217856933 -0.0325436191 -0.0008948405
-0.0000085117 -0.0334560737 0.0262058279
0.0173489155 -0.0343177377 0.0217991421
-0.0208338414 -0.0332021343 0.0131990744
0.0356219993 -0.0407538345 -0.1161822568
0.0374546071 -0.0444876638 -0.1395350294
0.0377933792 -0.0484561826 -0.1306657439
-0.0208848913 -0.0503295556 -0.1894485697
0.0210819999 -0.0396276386 -0.0992458734
0.0300228970 -0.0359999985 -0.1033103333
0.0306555338 -0.0359999985 -0.1239513062
0.0307752238 -0.0359999985 -0.0753045079
0.0257439860 -0.0359999985 -0.0715237751
0.0259237311 -0.0383367356 -0.0883973094
0.0216739252 -0.0405912027 -0.0585533154
0.0257459875 -0.0359999985 -0.0280766253
0.0220537382 -0.0405556243 -0.0368810169
-0.0094058987 -0.0360636460 -0.0261895025
0.0162825950 -0.0370418572 -0.0370012027
0.0181956140 -0.0397402423 -0.0308720357
-0.0155722748 -0.0375610057 -0.0405197940
-0.0184999984 -0.0399687343 -0.0549587757
-0.0085206592 -0.0350000001 -0.0527070101
-0.0139213045 -0.0335000008 -0.1064615634
-0.0049425133 -0.0335000008 -0.1072805929
-0.0184999984 -0.0339557611 -0.0940663578
0.0033927992 -0.0335000008 -0.1039678305
0.0180185481 -0.0397750683 -0.0942120907
0.0024662433 -0.0381815259 -0.0662058015
0.0184968758 -0.0390934235 -0.0691399322
0.0127132179 -0.0335000008 -0.0738424848
0.0113451172 -0.0368866854 -0.0405277585
0.0047583152 -0.0350000001 -0.0541739635
0.0152106442 -0.0350000001 -0.0576060296
0.0048307341 -0.0304464118 -0.0882927299
-0.0303376155 -0.0324626790 -0.0893291736
-0.0279719710 -0.0318355302 -0.0973628629
-0.0385191723 -0.0273811227 -0.1394416730
-0.0356168123 -0.0180486264 -0.1349722190
-0.0406465389 -0.0240345140 -0.1492472216
-0.0406351391 -0.0209546300 -0.1571333104
-0.0118950068 0.0271629961 -0.2254077559
-0.0260795695 -0.0125476034 -0.2286925450
0.0240849854 -0.0358261515 0.0100840947
0.0007282007 0.0292031535 -0.2034366984
0.0079931023 0.0269532478 -0.2009940979
-0.0210147974 0.0225146259 -0.2226283080
-0.0140536170 0.0247759541 -0.2017666577
-0.0004431178 0.0288947243 -0.2002227462
-0.0096912754 0.0258176647 -0.2293838223
0.0126799821 0.0250818654 -0.2043181740
0.0251015984 0.0114944786 -0.1938227888
0.0228523674 0.0174974084 -0.2055367097
0.0255088723 0.0100739287 -0.1991960330
0.0267863764 -0.0088208644 -0.1999853142
0.0290177768 -0.0048172534 -0.2064574833
0.0241503726 -0.0125243210 -0.1857510308
0.0170915001 -0.0252975368 -0.2224167116
0.0190751358 -0.0237266263 -0.2204706101
0.0047468822 -0.0289689380 -0.2063549090
-0.0146014322 -0.0246704496 -0.2024113131
-0.0281624905 -0.0076384359 -0.2168810822
-0.0295161534 -0.0041817467 -0.2195544394
-0.0251962814 -0.0144692780 -0.2112925825
-0.0220971365 -0.0195873972 -0.2091266684
-0.0029261987 -0.0308840592 -0.2283676421
-0.0047892804 -0.0278398971 -0.1974326718
-0.0248740401 0.0153744156 -0.2108245092
-0.0235845095 0.0179062497 -0.2081656390
-0.0266669450 0.0035445001 -0.1842366207
0.0149453024 -0.0158072624 -0.1234320422
0.0364103371 -0.0493603926 -0.1115775342
-0.0263883584 -0.0489421576 0.0090912398
-0.0355701813 -0.0499946240 -0.1007729868
-0.0310490144 -0.0466983365 -0.1118320342
0.0302867233 -0.0391011783 -0.1123302430
-0.0271054419 -0.0390414326 -0.0545866156
-0.0299313472 -0.0431421572 -0.0552522118
0.0315906119 -0.0417951630 -0.1087055217
0.0276474181 -0.0378983683 -0.0537346088
-0.0289798219 -0.0360144828 -0.0531039771
-0.0027414071 -0.0379999988 -0.1141941854
-0.0285526060 -0.0203689667 -0.1529126975
0.0271394432 -0.0231540072 -0.1497202140
-0.0166806532 -0.0202166104 -0.1325960170
0.0252895148 -0.0243701177 -0.1660305919
-0.0064498551 -0.0235901661 -0.1820000156
0.0085543787 -0.0256815480 -0.1262618167
-0.0261310706 -0.0256413004 -0.1526234359
-0.0299500766 -0.0199758982 -0.1481408796
0.0272970104 -0.0200970957 -0.1661223795
0.0219695897 -0.0160195469 -0.1694408971
-0.0011610465 -0.0162669055 -0.1821728748
0.0210956140 -0.0160404112 -0.1379213246
-0.0240313633 -0.0160000008 -0.1396717735
0.0338716168 -0.0174956671 -0.1420152966
0.0245609439 -0.0171604389 -0.1703802093
0.0296000934 -0.0164441512 -0.1454648468
0.0150214393 -0.0255086404 -0.1745805902
-0.0241337556 -0.0176560927 -0.1479979976
0.0042694026 -0.0168657894 -0.1305931223
0.0243382567 -0.0223186734 -0.1495091887
0.0134240629 -0.0191023513 -0.1757943066
-0.0105390362 -0.0196081093 -0.1770716624
-0.0320911259 -0.0169104020 -0.1384637127
-0.0025491562 -0.0224593005 -0.1274849387
0.0201268924 -0.0207748014 -0.1356274330
0.0069037718 -0.0253526412 -0.1240584067
-0.0186807258 -0.0167727389 -0.1752414740
