0.0076597929 -0.1891999990 0.0035492369
-0.0022994425 -0.1891999990 -0.0089824301
0.0075925422 -0.1850376459 -0.0061350019
-0.0070303226 -0.1855182830 -0.0069911959
-0.0017602196 -0.1853295341 0.0094506875
-0.0123082474 -0.1810999960 0.0248599905
0.0066526412 -0.1810999960 -0.0214056091
0.0016122376 -0.1810999960 -0.0212617709
-0.0132242100 -0.1810999960 -0.0175014545
-0.0056595651 -0.1810999960 -0.0163995386
0.0052387371 -0.1810999960 0.0230617382
-0.0018200966 -0.1810999960 0.0240336852
-0.0265541736 -0.1810999960 -0.0004157608
-0.0188127314 -0.1810999960 0.0152862426
-0.0148585100 -0.1810999960 0.0067082270
0.0116976833 -0.1810999960 -0.0020409852
0.0142342684 -0.1810999960 -0.0107011268
0.0094049602 -0.1810999960 -0.0168897300
0.0128654799 -0.1810999960 -0.0141146582
0.0260359335 -0.1810999960 0.0121503684
0.0152210578 -0.1810999960 0.0203432138
-0.0008035965 -0.1246202396 -0.0042317800
0.0019607929 -0.1676870432 -0.0039844312
0.0041314091 -0.1630194736 -0.0013806469
0.0042445358 -0.1748321996 0.0003361561
0.0037578588 -0.1367807718 0.0023897230
0.0015011245 -0.1878477219 0.0040329319
-0.0019330447 -0.1759582594 0.0039921730
-0.0026184051 -0.1737339832 0.0035659718
-0.0039659602 -0.1689216893 0.0017739114
-0.0041931993 -0.1619062532 -0.0007343320
-0.0034435877 -0.1607210762 -0.0027642568
-0.0014811016 -0.1875347497 -0.0040421668
-0.0045656823 -0.1240000054 0.0031477298
-0.0061773880 -0.1240000054 0.0072585480
-0.0068046547 -0.1240000054 0.0145916964
0.0062769682 -0.1240000054 -0.0041784677
0.0042193597 -0.1240000054 -0.0068765011
0.0054542842 -0.1240000054 -0.0125683254
0.0175214151 -0.1240000054 -0.0131902998
0.0283022201 -0.1240000054 -0.0020179185
0.0169484894 -0.1240000054 0.0157755249
0.0262754455 -0.1240000054 0.0098914335
0.0022471966 -0.1240000054 0.0070562927
0.0058347728 -0.1240000054 0.0100961998
0.0032167526 -0.1240000054 -0.0273922197
-0.0232152546 -0.1808366112 0.0183156314
-0.0208317643 -0.1405210602 0.0214524630
-0.0217490692 -0.1525761723 -0.0205823904
-0.0299151141 -0.1521321219 -0.0016347461
-0.0297621314 -0.1266742166 0.0016341904
-0.0287072600 -0.1678117417 0.0083299273
-0.0273723646 -0.1539843006 0.0119993216
-0.0262806563 -0.1780504592 0.0142060626
-0.0233662382 -0.1412498234 0.0185571623
-0.0235559520 -0.1248200893 0.0181857505
-0.0222976136 -0.1424674899 0.0199584561
-0.0064165571 -0.1444570967 0.0292122912
-0.0072786591 -0.1615003733 0.0290157973
-0.0116382037 -0.1249960598 0.0274919409
-0.0144081094 -0.1594516903 0.0261170013
-0.0161498974 -0.1536840895 0.0251551533
-0.0187632139 -0.1561013347 0.0233209073
-0.0036077742 -0.1524185589 0.0297210787
-0.0012656345 -0.1417940723 0.0298164003
0.0013795707 -0.1707869687 0.0299457189
0.0042874582 -0.1423132961 0.0296321897
0.0071575414 -0.1392272874 0.0289465022
-0.0198273085 -0.1780508843 -0.0224241279
-0.0183099164 -0.1420635876 -0.0235855962
-0.0178861333 -0.1552038699 -0.0239287542
-0.0134026674 -0.1305457476 -0.0268377922
-0.0122988696 -0.1306088243 -0.0273115931
-0.0122113234 -0.1670185408 -0.0273341511
-0.0297654032 -0.1726335827 -0.0033143411
-0.0297681068 -0.1155671615 -0.0031364276
-0.0290959800 -0.1401729548 -0.0071282317
-0.0279831171 -0.1202861948 -0.0107069933
-0.0281260433 -0.1430931429 -0.0102951296
-0.0272476107 -0.1808811652 -0.0123599450
-0.0265019525 -0.1566873770 -0.0138534869
-0.0247525332 -0.1709490629 -0.0168007285
-0.0249755853 -0.1741502931 -0.0165011874
-0.0292945219 -0.1705721342 0.0063427206
-0.0297098021 -0.1409739523 0.0034221561
0.0204511611 -0.1486615100 -0.0218399129
0.0298818743 -0.1467253700 0.0020368290
0.0299528811 -0.1608035085 -0.0015107032
0.0231605584 -0.1442617864 0.0189618707
-0.0061604697 -0.1465365704 -0.0293272938
-0.0080200413 -0.1619227812 -0.0288478443
0.0171695904 -0.1802037872 0.0245224674
0.0166213972 -0.1515807624 0.0248252107
0.0139544233 -0.1678738123 0.0265205626
0.0122666122 -0.1250229861 0.0272242803
0.0117437333 -0.1606385796 0.0275344422
0.0294705121 -0.1543939594 0.0052114334
0.0287448135 -0.1799572783 0.0080876081
0.0286373571 -0.1339952829 0.0087761200
0.0277640425 -0.1741536922 0.0109603091
0.0254043095 -0.1798353868 0.0157576128
0.0253907950 -0.1362244192 0.0157422188
0.0225728812 -0.1649169677 0.0196452122
0.0235527016 -0.1671688604 -0.0183371650
0.0251710058 -0.1366116252 -0.0159956403
0.0264844678 -0.1598166571 -0.0138460919
0.0266977079 -0.1267373836 -0.0133424161
0.0285343015 -0.1778628157 -0.0087862626
0.0295448738 -0.1267971851 -0.0044345805
0.0297020189 -0.1646202311 -0.0036173405
0.0052795293 -0.1806751839 -0.0295307340
0.0085131235 -0.1768294651 -0.0286262958
0.0109048515 -0.1340183112 -0.0278101565
0.0143804857 -0.1727128984 -0.0260757441
0.0132857590 -0.1778260224 -0.0266171408
0.0174816786 -0.1491192910 -0.0243240401
0.0188737977 -0.1679424556 -0.0232019039
0.0017275766 -0.1296833880 -0.0298238242
-0.0001491640 -0.1679125911 -0.0299829634
-0.0036192114 -0.1753511523 -0.0297103220
-0.0037160285 -0.1190828949 -0.0236922613
-0.0027605113 -0.1188768123 -0.0193822016
-0.0072184763 -0.1175170108 -0.0066713908
-0.0226955962 -0.1144161640 0.0082871651
-0.0171225071 -0.1198056911 0.0066363409
-0.0193509708 -0.1121999994 -0.0069140482
-0.0206112970 -0.1121999994 -0.0123723834
-0.0201549341 -0.1121999994 -0.0044505076
-0.0039748959 -0.1121999994 -0.0115086826
-0.0176730770 -0.1789184417 -0.0176023209
0.0164488800 -0.1786935616 0.0172447891
-0.0006336901 -0.1773464293 -0.0244035902
0.0006906916 -0.1900858136 -0.0278165210
0.0191692676 -0.1941184169 0.0198340536
-0.0127190792 -0.1898566088 -0.0210963448
0.0145152518 -0.1912393232 0.0252727485
0.0152575377 -0.1959999949 -0.0092842624
0.0154621389 -0.1959999949 -0.0064768254
0.0163334222 -0.1959999949 -0.0042207956
0.0132468769 -0.1959999949 0.0114517051
-0.0031248465 -0.1959999949 0.0055604369
0.0128015633 -0.1959999949 0.0242385946
0.0113863262 -0.1959999949 0.0205377299
0.0183715208 -0.1959999949 -0.0163146430
0.0027080346 -0.1959999949 -0.0045601509
-0.0028216794 -0.1959999949 -0.0255420512
-0.0116833447 -0.1959999949 -0.0185648108
-0.0119988038 -0.1959999949 0.0168322494
0.0230291482 -0.1959999949 0.0178428860
-0.0077173726 -0.1959999949 0.0277129710
-0.0158794110 -0.1959999949 0.0106233178
-0.0140949872 -0.1959999949 0.0024285208
-0.0209025983 -0.1959999949 -0.0036933012
-0.0172086297 -0.1959999949 -0.0135700954
0.0016180761 -0.1895746737 0.0040947858
-0.0293587017 -0.1856220209 -0.0045756080
0.0265179243 -0.1953152678 -0.0137510799
0.0294289104 -0.1884342285 -0.0051673865
0.0114870744 -0.1931943447 -0.0276609065
0.0176990318 -0.1877680037 -0.0240692096
0.0067604466 -0.1872908108 -0.0291712761
-0.0045701590 -0.1857839522 -0.0295027021
-0.0276246618 -0.1859783688 -0.0113333709
-0.0239337248 -0.1945499720 -0.0177937417
-0.0295068896 -0.1911384726 -0.0047595321
-0.0247819227 -0.1924912590 0.0167347811
-0.0293090818 -0.1864601379 0.0059471686
-0.0100404400 -0.1946333353 0.0281088919
-0.0170852180 -0.1901860876 0.0245322317
-0.0117829737 -0.1812891654 0.0273764914
0.0039147175 -0.1905931281 0.0296539265
0.0279019732 -0.1917079546 0.0108237515
0.0235896244 -0.1904994093 0.0183719414
0.0295846862 -0.1862103827 0.0036455506
-0.0078031261 -0.1891999990 0.0004983789
0.0044744573 -0.1811999977 0.0118184744
0.0077383326 -0.1811999977 0.0234560559
0.0003007040 -0.1811999977 0.0174675411
-0.0204675440 -0.1811999977 0.0142832482
-0.0110679924 -0.1811999977 0.0132797521
-0.0170001162 -0.1811999977 0.0016644694
-0.0159553023 -0.1811999977 0.0001464441
-0.0103722299 -0.1811999977 -0.0116610169
-0.0019930525 -0.1811999977 -0.0285738530
0.0119745136 -0.1811999977 -0.0114597524
-0.0000419460 -0.1811999977 -0.0250903348
0.0039707621 -0.1811999977 -0.0099351692
0.0123295073 -0.1811999977 0.0245340203
0.0204679847 -0.1811999977 0.0034965208
0.0228477957 -0.1811999977 0.0077057513
0.0280902489 -0.1811999977 -0.0038438043
0.0086622570 -0.1828922707 -0.0045232296
-0.0047345725 -0.1891759534 -0.0080460665
-0.0062604097 -0.1868676032 0.0074476056
0.0098880437 -0.1828320387 -0.0003043777
0.0292913043 -0.1711451925 -0.0072487630
0.0078936073 -0.1710550419 -0.0341868282
-0.0337772092 -0.1710099725 -0.0003397650
-0.0076209710 -0.1710999518 0.0315757974
-0.0237702758 -0.1710169348 0.0208158843
-0.0275249610 -0.1710401712 0.0207650214
-0.0326384141 -0.1710329429 0.0170810176
-0.0157718024 -0.1710884773 -0.0334565335
0.0069873995 -0.1710209484 -0.0370623496
0.0283716530 -0.1712092425 -0.0244305487
0.0315271092 -0.1710425735 0.0125049215
0.0236119477 -0.1711929115 0.0295528695
0.0093845406 -0.1720580018 -0.0376980152
0.0367899744 -0.1736901395 -0.0111758394
0.0252351304 -0.1712963913 0.0292524280
-0.0163941473 -0.1727168971 0.0352550816
-0.0385065017 -0.1744475040 0.0025259194
-0.0339248085 -0.1795417545 0.0073811189
-0.0294680628 -0.1778308883 -0.0186051083
-0.0257914719 -0.1802589781 0.0234112407
0.0209213197 -0.1794857421 0.0277490544
0.0345867726 -0.1797827091 0.0039547153
0.0307119697 -0.1781043140 -0.0159101729
-0.0043232961 -0.1782855801 -0.0345344574
-0.0101352177 -0.1817624920 0.0318912551
-0.0309966219 -0.1819999963 0.0122016029
-0.0331757733 -0.1817911893 -0.0010205232
0.0329535249 -0.1818429711 -0.0019806715
0.0268789321 -0.1819216073 -0.0200921788
-0.0216695292 -0.1757618797 -0.0205976423
0.0295069959 -0.1736629216 0.0048099739
-0.0294796043 -0.1806554841 -0.0022422911
-0.0265253727 -0.1770691619 -0.0140452189
-0.0290312338 -0.1772636594 0.0071686431
-0.0062496121 -0.1723758078 0.0290425052
0.0189986624 -0.1738671575 0.0232121627
0.0056645543 -0.1767602314 0.0293521903
0.0246966821 -0.1754919859 -0.0170736048
0.0297140399 -0.1761686573 -0.0034937502
0.0102546103 -0.1769929009 -0.0280427331
-0.0140074765 -0.1770337741 -0.0263994483
-0.0308308198 -0.1750628706 -0.0188269104
-0.0029192072 -0.1748228293 -0.0371003038
0.0369856298 -0.1748618029 -0.0040127079
0.0237256266 -0.1748370785 0.0292463492
-0.0150687404 -0.1749999970 0.0320994130
-0.0365350860 -0.1748804981 0.0116897567
-0.0017403448 -0.1792798064 -0.0341949961
0.0331752880 -0.1755687530 -0.0013028296
0.0003509805 -0.1752418493 0.0349812513
-0.0344191421 -0.1753154615 0.0006069930
-0.0192343045 -0.1818049728 -0.0230450513
-0.0109787719 -0.1796677997 -0.0327065516
-0.0124682682 -0.1710603228 0.0334264889
0.0125551597 -0.1712305746 -0.0334197030
0.0318299842 -0.1753878778 0.0117137824
-0.0310402538 -0.1754267721 -0.0156230328
0.0365514507 -0.1748985011 0.0108916427
0.0431792902 0.0019823485 -0.0401999119
0.0260944939 -0.0425834157 -0.0388000011
0.0146199690 -0.0495641214 -0.0388000011
0.0088819933 -0.0561548982 -0.0389061608
-0.0264042678 -0.0485666943 -0.0388000011
0.0036957721 -0.0518969140 -0.0388000011
0.0226019995 -0.0309045553 -0.0405000001
0.0170736791 -0.0368188617 -0.0405000001
-0.0192912397 0.0380533495 -0.0404975336
-0.0341687618 -0.0031035135 -0.0405000053
-0.0356504781 -0.0174397827 -0.0405000001
-0.0257348963 -0.0400198081 -0.0405000001
-0.0356314450 -0.0214392861 -0.0405000001
0.0265027961 -0.0262885459 -0.0405000001
0.0281968948 -0.0257517372 -0.0405000001
0.0388607414 -0.0080876195 -0.0405000483
0.0207260363 0.0360815009 -0.0405000001
0.0430663686 -0.0027757050 -0.0403997265
0.0281129655 -0.0446929275 -0.0405000001
0.0150973141 -0.0467390340 -0.0405000001
-0.0176933989 -0.0393183640 -0.0405000001
0.0005150705 -0.0373728346 -0.0405000001
0.0196768845 -0.0393665860 -0.0405000001
0.0128173808 -0.0469853913 -0.0405000001
0.0047529024 -0.0477894635 -0.0405000001
-0.0283820713 -0.0517437730 -0.0404371372
0.0344897191 0.0254738387 -0.0363353564
0.0369493482 -0.0071173680 -0.0365467397
0.0426237582 -0.0003225409 -0.0367743506
-0.0225539786 0.0380103125 -0.0376960081
0.0233353285 0.0371235364 -0.0391419909
-0.0111513416 0.0430692615 -0.0365873890
0.0269954703 0.0343327075 -0.0364106157
0.0341497781 0.0275665624 -0.0379380169
-0.0197345573 0.0345369333 -0.0396889005
0.0338708569 0.0139837274 -0.0389472866
0.0090171697 -0.0341591455 -0.0384754357
-0.0339851933 -0.0090603683 -0.0389363603
-0.0295124326 -0.0239469118 -0.0361310965
-0.0268173038 -0.0343822260 -0.0362109544
-0.0428631540 0.0087663974 -0.0365002124
-0.0340132080 -0.0276976296 -0.0363305873
-0.0339825092 -0.0345252508 -0.0387294082
-0.0428472387 0.0063596794 -0.0394514248
-0.0297252080 0.0306052123 -0.0371984153
-0.0306326912 -0.0165700813 -0.0390782825
-0.0122319486 0.0387497618 -0.0368511944
0.0392915295 0.0061581354 -0.0362319483
0.0240812670 -0.0252638168 -0.0368508737
0.0113283968 -0.0457862510 -0.0361194744
0.0400371576 -0.0225724809 -0.0360937885
0.0431369640 -0.0116990569 -0.0364620673
0.0357353535 -0.0273483697 -0.0360756415
0.0300667021 -0.0259845870 -0.0366060968
-0.0247814594 -0.0398289603 -0.0360125422
-0.0103182720 -0.0452782262 -0.0355375457
-0.0417664201 -0.0160163655 -0.0404991653
0.0370247837 0.0045953897 0.0361458857
0.0030717504 -0.0405093242 0.0357253177
0.0368312977 -0.0281049005 0.0357588236
0.0065661939 -0.0408154529 0.0357520663
0.0063176496 -0.0484821104 0.0346124768
0.0425384199 0.0034834767 0.0363310519
0.0295086262 -0.0240527087 0.0364993219
0.0435808874 0.0008039098 0.0398058635
0.0270181999 -0.0200038260 0.0549641275
0.0357148331 0.0172954639 0.0466689451
0.0394959485 0.0001832366 0.0467508516
0.0086409268 0.0155666086 0.0571590276
0.0392303345 0.0176031238 0.0405248851
0.0422532570 -0.0178548215 0.0424468545
-0.0349546579 -0.0064651373 0.0360119886
-0.0381562583 0.0075707963 0.0362300100
-0.0418864829 0.0132472365 0.0365215171
-0.0098370033 -0.0638796488 -0.0038661569
-0.0126460024 -0.0656293415 0.0016337474
-0.0264276450 -0.0742797827 0.0054536229
-0.0304874523 -0.0763002320 0.0100709897
-0.0159108509 -0.0397280495 0.0358916766
-0.0134274143 -0.0430456755 0.0357995923
-0.0279293030 -0.0328362949 0.0362957957
-0.0190694235 -0.0529356633 0.0337415518
-0.0022674248 -0.0448718625 0.0354912084
-0.0260716150 -0.0638751334 0.0287781934
-0.0228060385 -0.0708633209 0.0136574019
-0.0217941485 -0.0713670419 -0.0044025135
-0.0030724931 -0.0538684773 0.0306177878
-0.0074454691 -0.0612269545 0.0174475383
-0.0060532040 -0.0485944970 0.0348760843
-0.0050483716 -0.0496759289 0.0346453462
-0.0024958602 -0.0568485761 0.0245707518
0.0268694212 0.0339808174 0.0367382188
0.0278677493 0.0228022784 0.0360209041
0.0441455337 0.0049375730 0.0379739863
0.0026581337 0.0395941696 0.0467783345
0.0295877697 0.0239877779 0.0484294220
-0.0030391673 0.0358201763 0.0505450627
-0.0297250659 0.0229426095 0.0489625856
-0.0187131204 0.0398363971 0.0386619608
0.0217710973 0.0374244622 0.0406002148
0.0356441175 0.0187877608 0.0409999736
0.0229851968 0.0183952157 0.0522000207
0.0112783749 0.0169891725 0.0549030090
0.0079431490 0.0169959236 0.0561809339
-0.0429620054 0.0026450709 0.0405529958
-0.0289763794 0.0030791969 0.0541836890
-0.0195556662 -0.0006264593 0.0568645974
-0.0204668160 -0.0105340957 0.0567313297
-0.0402383292 0.0198383709 0.0368674626
-0.0135533528 0.0078574277 0.0571936694
0.0005168351 -0.0471182713 0.0410000011
-0.0037828713 -0.0397108298 0.0434125423
-0.0101637934 -0.0440144664 0.0447981312
-0.0206322217 -0.0489666638 0.0532244959
-0.0171875296 -0.0327553817 0.0563303325
-0.0151022838 -0.0479641382 0.0545563891
-0.0300829451 -0.0729276261 0.0385782747
-0.0318002444 -0.0796988569 0.0332952045
-0.0077331579 -0.0462191023 0.0430226561
0.0042172992 -0.0473718517 0.0465062278
0.0379809291 -0.0345635355 0.0383068559
0.0113844374 -0.0416941337 0.0555462254
0.0172194220 -0.0629537548 0.0496678763
0.0397540911 -0.0488777005 0.0393759273
0.0128059158 -0.0278513286 0.0571898769
0.0456948012 -0.0255039307 0.0330665089
0.0323530645 -0.0733451119 0.0360802385
0.0112192762 -0.0724083496 0.0477019907
0.0437126599 -0.0448487979 0.0322587100
0.0475090179 -0.0358134236 0.0089010730
0.0452905562 -0.0356081470 0.0313648912
0.0104490163 -0.0386727097 0.0547254921
0.0337270042 -0.0288994833 0.0510121822
0.0208368487 -0.0414106229 0.0510135383
0.0279633239 -0.0369011817 0.0426404515
0.0187325011 -0.0229311409 0.0519072169
0.0170580804 -0.0114955912 0.0533360187
0.0298064807 -0.0224140937 0.0497372600
0.0372409354 -0.0146105287 0.0471227821
0.0234808463 -0.0013411226 0.0481109967
0.0319988917 -0.0136068643 0.0508105096
0.0166272869 -0.0057555746 0.0539671103
0.0345175067 0.0135441210 0.0489570841
0.0182354047 0.0024738092 0.0567162024
0.0272882093 -0.0182192227 0.0535555121
0.0265339701 0.0179823114 0.0512160224
0.0394874490 -0.0064206869 0.0439295948
0.0303127358 -0.0266166214 0.0410766600
0.0175270392 -0.0249244222 0.0546987931
0.0289363505 -0.0326998352 0.0489716748
0.0260487060 -0.0350505803 0.0450344542
0.0130434722 -0.0381620557 0.0485534130
0.0249405492 -0.0312809504 0.0470286629
-0.0346183537 -0.0342094812 0.0486427558
-0.0330429415 -0.0378349072 0.0464137594
-0.0304517487 -0.0468608173 0.0385108577
-0.0298671870 -0.0607862325 0.0412942898
-0.0436186651 -0.0103228940 0.0394407616
-0.0305535813 0.0269366001 0.0362180384
-0.0176356520 0.0345129828 0.0361706478
-0.0174363910 -0.0301968030 0.0367848378
-0.0209158700 -0.0290675506 0.0528948590
-0.0332328111 -0.0219362641 0.0425889693
-0.0410869953 -0.0150804631 0.0427794045
-0.0277762686 -0.0460650786 0.0500215486
-0.0271090032 -0.0378311373 0.0497385424
-0.0160579718 -0.0470676330 0.0525290248
-0.0178014091 -0.0257035727 0.0507996369
-0.0127519617 -0.0383944485 0.0467086190
-0.0198868208 -0.0390419440 0.0540785114
-0.0288584130 -0.0317894291 0.0505267085
-0.0205253198 -0.0341332153 0.0476575916
0.0098173764 -0.0419966594 0.0504897616
0.0284186628 0.0201864934 0.0368156099
0.0261085976 0.0231537399 0.0370619380
-0.0006424366 0.0347529634 0.0398419752
-0.0196396729 0.0288508399 0.0377539929
-0.0336056324 0.0086047483 0.0399018175
-0.0330304175 -0.0108624892 0.0385091868
-0.0176785543 -0.0298812288 0.0388497351
0.0111804784 -0.0329522139 0.0405464036
0.0339812635 -0.0078359427 0.0418673198
0.0008429717 0.0426087710 0.0365708989
-0.0311254310 0.0255518736 0.0419752107
-0.0168783782 0.0221005232 0.0543196268
-0.0038354457 0.0277018538 0.0523327488
0.0049148629 0.0324369225 0.0481940537
0.0175422550 0.0284319883 0.0499434689
-0.0176489123 0.0254813789 0.0513564787
-0.0064161377 0.0420021202 0.0409999604
0.0230985632 0.0324747118 0.0409999984
-0.0210303315 0.0335956086 0.0410000009
0.0197297483 0.0160482572 0.0480000004
0.0071207925 0.0259610750 0.0480000004
-0.0177604189 -0.0087781202 0.0545697187
-0.0365006815 -0.0069480190 0.0480750349
-0.0178045770 -0.0030464866 0.0530569514
-0.0366073945 0.0057551461 0.0483820714
-0.0167394640 0.0070166352 0.0526415606
-0.0257192768 -0.0178191910 0.0514128403
-0.0261857416 0.0178578592 0.0530779699
-0.0397608797 -0.0023159160 0.0419140837
-0.0080434913 0.0169394846 0.0531331647
-0.0134651947 0.0112061236 0.0496678683
-0.0430629806 0.0046039486 0.0372442825
-0.0215507490 -0.0155741626 0.0564702521
-0.0107000484 -0.0157429040 0.0549951383
-0.0058063543 -0.0135735467 0.0497488949
-0.0145159138 -0.0032306703 0.0481339790
-0.0113849262 0.0093544096 0.0547594142
-0.0020288405 0.0145767985 0.0570576119
0.0098214708 0.0110010752 0.0471139003
0.0147594638 -0.0020854977 0.0510428976
0.0081426976 -0.0138341681 0.0553343122
0.0186198582 -0.0178503647 0.0480000004
0.0317254282 -0.0291571099 0.0410000011
0.0206293047 -0.0079077805 0.0480000004
0.0222171466 0.0104006865 0.0480000004
0.0143691628 -0.0327075804 0.0491098970
-0.0083862908 0.0343148622 0.0364580381
-0.0106048388 -0.0277190859 0.0514015916
-0.0126097527 -0.0171426508 0.0480000004
-0.0264412677 -0.0398594561 0.0410000011
-0.0007622839 -0.0333392372 0.0520491045
0.0269942511 -0.0117577091 0.0430000015
-0.0182786571 -0.0256893187 0.0430000015
-0.0042212833 0.0279055194 0.0435778093
-0.0309156184 -0.0041967827 0.0430000015
0.0056131530 -0.0317381578 0.0430000015
0.0308088966 0.0092010109 0.0430000015
-0.0140275934 0.0295184571 0.0430000015
-0.0332944240 0.0080356928 0.0430000015
-0.0242240296 0.0235394231 0.0480000004
-0.0092434433 0.0297360217 0.0480000004
-0.0069777957 0.0174549824 0.0480000004
-0.0321606806 -0.0124975468 0.0480000004
-0.0188877614 0.0077739521 0.0480000004
-0.0110651152 -0.0221539655 0.0489239624
0.0046701151 -0.0154914046 0.0522882930
0.0030939976 -0.0213126749 0.0480000004
0.0260753714 0.0142698728 0.0452418534
-0.0077403455 -0.0340976810 0.0480000004
-0.0156472922 -0.0280879407 0.0438952055
-0.0012712054 -0.0248217624 0.0514218656
0.0166602129 0.0260924413 0.0454000619
-0.0261910917 0.0164314596 0.0440088404
0.0215772010 -0.0175639146 0.0443826313
-0.0171846801 0.0216780244 0.0435880509
-0.0159847366 -0.0220772807 0.0445000008
-0.0230801924 -0.0093275506 0.0445000008
-0.0180580136 0.0055145134 0.0445000008
-0.0144223033 0.0136028801 0.0445000008
-0.0046415672 0.0243928815 0.0445000008
0.0031850152 0.0264454810 0.0445000008
0.0194151372 0.0167876022 0.0445000008
0.0162786914 -0.0076855147 0.0445000008
0.0177038804 -0.0123397327 0.0445000008
0.0044254811 -0.0161023582 0.0445000008
-0.0019010612 -0.0204992508 0.0445000008
-0.0054583847 -0.0168355669 0.0526087069
-0.0263562487 -0.0785634935 -0.0005986821
-0.0168816696 -0.0724885169 -0.0028272373
-0.0184640059 -0.0731384619 -0.0066410994
0.0097571774 -0.0584685350 -0.0242161328
-0.0014451833 -0.0628026224 -0.0177206332
-0.0034456451 -0.0649669093 0.0002242586
0.0047254069 -0.0615408528 0.0105848675
0.0095369489 -0.0594265921 -0.0202625438
-0.0181209975 -0.0728459535 0.0088511017
-0.0191842622 -0.0733085756 0.0110597640
-0.0152913738 -0.0689988897 0.0198400455
-0.0139308668 -0.0663939390 -0.0251848479
-0.0241472329 -0.0746803972 -0.0222427968
0.0226531116 -0.0563993567 -0.0138049213
-0.0115436180 -0.0644729010 -0.0297359284
0.0172665833 -0.0572636998 -0.0245936450
0.0125974062 -0.0595747583 0.0112360759
-0.0029503648 -0.0646355193 0.0028259730
-0.0000449530 -0.0608365006 0.0241859088
-0.0029923248 -0.0637914995 0.0144812774
-0.0290754288 -0.0810518719 0.0174511358
-0.0153689664 -0.0678565378 0.0292043546
-0.0139106961 -0.0722867797 0.0302803896
-0.0109420274 -0.0980131015 0.0320844504
-0.0124743579 -0.1335285432 0.0306553224
-0.0160909625 -0.1081522500 0.0306234512
-0.0177357429 -0.1563487999 0.0310853836
-0.0296915831 -0.1099821199 0.0179703375
-0.0307923083 -0.1254630961 0.0169308025
-0.0301826953 -0.1624592678 0.0199286214
-0.0272112045 -0.1138100622 0.0217942358
-0.0278821882 -0.1324093380 0.0217087906
-0.0244758374 -0.1688133663 0.0268821114
-0.0246310096 -0.0817124531 0.0235673898
-0.0224454982 -0.1180007731 0.0268814154
-0.0205962266 -0.0909382360 0.0274412093
-0.0226602976 -0.1498895565 0.0277504463
-0.0180984318 -0.1194980660 0.0299873574
-0.0183930158 -0.1304885159 0.0301503459
-0.0304976576 -0.1600947802 0.0147693305
-0.0303986235 -0.1695926626 0.0136553634
-0.0308323326 -0.1416902776 0.0123822779
-0.0319146638 -0.0989634725 0.0112363984
-0.0325791927 -0.1512331195 0.0109472080
-0.0340615826 -0.0988348872 0.0049861839
-0.0334647963 -0.0859355350 0.0060584713
-0.0342743521 -0.0977319795 -0.0037296453
-0.0356521112 -0.1430610293 0.0007012670
-0.0352602626 -0.1289100038 0.0006553956
-0.0357530385 -0.1477335955 0.0015226671
-0.0347789399 -0.1413537877 -0.0076107637
-0.0346967702 -0.1316495859 0.0063615456
-0.0356747101 -0.1568877361 0.0047329280
-0.0346120670 -0.1203075052 -0.0057501179
-0.0345393978 -0.1540429026 -0.0091102379
-0.0328885463 -0.1480080846 -0.0106200821
-0.0310013094 -0.1670313017 -0.0154975815
-0.0305381245 -0.1016480475 -0.0146746080
-0.0311979757 -0.1443305401 -0.0119237610
-0.0304373734 -0.1075659898 -0.0161545731
-0.0305298877 -0.1613908409 -0.0192706887
-0.0293555697 -0.1395071798 -0.0201005543
-0.0288818759 -0.0900573006 -0.0184135375
-0.0187777737 -0.0995072720 -0.0290195442
-0.0215629944 -0.0792192307 -0.0262759526
-0.0238845108 -0.1604336130 -0.0271477478
-0.0202908485 -0.1645338408 -0.0300247194
-0.0227256833 -0.0818422019 -0.0253750155
-0.0255847851 -0.1253161222 -0.0241697328
-0.0267990353 -0.1541589005 -0.0240311213
-0.0290264630 -0.1585274664 -0.0214459338
-0.0162693296 -0.1522396765 -0.0309374981
-0.0182602842 -0.1605570307 -0.0309524848
-0.0152075727 -0.1013565893 -0.0304045084
-0.0138025633 -0.0839029285 -0.0303270361
-0.0123650679 -0.1378961267 -0.0307214492
-0.0098571766 -0.1451138208 -0.0339900303
-0.0095291482 -0.1274027925 -0.0338897898
-0.0119935786 -0.0688053008 -0.0309907045
0.0163906608 -0.1664100412 -0.0311432300
0.0296006450 -0.1157874849 -0.0184229267
0.0295333391 -0.0766036518 -0.0167615999
0.0298247788 -0.1412496495 -0.0194695346
0.0276293758 -0.0717330100 -0.0196297929
0.0283248049 -0.1418347883 -0.0216488626
0.0252359001 -0.0871912200 -0.0230840170
0.0273161978 -0.1290913669 -0.0223925227
0.0247807408 -0.1080808239 -0.0244266964
0.0225468830 -0.0861580229 -0.0257582833
0.0235371457 -0.1389999863 -0.0266840837
0.0230582946 -0.1506540356 -0.0275187003
0.0205818000 -0.1173200926 -0.0283664943
0.0186145921 -0.1516290380 -0.0306895169
0.0192709070 -0.1604779681 -0.0305475797
0.0200435864 -0.0748398032 -0.0274737173
0.0305172356 -0.1670352256 -0.0149996505
0.0301645734 -0.0858323619 -0.0146462743
0.0302361993 -0.0587074875 -0.0143358334
0.0307194736 -0.1197658712 -0.0124045536
0.0324465107 -0.0867904708 -0.0104450411
0.0329844412 -0.1022686069 -0.0100424812
-0.0322215949 -0.1704426534 0.0137857496
0.0145234029 -0.1699344133 -0.0332383922
0.0130425629 -0.1655144727 0.0327125837
0.0304729273 -0.1022531807 0.0160727459
0.0308955070 -0.1519467124 0.0167156057
0.0299592387 -0.1144108408 0.0179754275
0.0304613416 -0.1438216778 0.0144387445
0.0321820997 -0.1460762169 0.0111646215
0.0308662097 -0.0771423769 0.0121475721
0.0341871582 -0.1440645506 0.0097138221
0.0338699423 -0.1679239063 0.0101302287
0.0339756505 -0.0790321262 -0.0025826594
0.0342933321 -0.0882935041 -0.0003252304
0.0360752058 -0.1602942096 -0.0013558834
0.0344859612 -0.1016785279 -0.0025214659
0.0354138846 -0.1389536662 -0.0029845623
0.0360348274 -0.1707721338 -0.0043398281
0.0331001109 -0.0921756442 -0.0095157217
0.0328479622 -0.0826218981 -0.0094365376
0.0335959862 -0.0812425435 0.0059101528
0.0339512578 -0.1159679627 0.0085655878
0.0352480108 -0.1320489060 0.0039099305
0.0351840657 -0.1450993222 0.0063963747
0.0353492365 -0.1340297510 0.0027465801
0.0336413447 -0.0826990963 -0.0053076940
0.0305946669 -0.0545036821 -0.0016079566
0.0272466401 -0.0569853118 -0.0168892625
0.0237497009 -0.0563822458 0.0066598520
0.0072936247 -0.0563802948 0.0361616737
0.0125960968 -0.1120624619 -0.0305714369
0.0147865873 -0.1217304837 -0.0304235583
0.0117088284 -0.1142372727 -0.0312296366
0.0100108199 -0.1288513796 -0.0336093068
0.0106195967 -0.0983355201 -0.0323750891
0.0060808331 -0.1557836080 -0.0354506729
0.0026289320 -0.1006240530 -0.0344827352
0.0054144999 -0.0972640131 -0.0340730615
0.0048948726 -0.1138020406 -0.0345521748
0.0041017304 -0.1258887491 -0.0349320775
0.0014197271 -0.1079429597 -0.0347242673
-0.0012067399 -0.0924350962 -0.0343866611
-0.0020151911 -0.1448311809 -0.0356769790
-0.0030269505 -0.0950066436 -0.0342917948
-0.0051091732 -0.1292331455 -0.0349627196
-0.0068264510 -0.1520261666 -0.0352805006
-0.0083023227 -0.0936968014 -0.0334167890
-0.0368011555 -0.1469573932 0.0053483807
-0.0098668719 -0.1636465259 0.0344613577
-0.0099988901 -0.1035875283 0.0330207269
-0.0058932753 -0.0611049919 0.0290953632
0.0147530865 -0.1710000038 0.0314245786
-0.0344584205 -0.1710000038 0.0129774672
-0.0243715402 -0.1710000038 -0.0293461534
0.0338346687 -0.1710000038 -0.0175188163
0.0221589499 -0.0764648861 0.0256410511
0.0210282239 -0.1359871545 0.0285480504
0.0225108233 -0.1701337007 0.0284482666
0.0162779505 -0.0745045282 0.0297081504
0.0184792595 -0.1123809386 0.0295684528
0.0208109520 -0.1128228299 0.0280142248
0.0219733046 -0.0979638933 0.0266038166
0.0268702064 -0.1346036340 0.0231571843
0.0262210689 -0.1141743699 0.0231037925
0.0273704514 -0.0875741746 0.0205038713
0.0261247958 -0.0810042102 0.0219157806
0.0289323940 -0.1639320077 0.0217648268
0.0289680840 -0.1697281698 0.0219738638
0.0264211131 -0.0590014269 0.0195666974
0.0240004024 -0.0569294566 0.0204384803
-0.0122180310 -0.0881400129 0.0355298583
-0.0081836792 -0.0845924981 0.0365843728
-0.0219134195 -0.0823026932 0.0304217770
-0.0359372118 -0.0917549455 0.0108291199
-0.0387709718 -0.0981043665 0.0064405263
-0.0374847721 -0.1070715815 0.0048616138
-0.0288433144 -0.1037841388 0.0241940068
-0.0321923101 -0.1037051259 0.0196623774
-0.0259026470 -0.1061803485 0.0272535273
-0.0384306518 -0.1663003394 0.0006505815
-0.0138806650 -0.0934995540 0.0360575971
-0.0211400030 -0.0648634783 0.0310487235
-0.0380300369 -0.1149021615 -0.0038013424
0.0119762904 -0.0718275226 -0.0312851840
0.0370416246 -0.1480760146 -0.0091010818
0.0334371786 -0.0839296804 0.0172597932
0.0355262350 -0.0884497443 0.0117978119
0.0229471780 -0.0872021639 0.0297561968
0.0074731585 -0.0908140736 0.0367331370
0.0086806875 -0.1091597432 0.0367331749
0.0090669966 -0.0993019813 0.0367455596
0.0374332154 -0.1082531278 0.0007070137
0.0333913892 -0.1187766783 0.0181296440
0.0203863810 -0.1109995079 0.0317191229
0.0272733752 -0.1121127367 0.0263364246
0.0286109351 -0.1013873691 0.0244613223
0.0355516300 -0.0945748790 0.0127705898
-0.0383324272 -0.1602713952 -0.0077929738
-0.0333267475 -0.1318113554 0.0186381681
-0.0192395835 -0.1305838486 0.0329248162
-0.0181122507 -0.1338945280 0.0337668897
-0.0041086868 -0.1337520101 0.0381593827
-0.0363308784 -0.1398274494 0.0124716656
-0.0327985565 -0.1533300876 0.0207675460
-0.0316158037 -0.1376838008 0.0216803395
-0.0271072087 -0.1487745687 0.0275136640
-0.0073323567 -0.1389729490 0.0376498008
-0.0078865263 -0.1440748629 0.0376734027
-0.0073465468 -0.1641737451 0.0385547981
-0.0208057198 -0.1616396805 0.0332057631
-0.0273391392 -0.1718749189 0.0286749554
-0.0306874575 -0.1690109329 0.0249567316
-0.0339962836 -0.1603186329 0.0192089039
-0.0358726038 -0.1718424421 0.0168957674
-0.0385770372 -0.1681510483 0.0085961630
-0.0352535143 -0.1734999861 -0.0161332234
-0.0012506410 -0.1717927369 -0.0387273175
0.0324751452 -0.1725479291 -0.0210103886
0.0269540804 -0.1742954894 0.0276108554
-0.0099575751 -0.1729210647 0.0373230310
-0.0385159759 -0.1717373997 0.0044997297
0.0035333888 -0.1686938122 0.0393952313
0.0162208489 -0.1422327930 0.0349975156
0.0169316965 -0.1328193176 0.0344976912
0.0238422641 -0.1420595363 0.0301889779
0.0253295937 -0.1286216998 0.0282477479
0.0377445839 -0.1252599044 0.0057653527
0.0362869933 -0.1319734894 0.0119712266
0.0210436983 -0.1469195404 0.0322781074
0.0332237643 -0.1410966825 0.0193798541
0.0362091948 -0.1413485378 0.0129522269
0.0112189924 -0.1529050831 0.0371820090
0.0180249423 -0.1506337241 0.0343675051
0.0229043189 -0.1642574205 0.0318567047
0.0288520312 -0.1647497879 0.0267179577
0.0293515593 -0.1489857163 0.0252016355
0.0345136726 -0.1650493130 0.0186708332
0.0364356026 -0.1639856594 0.0145344002
0.0022837085 -0.0650076905 0.0337072917
-0.0079731486 -0.0677096888 0.0327576599
-0.0075030328 -0.1427043212 0.0348711164
-0.0049208350 -0.1680887714 0.0359686576
-0.0025857466 -0.0861062635 0.0341633077
-0.0013018245 -0.0731676692 0.0339285120
0.0001910059 -0.1242467258 0.0352111412
-0.0002857244 -0.0998194494 0.0346006432
0.0034838857 -0.1444462305 0.0355765770
0.0038117992 -0.0906319424 0.0341514917
0.0044336851 -0.0997862293 0.0343243644
0.0055558718 -0.1668602203 0.0358492160
0.0088727062 -0.0833971971 0.0330188634
0.0109219745 -0.1577230403 0.0324882278
0.0108586699 -0.1001814611 0.0323850829
0.0116065577 -0.1354906818 0.0312551294
0.0142448806 -0.1483241145 0.0303090221
0.0121822034 -0.1669044441 0.0308294378
0.0154978846 -0.1604980513 0.0306629813
0.0147143672 -0.0733921568 0.0302787347
0.0203620861 -0.0526529983 0.0314182412
0.0248404809 -0.0635540343 0.0280429978
0.0354144277 -0.0659435082 0.0119842617
0.0285961901 -0.0521409792 -0.0250949848
0.0386816854 -0.1643227641 -0.0013642492
0.0391269054 -0.0753213680 -0.0030522252
-0.0021479044 -0.0671094226 0.0399770030
0.0053208884 -0.0576203220 0.0371698828
-0.0109598892 -0.0568584223 0.0374195560
-0.0146525642 -0.0572820190 0.0383754377
-0.0118530846 -0.0753550391 0.0355804448
-0.0260369852 -0.0865666043 0.0272363927
-0.0358962240 -0.0852271102 0.0101790456
-0.0034619913 -0.1150923574 0.0378995978
-0.0184454723 -0.1132051880 0.0333578116
-0.0392532387 -0.1592588575 0.0034109010
-0.0018176656 -0.1665291870 0.0397344937
-0.0331913357 -0.1228973409 0.0192977043
-0.0392913290 -0.1077197893 0.0004599118
-0.0397964628 -0.1631928369 -0.0022580052
-0.0227763636 -0.0564264366 0.0353883483
-0.0287601027 -0.0680984494 0.0306144653
-0.0313585558 -0.0748847280 -0.0235141020
-0.0261934883 -0.0830197062 -0.0266907831
-0.0032538393 -0.1531502248 -0.0387703203
-0.0203495136 -0.0888505412 -0.0316115777
-0.0363505803 -0.0978936157 -0.0094418461
-0.0378196264 -0.1281434871 -0.0054317707
-0.0206809857 -0.0676687881 -0.0313387328
-0.0125951679 -0.0807911099 -0.0353223174
-0.0066994479 -0.0649842458 -0.0370680730
-0.0052183751 -0.0788562768 -0.0372073028
-0.0146870575 -0.1027735426 -0.0347602084
-0.0250145563 -0.0986633613 -0.0280418288
-0.0306188320 -0.1034526968 -0.0219463836
-0.0321670472 -0.1021567134 -0.0194072585
-0.0343442165 -0.1017157839 -0.0151886047
-0.0070324392 -0.1450448593 -0.0380321759
-0.0103653191 -0.1195962138 -0.0366653431
-0.0144599087 -0.1310395614 -0.0354517847
-0.0178221437 -0.1392744381 -0.0341477036
-0.0193860838 -0.1044548174 -0.0323902064
-0.0240933067 -0.1239683559 -0.0294360435
-0.0256840820 -0.1130151541 -0.0277774814
-0.0277368718 -0.1405909995 -0.0267521240
-0.0272438974 -0.1259815132 -0.0267431865
-0.0318659807 -0.1263266183 -0.0207804605
-0.0345435854 -0.1372182174 -0.0168232071
-0.0342051963 -0.1132801339 -0.0158235616
-0.0031811561 -0.0868302692 -0.0374626177
-0.0047516863 -0.1402417033 -0.0381554267
-0.0117332129 -0.1589037119 -0.0373435056
-0.0167827209 -0.1540471084 -0.0350554480
-0.0214825999 -0.1704205108 -0.0332747367
-0.0284812310 -0.1742844981 -0.0275985751
-0.0306841658 -0.1710246886 -0.0251876225
-0.0348392020 -0.1521539122 -0.0171189250
-0.0366209090 -0.1616061821 -0.0136094874
0.0384833577 -0.1725421695 -0.0098830844
0.0380584051 -0.1312180016 -0.0052472696
0.0270631248 -0.0762053657 -0.0258585708
0.0051542433 -0.0572290217 -0.0371385969
0.0128477240 -0.0652312039 -0.0350717528
0.0373403387 -0.0932391781 -0.0048153144
0.0367547795 -0.1065249124 -0.0081605730
0.0333804431 -0.0527975544 -0.0170333278
0.0348314637 -0.0774097881 -0.0137461467
0.0331046493 -0.0845015600 -0.0177347366
0.0326190722 -0.0580989950 -0.0184508182
0.0294173862 -0.0787201498 -0.0233448870
0.0233272071 -0.0618388288 -0.0294881683
0.0170193017 -0.0762940493 -0.0334266096
0.0255143695 -0.0914033732 -0.0275375140
0.0211291897 -0.0759662665 -0.0309709470
0.0358952688 -0.1120115971 -0.0117807769
0.0341371166 -0.1211629169 -0.0169701098
0.0344115512 -0.1419226342 -0.0173578059
0.0311189423 -0.1134239961 -0.0217416416
0.0293916834 -0.1168213536 -0.0240411797
0.0270105827 -0.1134832395 -0.0265793340
0.0271417754 -0.1404232928 -0.0273185815
0.0216848298 -0.1128774480 -0.0310454763
0.0205759076 -0.1443033666 -0.0326417032
0.0153361192 -0.1150906263 -0.0346550016
0.0133307054 -0.1093340610 -0.0354210450
0.0130879367 -0.1249676332 -0.0359125996
0.0075291691 -0.0897608334 -0.0367208330
0.0075386550 -0.1305405740 -0.0375620869
0.0056893292 -0.1188868576 -0.0376990493
0.0360956970 -0.1401030596 -0.0131164479
0.0033571872 -0.1604564849 -0.0389888218
0.0164246809 -0.1726810259 -0.0361626643
0.0180309583 -0.1624360923 -0.0349375488
0.0230386480 -0.1547746750 -0.0313871817
0.0291196127 -0.1656201466 -0.0265559885
0.0324355743 -0.1660720480 -0.0224172549
0.0361745997 -0.1676699626 -0.0156262476
0.0379799637 -0.1693838823 -0.0112139552
0.0191600222 -0.0543592189 -0.0320772538
0.0269552446 -0.0897171492 0.0261477032
0.0173541630 -0.0776822025 0.0343744702
0.0017992096 -0.1029820463 0.0387294157
0.0378324682 -0.1047244302 0.0039556900
0.0374084550 -0.1234288044 0.0070469280
0.0037434744 -0.0953170362 0.0410436085
0.0394877897 -0.1628670040 0.0014966419
0.0380170218 -0.1744906604 -0.0093096632
0.0392916914 -0.1574531000 0.0032088247
0.0114734941 -0.0711093917 0.0436531980
0.0149911627 -0.0586296990 0.0450636818
0.0292884579 -0.0705638447 0.0265576694
0.0376716716 -0.0705287490 0.0073157957
0.0333100690 -0.0558540629 0.0177338388
0.0427105452 -0.0336631860 -0.0348722864
0.0266871697 -0.0453942239 -0.0366991975
0.0401276161 -0.0467174036 -0.0068531079
0.0393934116 -0.0411841706 -0.0310585751
0.0449807457 -0.0439824504 -0.0034637394
0.0438233208 -0.0514350341 -0.0030000000
0.0397372103 -0.1684182536 -0.0036831537
0.0384497585 -0.1256129573 -0.0030540950
-0.0014600548 -0.0660193035 0.0428918580
-0.0019207294 -0.0512429411 0.0485721817
0.0014553176 -0.0636828822 0.0450627710
-0.0149917602 -0.0539346181 0.0429686147
-0.0079924428 -0.0500306019 0.0441402112
-0.0257467085 -0.0565565089 -0.0360449041
-0.0016009506 -0.0938215455 0.0417555355
-0.0109601421 -0.0734869647 0.0447808667
-0.0149337724 -0.0855676535 0.0417887018
-0.0172669912 -0.0810903167 0.0406863715
-0.0288661188 -0.0739664725 0.0330210085
-0.0322530472 -0.0861669305 0.0267181271
-0.0303342544 -0.0834330208 0.0332533931
-0.0016378837 -0.1124939636 0.0391043200
-0.0230608747 -0.1211046479 0.0304385272
-0.0389097100 -0.1324363579 0.0016027449
-0.0314637439 -0.0950199039 0.0270275180
-0.0009844230 -0.1408120388 0.0391540779
-0.0354996312 -0.0773523341 0.0252049638
-0.0288988777 -0.0694929815 0.0357780704
-0.0174205830 -0.0693998406 0.0452114072
-0.0171999987 -0.0591419389 0.0377473564
-0.0228670603 -0.0499962552 0.0407288545
-0.0276532757 -0.0622057676 0.0404990090
-0.0363492770 -0.0786217354 0.0154667605
-0.0169457671 -0.0506616203 -0.0380210080
-0.0026199057 -0.1239310068 -0.0381149659
0.0008952521 -0.1419178296 -0.0390223552
0.0025002446 -0.0580118314 -0.0378145063
0.0025436590 -0.0517631435 -0.0378853489
0.0386822734 -0.0347275533 -0.0381362461
0.0009892703 -0.0540183643 -0.0280637707
0.0433110844 -0.0250954815 -0.0334686337
0.0290167089 -0.0444434962 -0.0298077450
0.0226815665 -0.0469887776 -0.0312007854
0.0016187362 -0.0551236947 -0.0254171606
0.0153595107 -0.0526599132 -0.0260262278
0.0080234960 -0.0568270213 -0.0070307073
0.0169607291 -0.0550277818 -0.0064573597
0.0198219075 -0.0541261223 -0.0035433998
0.0262465578 -0.0512389624 -0.0069275306
0.0318629338 -0.0479069662 -0.0017213697
0.0358571601 -0.0449440046 0.0039520081
0.0363863507 -0.0445393578 -0.0025704301
0.0121244355 -0.0519528804 -0.0291866882
0.0435414956 -0.0375375239 -0.0048847076
-0.0132899089 -0.0655120505 -0.0124061777
-0.0246597065 -0.0503584597 -0.0347465082
-0.0331684124 -0.0784584332 -0.0051335623
-0.0315145081 -0.0762435640 -0.0128450356
-0.0102040339 -0.0514271771 -0.0337679016
-0.0209663946 -0.0526376937 -0.0338411411
-0.0225935831 -0.0640728346 -0.0273224650
-0.0179625750 -0.0606189116 -0.0290568271
-0.0143464204 -0.0635992673 -0.0216888535
0.0342760487 -0.0333221987 -0.0352010031
0.0013266341 -0.1106208321 -0.0387021748
0.0355593757 -0.0339610724 -0.0388000011
0.0180706328 -0.0463447499 -0.0388000011
0.0475496129 -0.0373012807 0.0008659472
0.0469187207 -0.0342905034 -0.0224713949
0.0442096710 -0.0677887368 -0.0009870549
0.0396707427 -0.0873791938 0.0030814648
0.0335101523 -0.0746283456 0.0247795474
0.0332065686 -0.0908279003 0.0186121953
0.0308767743 -0.0843102851 0.0284539500
0.0281819252 -0.0736045327 0.0304522664
0.0173029264 -0.0776530371 0.0368648263
0.0149047570 -0.0781815724 0.0444157343
0.0018558888 -0.0748274084 0.0476999355
0.0071221728 -0.1201121751 0.0375745461
0.0176018412 -0.1211312284 0.0340892452
0.0386635352 -0.1178283102 -0.0008957841
0.0011588879 -0.1664327856 0.0397607055
0.0277408866 -0.0964452507 0.0303145788
0.0405072107 -0.0948060986 0.0025976543
0.0290927811 -0.0709880283 0.0373991522
0.0309969982 -0.0623627957 0.0356706383
0.0309968750 -0.0552120945 0.0354906828
0.0302004837 -0.0504442308 0.0356298573
0.0221520697 -0.0498984697 0.0401131207
0.0173970925 -0.0624119738 0.0488762575
0.0172230848 -0.0572549984 0.0440206556
0.0354552964 -0.0708574857 0.0235097926
0.0398204330 -0.0710626082 0.0190182271
0.0419119594 -0.0499077963 0.0066538537
0.0380562732 -0.0498980516 0.0207639955
0.0337192024 -0.0511433277 0.0363908636
0.0332023737 -0.0603033270 0.0258290405
0.0332024565 -0.0591796431 0.0301656766
0.0332024367 -0.0611441689 0.0323793780
0.0281945626 -0.0420702577 0.0330464498
0.0413595277 -0.0385257057 0.0197623756
0.0389892607 -0.0322078915 0.0330353929
0.0355710558 -0.0437043976 0.0193846977
0.0266244846 -0.0510187251 0.0098397342
0.0216827327 -0.0533169455 0.0099987647
0.0178821433 -0.0500029333 0.0296889266
0.0138384451 -0.0553340603 0.0170733955
0.0102658497 -0.0554907393 0.0196330823
0.0003460783 -0.0576479170 0.0037480024
0.0451831468 -0.0275681657 0.0306806727
0.0237896232 -0.0473674232 0.0476658542
0.0272551725 -0.0430669242 0.0369806161
-0.0128777918 -0.0712202581 0.0463884778
0.0317551110 -0.0481764788 0.0481274709
-0.0260228592 -0.0474999994 -0.0375080894
0.0234882903 -0.0409462938 -0.0382640030
