0.0037367571 -0.0766389286 -0.0010857291
0.0037435298 -0.0778513787 0.0012261493
0.0034655618 -0.1142789224 0.0019521247
0.0025644875 -0.1005552652 0.0030545522
0.0017120268 -0.0852282690 0.0035011424
-0.0008466808 -0.0962379442 0.0038426795
-0.0020293865 -0.1051219723 0.0034048332
-0.0031940106 -0.1025442282 0.0023833504
-0.0036315996 -0.0713611705 0.0013015317
-0.0038639770 -0.0726352392 -0.0001909505
-0.0029238756 -0.0776000512 -0.0025468399
-0.0023596027 -0.1104450007 -0.0032122940
-0.0010557000 -0.1176082307 -0.0038359593
0.0007953936 -0.0798445118 -0.0038049301
0.0019275246 -0.0795275415 -0.0034040198
0.0033519379 -0.0941594223 -0.0021150918
-0.0224639227 -0.0887690322 -0.0109324286
-0.0233825243 -0.0924691818 -0.0088097641
0.0099965168 -0.0833733662 -0.0228292322
-0.0110496406 -0.0967974993 -0.0223954722
-0.0110941494 -0.0734864773 -0.0223144136
0.0226258496 -0.0842405858 -0.0105708775
-0.0240222365 -0.1124122393 -0.0068299776
-0.0244454688 -0.0998827517 -0.0050368013
-0.0246319104 -0.0962634584 -0.0041043559
-0.0247856344 -0.0797208029 -0.0031257634
-0.0249316890 -0.1189609009 0.0012249712
-0.0249167009 -0.0700876634 0.0016784854
-0.0247630374 -0.1081158340 0.0031624687
-0.0246045252 -0.0828956937 0.0042239983
-0.0240525105 -0.0793736012 0.0065361260
-0.0234892507 -0.0967269496 0.0084309498
-0.0125447803 -0.0875756691 -0.0215946093
-0.0147301706 -0.0757365177 -0.0201806939
-0.0163754950 -0.1110204597 -0.0188483713
-0.0167147957 -0.0929229869 -0.0185776066
-0.0173298030 -0.0763903613 -0.0179773224
-0.0189756295 -0.0769830245 -0.0162616266
-0.0206080172 -0.1016625914 -0.0141501062
-0.0213362099 -0.0807167152 -0.0129498770
-0.0225932908 -0.1150796540 -0.0106307944
0.0079037241 -0.1057232994 -0.0236730828
0.0038025169 -0.1164984533 -0.0246015617
0.0021026054 -0.1178685682 -0.0248770569
0.0014295240 -0.0843434456 -0.0249468704
0.0013815581 -0.0706640365 -0.0249472949
-0.0031552994 -0.1102040118 -0.0247635271
-0.0026906581 -0.0854226253 -0.0248131243
-0.0045909978 -0.1010062454 -0.0245289464
-0.0061523106 -0.1000823784 -0.0241103712
0.0221031745 -0.0926366084 -0.0115961454
0.0215409401 -0.0851494859 -0.0126066763
0.0202805699 -0.1134641497 -0.0145543109
0.0192449618 -0.0870239173 -0.0159440465
0.0178857793 -0.1172054996 -0.0174125020
0.0157356634 -0.1034781275 -0.0193783168
0.0164290410 -0.0738788350 -0.0187942909
0.0139378486 -0.1020507781 -0.0207051224
0.0135777316 -0.0870968678 -0.0209124886
0.0112138306 -0.1176994258 -0.0223060979
-0.0083137243 -0.1174278302 0.0218240982
0.0225384960 -0.0835232075 0.0107578298
0.0236376743 -0.0891579849 0.0080201306
0.0103343448 -0.0790316918 0.0226591031
0.0093133873 -0.0854197986 0.0231201085
-0.0080584946 -0.0748000478 0.0236101422
-0.0226612500 -0.0712903629 0.0104694141
0.0238336646 -0.1021404251 0.0074135908
0.0242922129 -0.0790869087 0.0058032754
0.0245116707 -0.0920044303 0.0047057076
0.0247649018 -0.0887301285 0.0033775532
0.0249905701 -0.1066600553 0.0006368979
0.0249227937 -0.0901689425 -0.0014941290
0.0248501374 -0.0857088375 -0.0025791745
0.0246062108 -0.0753519713 -0.0042127105
0.0244340905 -0.1157618317 -0.0052392805
0.0240252241 -0.1052423064 -0.0066235755
0.0121171690 -0.0813872005 0.0218439147
0.0130812955 -0.0975363322 0.0212593137
0.0150176283 -0.0790317300 0.0199558297
0.0159862393 -0.0876514099 0.0191695379
0.0170205316 -0.0811683908 0.0182941656
0.0189180756 -0.0763603676 0.0163360734
0.0204053122 -0.0723483424 0.0144123085
0.0210631529 -0.0985618467 0.0134024011
0.0215889378 -0.1044498208 0.0124661382
-0.0077644479 -0.1151933564 0.0237000327
-0.0055280571 -0.0741779001 0.0243418883
-0.0033602397 -0.1185800756 0.0246693857
-0.0023099018 -0.0782727453 0.0248637933
0.0003752138 -0.1035425198 0.0249628450
0.0035928685 -0.1117896522 0.0247168197
0.0026976844 -0.0782116854 0.0248123743
0.0069881945 -0.0815047603 0.0238914697
0.0068416148 -0.1173643951 0.0239097796
-0.0220402870 -0.1132073148 0.0116563212
-0.0222638376 -0.1050180498 0.0112716918
-0.0197509525 -0.1035867638 0.0152650316
-0.0194541611 -0.1077047881 0.0156633113
-0.0189244169 -0.0818000228 0.0163100505
-0.0173005983 -0.0710095770 0.0180336367
-0.0154493707 -0.0879137424 0.0196194587
-0.0133278216 -0.1162150991 0.0211089997
-0.0127167105 -0.0810921923 0.0214206747
-0.0110023438 -0.1075605299 0.0224131138
-0.0158339577 -0.0698999986 0.0092649703
0.0239712572 -0.0698999986 0.0001834367
0.0081297045 -0.0698999986 0.0114420625
-0.0239032522 -0.0698999986 0.0012086295
-0.0153268356 -0.0698999986 0.0042149206
0.0041051836 -0.0698999986 -0.0005033501
-0.0007710212 -0.0698999986 0.0053499535
-0.0211945720 -0.0698999986 -0.0017001937
-0.0086389571 -0.0698999986 -0.0163906920
0.0101879085 -0.0698999986 0.0096205462
0.0146459946 -0.0698999986 0.0057957354
-0.0015410228 -0.0698999986 0.0182995327
0.0031126760 -0.0698999986 0.0117536543
-0.0130203693 -0.0698999986 -0.0112350056
-0.0120581129 -0.0698999986 -0.0049857140
-0.0060280890 -0.0698999986 -0.0212083448
-0.0090945357 -0.0698999986 0.0093762752
-0.0113838086 -0.0698999986 0.0182630939
0.0061345222 -0.0698999986 -0.0223733664
0.0077678654 -0.0698999986 -0.0096583137
0.0194001812 -0.0698999986 -0.0100056804
-0.0221829402 -0.1181748110 0.0093086536
-0.0025827306 -0.1261000037 -0.0062116774
0.0089943146 -0.1261000037 -0.0008518542
-0.0052658198 -0.1261000037 0.0039631651
-0.0154297968 -0.1199999973 0.0161403445
-0.0203532129 -0.1199999973 -0.0057202875
-0.0094970489 -0.1199999973 -0.0034978950
-0.0065880285 -0.1199999973 0.0214202413
-0.0030747209 -0.1199999973 0.0203948002
-0.0005150929 -0.1199999973 0.0232662004
-0.0025537211 -0.1199999973 -0.0134555210
-0.0218227316 -0.1199999973 0.0090954974
-0.0226337098 -0.1199999973 0.0006665709
0.0078512346 -0.1199999973 0.0207379793
0.0223414402 -0.1199999973 0.0074986374
0.0175173103 -0.1199999973 0.0151841028
0.0116174163 -0.1199999973 -0.0055127572
0.0234794767 -0.1199999973 -0.0072092148
-0.0075624157 -0.1199999973 -0.0074321033
0.0139622145 -0.1199999973 -0.0137046082
0.0073066475 -0.1199999973 -0.0128551279
0.0008303702 -0.1199999973 -0.0151607930
0.0079601317 -0.1216746417 -0.0055094515
-0.0053995169 -0.1207549237 -0.0080132083
-0.0078597962 -0.1239124390 0.0055701886
0.0038398518 -0.1226918342 0.0089660888
0.0079096551 -0.1253708435 -0.0058051630
-0.0057936149 -0.1261000037 0.0045455130
0.0013758967 -0.1261000037 -0.0044829645
0.0084224851 -0.1257121134 -0.0051259495
-0.0046343861 -0.1251310339 -0.0087060157
-0.0082210959 -0.1230327981 0.0054634643
0.0047924206 -0.1252133312 0.0085870409
0.0095047696 -0.1224060577 -0.0026715624
0.0173874649 -0.1200999990 0.0003878069
0.0082230647 -0.1200999990 0.0180984152
0.0090215686 -0.1200999990 0.0114760924
-0.0144664024 -0.1200999990 0.0033733695
0.0190163052 -0.1200999990 0.0052883756
-0.0152906080 -0.1200999990 0.0138195844
-0.0218174903 -0.1200999990 0.0036882026
0.0199214901 -0.1200999990 0.0126645091
-0.0029083709 -0.1200999990 0.0159485491
-0.0077573343 -0.1200999990 -0.0063570478
-0.0112634979 -0.1200999990 -0.0105218119
-0.0057545802 -0.1200999990 -0.0127804540
-0.0178925802 -0.1200999990 0.0087130545
-0.0168808868 -0.1200999990 -0.0023319117
-0.0002351512 -0.1200999990 -0.0195059826
0.0113753290 -0.1200999990 -0.0122818117
0.0086903285 -0.1200999990 -0.0172036805
0.0134259611 -0.1200999990 -0.0078247257
-0.0017378887 -0.1318276862 -0.0034892257
0.0029080795 -0.1286125851 0.0026958046
0.0226791147 -0.1213244749 0.0099832073
-0.0099393309 -0.1203132383 0.0227934935
0.0236000816 -0.1266485809 0.0080004781
0.0249491955 -0.1330244288 0.0010465967
0.0243008718 -0.1248464451 -0.0056102450
0.0166447491 -0.1306115536 0.0185372351
0.0192389297 -0.1207098524 0.0157913370
-0.0076128193 -0.1321855518 0.0238021610
0.0001615793 -0.1259779737 0.0249060540
0.0069000902 -0.1205531344 0.0238856785
-0.0197477009 -0.1294021868 0.0152015107
-0.0134315722 -0.1309808306 0.0209983030
-0.0229399402 -0.1201242956 -0.0091621033
-0.0105062405 -0.1257940333 -0.0226615679
-0.0241811459 -0.1223060308 -0.0060215182
-0.0249143896 -0.1334564232 0.0002278698
-0.0240814437 -0.1231344016 0.0065025024
-0.0136598100 -0.1268302923 -0.0208311768
-0.0188570068 -0.1292941432 -0.0163139105
0.0051820460 -0.1301640636 -0.0243841233
0.0008999122 -0.1302058469 -0.0248660747
-0.0056200113 -0.1298101828 -0.0242904868
0.0207377288 -0.1240520805 -0.0138346274
0.0153428945 -0.1241594637 -0.0196762672
-0.0218576398 -0.1339000016 0.0061835543
0.0020342656 -0.1339000016 0.0203073593
0.0197345073 -0.1339000016 -0.0035575993
0.0165168111 -0.1339000016 -0.0181697639
0.0044352800 -0.1339000016 -0.0237007616
-0.0066056020 -0.1339000016 -0.0176758001
0.0076151965 -0.1339000016 0.0076790011
-0.0166887000 -0.1339000016 0.0073520075
-0.0120158819 -0.1339000016 0.0092029593
0.0106517503 -0.1339000016 0.0026712931
0.0058701186 -0.1339000016 0.0001318027
-0.0043673333 -0.1339000016 -0.0047162864
-0.0162119306 -0.1339000016 -0.0070515104
-0.0199499943 -0.1339000016 -0.0035586224
0.0193531513 -0.1339000016 -0.0072513514
0.0024866486 -0.1339000016 -0.0169374001
0.0052038595 -0.1339000016 -0.0191154110
0.0186657359 -0.1339000016 0.0081492928
0.0049582767 -0.1339000016 0.0147171544
-0.0041503709 -0.1339000016 0.0118633508
0.0077966999 -0.1339000016 0.0203422506
-0.0045891166 -0.1339000016 0.0160209912
0.0209028357 -0.1290692208 0.0094133770
-0.0230231590 -0.1335652305 0.0004276879
-0.0001115467 -0.1282101170 0.0229876919
0.0154163629 -0.1286466809 -0.0152349306
0.0270952334 -0.1147663699 -0.0064861548
0.0241441117 -0.1161053975 0.0147795253
0.0083600039 -0.1196283023 -0.0270875880
-0.0168952323 -0.1174664503 -0.0228495067
-0.0236660091 -0.1161679430 -0.0155689118
-0.0280083647 -0.1183866709 0.0046653551
-0.0155692681 -0.1173761142 0.0236868762
0.0254881561 -0.1200420867 -0.0123757112
-0.0151079672 -0.1203999966 -0.0210988193
-0.0053991810 -0.1203603417 -0.0257715639
-0.0017465654 -0.1202301253 0.0262948757
-0.0247496136 -0.1202298060 0.0115990881
0.0212625215 -0.1201572421 -0.0160363595
0.0105230953 -0.1175347852 0.0226726017
-0.0235927613 -0.1120953061 -0.0077601536
0.0227946661 -0.1132912336 -0.0100664812
0.0247969839 -0.1184461045 -0.0014611421
0.0216110842 -0.1121292505 -0.0124286217
0.0126942440 -0.1123976529 -0.0214817554
-0.0041431200 -0.1122597519 -0.0246381400
-0.0149288877 -0.1162109311 -0.0199068755
-0.0244885316 -0.1186042412 -0.0045027416
-0.0245420160 -0.1198915769 0.0036459320
-0.0166885018 -0.1197318523 0.0184872115
-0.0039286602 -0.1195155183 0.0246721518
0.0071368370 -0.1164041416 0.0240305207
0.0189927885 -0.1149663320 0.0161429694
0.0223511725 -0.1116070064 -0.0175464745
-0.0091055772 -0.1116442787 -0.0235443552
-0.0254379522 -0.1116648673 0.0072058056
0.0004111698 -0.1118361608 0.0248199268
0.0232147751 -0.1117992202 0.0098025495
0.0299741572 -0.1116049885 -0.0035939985
0.0164961013 -0.1115999967 -0.0232167890
-0.0008149300 -0.1116163357 -0.0300715591
-0.0246671750 -0.1118294855 -0.0198365972
-0.0107063779 -0.1118269292 0.0234007280
0.0069573634 -0.1117122834 0.0297683148
-0.0064073943 -0.1116372154 -0.0266672166
0.0272035797 -0.1115999967 -0.0111031645
0.0228319808 -0.1129651584 -0.0221384463
-0.0130533918 -0.1121678054 -0.0288339454
-0.0314933753 -0.1143389399 -0.0029529690
-0.0200549885 -0.1123512806 0.0246548507
0.0085515026 -0.1138071713 0.0305627667
0.0152662256 -0.1145341894 0.0257503883
-0.0026219304 -0.1144506661 0.0312804171
-0.0277379877 -0.1146000028 0.0005956946
-0.0309206903 -0.1144827801 -0.0046774596
-0.0084972508 -0.1145830625 -0.0300174099
0.0083442538 -0.1145488142 -0.0276110726
0.0294202323 -0.1145607024 -0.0015089143
0.0282448281 -0.1145076134 0.0092689317
0.0253539604 -0.1154291270 0.0113964314
-0.0124722804 -0.1175104411 0.0246357310
-0.0244575587 -0.1156772572 -0.0102024396
0.0096632517 -0.1187780880 -0.0239499829
0.0245739578 -0.1119124473 -0.0037339243
0.0179032471 -0.1201575023 -0.0181673317
0.0270671052 -0.1117843033 -0.0157758815
0.0279032189 -0.1138387748 0.0002878305
-0.0299763613 -0.1130845634 -0.0004074578
0.0212547920 -0.1200100964 0.0180550604
-0.0180230657 -0.1164435176 0.0210107238
-0.0209133661 -0.1178592675 -0.0179665855
0.0179673461 -0.1177070528 -0.0208672059
0.0355980504 -0.0452420423 -0.0322616902
0.0351020049 -0.0868695666 -0.0021167258
0.0281723433 -0.1075579794 -0.0171588271
0.0214831222 -0.1030196869 -0.0255541214
0.0133226658 -0.1105023804 -0.0301931464
0.0079438279 -0.1017600711 -0.0323989506
0.0005271495 -0.0888350276 -0.0356842421
0.0336888432 -0.0671037074 -0.0214749765
-0.0363772586 -0.0734870290 -0.0067317471
-0.0331876406 -0.1066033173 -0.0022622963
-0.0312439314 -0.1061194495 -0.0108197298
-0.0220959877 -0.1082397960 -0.0246269188
-0.0143153993 -0.1102081874 -0.0297229525
0.0022459144 -0.1029417421 -0.0336106683
-0.0341550603 -0.0673825592 -0.0201670579
-0.0320766469 -0.0406729973 -0.0395084586
-0.0192080636 -0.0380961329 -0.0430517576
-0.0072360964 -0.0380000100 -0.0393604308
0.0033870990 -0.0380000100 -0.0403544813
0.0364025548 -0.0434994619 -0.0305239613
0.0309285486 -0.0655011894 -0.0109447342
0.0307473369 -0.0661027289 -0.0025702850
0.0162548794 -0.0490966715 -0.0254353162
0.0053687678 -0.0468970331 -0.0227986513
0.0155692828 -0.0518087316 -0.0005407887
0.0072326860 -0.0480921271 -0.0119581934
0.0126333773 -0.0499557395 -0.0137427108
0.0181101067 -0.0534377240 -0.0096552621
0.0276344753 -0.0625998291 -0.0026585564
0.0331666901 -0.0616900516 -0.0219251270
0.0157060148 -0.0440028398 -0.0298495897
0.0280827056 -0.0545111866 -0.0254400028
0.0222798619 -0.0552299279 -0.0188411797
0.0266687550 -0.0606257007 -0.0142449303
0.0287329713 -0.0610480198 -0.0187071908
0.0020212825 -0.0477325565 -0.0024031083
-0.0273282233 -0.0588012224 -0.0203458610
-0.0349701506 -0.0563830737 -0.0257584819
-0.0052797577 -0.0473604206 -0.0191558455
-0.0168949538 -0.0526588815 -0.0039728518
-0.0045166062 -0.0469459550 -0.0223424753
-0.0295644770 -0.0625544865 -0.0162412061
-0.0191867560 -0.0543675391 -0.0057781507
-0.0303448768 -0.0655667294 -0.0056283436
-0.0321972180 -0.0671077818 -0.0102007091
-0.0277585074 -0.0460842553 -0.0295786229
-0.0317793861 -0.0618773072 -0.0207465513
-0.0250499470 -0.0512060212 -0.0270671426
-0.0030752210 -0.0478457332 0.0019902255
-0.0042875653 -0.0477171748 -0.0147883398
-0.0211781077 -0.0560547063 -0.0039953199
-0.0123216520 -0.0487739619 -0.0213245843
-0.0028159471 0.0318335217 0.0319599313
-0.0393570319 -0.0092248775 0.0321827399
-0.0353266384 -0.0031747957 0.0319142848
-0.0340531638 0.0092014256 0.0319645104
-0.0163942398 0.0275664987 0.0317289137
-0.0103096881 0.0343250562 0.0319326116
-0.0364231058 -0.0062849707 0.0318958968
0.0059907934 0.0385711492 0.0321463053
0.0164332001 0.0311257144 0.0318382451
0.0323147766 -0.0120306858 0.0317139524
0.0347855716 -0.0127450705 0.0317926361
0.0347064974 0.0151355056 0.0321137994
0.0094970704 0.0345485195 0.0318780048
0.0218227107 -0.0560301278 0.0114674872
0.0256378693 -0.0190190044 0.0316871332
0.0140324985 -0.0286281358 0.0315864691
0.0310505277 -0.0661566001 0.0074271560
0.0311952788 -0.0649649491 0.0141562820
0.0120548125 -0.0455348841 0.0288884725
-0.0028437359 -0.0366443934 0.0310942107
0.0215589961 -0.0410865178 0.0305943406
0.0099681108 -0.0378763870 0.0310182442
0.0142067164 -0.0492519120 0.0226742980
0.0197174717 -0.0543040803 0.0130962782
0.0039496127 -0.0463494127 0.0248982811
0.0091450790 -0.0488850412 -0.0072356909
0.0115843741 -0.0497127567 0.0021700367
0.0269607005 -0.0576203587 0.0216305603
0.0284201692 -0.0633188522 0.0068182871
0.0091806355 -0.0488064650 0.0112368544
0.0312929389 -0.0566406676 0.0250703004
0.0122826933 -0.0334858837 0.0313705517
0.0290082855 -0.0529752701 0.0266762883
0.0245221877 -0.0435598517 0.0299703596
0.0226294483 -0.0366031422 0.0311856827
0.0008529267 -0.0477249778 0.0096261219
0.0205355949 -0.0500762366 0.0265296218
0.0336488107 -0.0622866336 0.0216335819
-0.0333795165 -0.0387193864 0.0310139351
-0.0246197280 -0.0301259964 0.0315950089
-0.0377984878 -0.0222642909 0.0320184838
-0.0167812930 -0.0354046622 0.0312256570
-0.0080450993 -0.0445366069 0.0290945224
-0.0269880453 -0.0610706461 0.0132127507
-0.0186168862 -0.0538322576 0.0052255321
-0.0104849316 -0.0484815167 0.0211420761
-0.0012386103 -0.0468835035 0.0223150504
-0.0093661196 -0.0488773276 0.0007019580
-0.0205025399 -0.0554437156 0.0068426896
-0.0125150845 -0.0500444136 -0.0027581847
-0.0235963474 -0.0547285997 0.0225828922
-0.0320957461 -0.0619957132 0.0208963038
-0.0284850099 -0.0634122607 -0.0059013797
-0.0262463600 -0.0587658837 0.0187371984
-0.0242197500 -0.0374845599 0.0310634071
-0.0295790731 -0.0293258224 0.0315885963
-0.0155691966 -0.0303711639 0.0316666454
-0.0221521898 -0.0442918066 0.0298830794
-0.0176998126 -0.0399686231 0.0307238047
-0.0338819808 -0.0693966215 0.0078000835
-0.0280044879 -0.0630325795 0.0018092545
-0.0280041920 -0.0551864800 0.0249984738
0.0270754811 -0.0128633201 0.0382637545
0.0068483306 -0.0291129071 0.0386750129
-0.0181345188 -0.0239342723 0.0375817945
-0.0297194962 0.0030683743 0.0371164856
-0.0169681765 0.0246586874 0.0386522329
0.0124174693 0.0269901475 0.0385668613
0.0290617766 0.0062945743 0.0381619376
0.0381952864 -0.0201258718 0.0347940564
0.0099422935 -0.0313442947 0.0496136402
0.0349099547 -0.0654934721 0.0194393012
0.0330254437 -0.1088943616 0.0028589746
0.0262644664 -0.1102035015 0.0199631289
0.0146532220 -0.1118450868 0.0294146756
0.0083817448 -0.1056205395 0.0321409635
0.0026597596 -0.1095372607 0.0329485001
0.0352970721 -0.0738200173 0.0120754218
0.0296357517 -0.0404475618 0.0420889913
0.0203540687 -0.0253377585 0.0487950877
0.0071674248 -0.0425791148 0.0414143805
0.0131094241 -0.0427526841 0.0420628753
0.0109382932 -0.0377755570 0.0400530076
0.0061626929 -0.0389548297 0.0425735809
-0.0078452638 -0.0385676134 0.0420018423
-0.0359199942 -0.0404659493 0.0338220096
-0.0159966476 -0.0803958018 0.0341642674
-0.0268907172 -0.0757960520 0.0279158233
-0.0085364559 -0.0279020621 0.0501510457
-0.0012240215 -0.0775048921 0.0384877065
-0.0298435851 -0.1088707161 0.0141096259
-0.0144647923 -0.1139311857 0.0294706126
-0.0056381143 -0.1058262413 0.0327503954
-0.0301481971 -0.0885429348 0.0175388161
-0.0301209827 -0.0871911499 0.0183650970
-0.0351881466 -0.0857549023 0.0027937762
-0.0189834323 -0.0367191750 0.0478326023
-0.0189161001 -0.0386474329 0.0475019150
-0.0334337137 -0.1026736216 0.0023899767
-0.0335981957 -0.0601876712 0.0264376628
-0.0284281931 -0.0542669196 0.0374293187
-0.0278885520 -0.0705259234 0.0288902896
0.0262238232 0.0074713478 0.0468807766
0.0342951116 -0.0134251659 0.0413830610
0.0057274266 -0.0130640490 0.0504823105
0.0268516407 0.0189218625 0.0432392445
0.0283921080 0.0071796386 0.0456954844
0.0288878564 -0.0089545643 0.0461816648
-0.0070581877 0.0191412968 0.0493887218
-0.0228432686 0.0125475024 0.0475392909
-0.0131533935 0.0004692611 0.0502934451
-0.0330485418 0.0211507687 0.0323193077
-0.0179811378 0.0066900302 0.0494637787
-0.0055715306 -0.0133873408 0.0508608489
-0.0363491165 -0.0202142543 0.0381425917
-0.0299309209 -0.0081727470 0.0454464239
-0.0016543329 -0.0420599022 0.0450451030
-0.0118212670 -0.0640071351 0.0346522907
0.0131293751 -0.0657836396 0.0402887915
0.0240100226 -0.0645995236 0.0357421412
0.0288890246 -0.0592632138 0.0342378621
0.0282292246 -0.0880646102 0.0213805018
0.0046445166 -0.0869820315 0.0355140030
0.0267206963 -0.0784038781 0.0270568319
0.0018132876 -0.0117443600 0.0436346320
-0.0072719710 -0.0094721265 0.0466582080
-0.0116893969 -0.0023790699 0.0491884278
-0.0078981062 0.0089786168 0.0499988553
0.0018099638 0.0116696492 0.0410331996
0.0085859024 0.0080877037 0.0438574747
0.0118963407 -0.0000499382 0.0423015835
0.0081282939 -0.0086154807 0.0427473333
-0.0117958714 -0.0426927340 0.0395249643
0.0015440887 -0.0515103290 0.0417427005
0.0015692440 -0.0558208129 0.0366075399
0.0042110339 -0.0302074248 0.0440266826
-0.0253702916 -0.0638241742 0.0310907161
-0.0264998993 -0.0544632890 0.0386760752
-0.0290003347 -0.0480355845 0.0373617140
-0.0139638531 -0.0774369963 0.0334646665
-0.0101141957 -0.0664271305 0.0404461860
-0.0139931866 -0.0562206039 0.0395003119
-0.0139986575 -0.0501772232 0.0444480739
-0.0165037568 -0.0561599193 0.0334064247
-0.0165030651 -0.0527948531 0.0344517350
-0.0165005011 -0.0473517598 0.0436199656
-0.0206553086 -0.0641844873 0.0344568914
-0.0290828547 -0.0758723682 0.0164136662
-0.0264750657 -0.0728032783 0.0257796224
-0.0164999999 -0.0693639276 0.0344064646
-0.0206250571 -0.0700236057 0.0261503090
-0.0200888195 -0.0606511192 0.0272171044
-0.0015021636 -0.0573338313 0.0377603308
-0.0015529686 -0.0515313192 0.0419690700
-0.0122349811 -0.0498253632 0.0320715048
-0.0328223902 -0.0530537482 0.0307399656
-0.0317080958 -0.1026829975 0.0102341827
-0.0279568821 -0.1059002101 0.0179552870
-0.0325005777 -0.1124986834 0.0051691750
-0.0297425368 -0.1007929521 0.0151479702
-0.0220604257 -0.0933681834 0.0251109464
-0.0183642404 -0.0964737782 0.0278714579
-0.0073546123 -0.0925508341 0.0325084454
-0.0316052860 -0.0800987041 0.0103892161
-0.0298609436 -0.0852086925 0.0147997708
-0.0076579039 -0.0820673172 0.0324880827
0.0264772783 -0.0507856411 0.0338464757
0.0264999997 -0.0468752665 0.0386325341
0.0290791926 -0.0469311276 0.0377329317
0.0139504743 -0.0765131420 0.0342202257
0.0116540777 -0.0664277706 0.0362913161
-0.0035322224 -0.0641933022 0.0418323113
0.0139947806 -0.0417563271 0.0448908000
0.0140000004 -0.0524901383 0.0388179329
0.0165322652 -0.0462634432 0.0395446379
0.0165123785 -0.0538272277 0.0405224644
0.0182378412 -0.0640413662 0.0354428622
0.0290278202 -0.0694388056 0.0235871529
0.0264341535 -0.0717686450 0.0280799361
0.0179506750 -0.0665918446 0.0345328512
0.0166244204 -0.0692251943 0.0375375956
0.0208568588 -0.0693317028 0.0258953755
0.0015009346 -0.0753472799 0.0370294703
0.0226849153 -0.0567472458 0.0292257059
0.0235577406 -0.0435731187 0.0338188684
0.0047118440 -0.0691238427 0.0329367560
0.0107985673 -0.0850187788 0.0315193127
0.0043164769 -0.1137347200 0.0326050473
0.0304053113 -0.1017742292 0.0137823288
0.0325470735 -0.0993202925 0.0076506352
0.0273533451 -0.0981525265 0.0191767001
0.0228305500 -0.0946162768 0.0243686329
0.0174273336 -0.0989584074 0.0284610117
0.0091544530 -0.0967482319 0.0322193017
-0.0038964197 -0.0388069578 -0.0438286152
-0.0015105211 -0.0735338839 -0.0356653783
-0.0014929304 -0.0527988745 -0.0392943274
-0.0242289601 -0.0422784687 -0.0354432829
-0.0119262952 -0.0443195153 -0.0345214755
0.0059716177 -0.0425829673 -0.0405306763
0.0042826498 -0.0435400108 -0.0378593897
0.0234940192 -0.0421459779 -0.0370513584
0.0015325863 -0.0643983633 -0.0364884790
0.0015321690 -0.0546937041 -0.0374124533
-0.0235952284 -0.0384088594 -0.0417306569
0.0220490476 -0.0419596915 -0.0407421100
-0.0231918202 0.0105116607 0.0430000089
-0.0073381349 0.0384086468 0.0328172939
-0.0193636589 0.0333232154 0.0343877264
-0.0159465857 0.0281025934 0.0437294599
0.0208079247 0.0323066872 0.0342744072
0.0134816908 0.0324746046 0.0406036734
0.0153134570 0.0257922504 0.0455055619
0.0057290329 -0.0125798784 0.0394999944
-0.0208098368 -0.0068362314 0.0394999944
-0.0143465876 -0.0074998595 0.0394999944
-0.0126525195 0.0145429509 0.0394999944
-0.0163352602 0.0044993431 0.0394999944
-0.0197748093 0.0113920135 0.0394999944
0.0070060206 0.0140860742 0.0394999944
0.0195121863 0.0036009769 0.0394999944
0.0120720803 0.0150418527 0.0394999944
0.0199811826 0.0196995999 0.0394999944
0.0178828505 0.0221132018 0.0394999944
-0.0137053497 0.0229994210 0.0394999944
-0.0016428116 0.0252022377 0.0394999944
-0.0083257891 0.0276360080 0.0394999944
-0.0264939985 0.0008264816 0.0394999944
-0.0277415870 0.0050450254 0.0394999944
-0.0050134820 -0.0137965809 0.0394999944
-0.0188301090 -0.0128667846 0.0394999944
-0.0028015166 -0.0293363254 0.0394999944
-0.0115351264 -0.0236488697 0.0394999944
0.0100838870 -0.0198651799 0.0394999944
0.0024371339 -0.0150121840 0.0394999944
0.0241643320 -0.0132209315 0.0394999944
0.0250872418 -0.0028533365 0.0394999944
0.0230751657 -0.0105137999 0.0394999944
0.0102346067 0.0222418287 0.0472484344
-0.0131605572 0.0241472368 0.0461924153
-0.0253276566 -0.0077581083 0.0464450169
-0.0242799481 0.0131847314 0.0439148616
0.0274399661 0.0098085093 0.0441935342
0.0273648255 -0.0115559915 0.0439416162
-0.0091605713 -0.0222394066 0.0440462052
-0.0132242790 -0.0252534367 0.0464701369
0.0130740620 -0.0252441405 0.0489453367
-0.0100402787 0.0262054665 0.0404395323
-0.0092229223 -0.0258293231 0.0426351083
0.0259702037 0.0096284673 0.0423157335
0.0160998767 -0.0411682581 -0.0418396224
0.0056180064 -0.1145068261 -0.0316080521
-0.0324512044 -0.1145804069 0.0023038852
0.0275631606 -0.1117576504 -0.0174912488
0.0320301150 -0.1119566997 0.0069863776
0.0188767919 -0.1070191449 0.0272117863
-0.0234038201 -0.1087485266 0.0233406360
-0.0262847046 -0.1143758538 0.0181104010
0.0002664259 -0.1140668309 0.0319797342
0.0265136056 -0.1120812645 0.0177012012
0.0275401406 -0.1141767008 -0.0162471003
0.0058271141 -0.1143831799 -0.0311868557
-0.0231952702 -0.1124071502 -0.0219784196
0.0200682891 -0.0579912286 -0.0174484885
0.0110943369 -0.0526386739 0.0110704398
0.0003268105 -0.0500523010 -0.0195805741
0.0060930829 -0.0503613194 -0.0202815144
0.0243892447 -0.0634472750 -0.0032053801
0.0204534539 -0.0595222384 -0.0054262028
0.0146793110 -0.0544634124 -0.0107955396
0.0077293451 -0.0514867261 -0.0054789712
0.0204058459 -0.0584630534 0.0162280037
0.0039062144 -0.0498463458 0.0219735463
0.0079597215 -0.0513254808 0.0157976927
0.0243218295 -0.0632673033 0.0058397355
0.0039945320 -0.0509241283 0.0026005726
0.0158637223 -0.0549726426 0.0113550612
-0.0007465620 -0.0499070999 0.0198544080
-0.0071491313 -0.0505735181 0.0198707397
-0.0060363926 -0.0511831869 -0.0052833049
-0.0232664607 -0.0622266293 0.0059027715
-0.0160232825 -0.0556522458 0.0072651047
-0.0010591670 -0.0507853256 0.0049596477
-0.0230657519 -0.0619636764 -0.0039084896
-0.0130976338 -0.0535714181 0.0124419047
-0.0232100846 -0.0614492269 -0.0133931166
-0.0072123460 -0.0514539735 -0.0015899400
-0.0135437109 -0.0528430278 -0.0197620307
-0.0036675271 -0.0501334242 -0.0207750403
-0.0110775805 -0.0526069213 -0.0104471026
-0.0220929977 -0.0610612202 -0.0033134916
-0.0179141704 -0.0568659174 -0.0103363404
0.0078381814 -0.0504829152 -0.0234225309
0.0142262374 -0.0556064558 -0.0250012128
0.0237806031 -0.0626713325 -0.0164683400
0.0145612572 -0.0531783437 0.0219467131
0.0219533975 -0.0606566515 0.0185100366
-0.0129602728 -0.0524192712 0.0246958393
-0.0173042809 -0.0611953572 0.0232838806
-0.0211222679 -0.0595046362 0.0138692333
-0.0282582990 -0.0677678645 -0.0008468049
-0.0193451677 -0.0574599677 -0.0211737326
0.0238555732 -0.1109861556 -0.0188822782
-0.0017423431 -0.0632669852 0.0291317001
-0.0106895153 -0.0787358432 0.0275441698
-0.0283964427 -0.0891322327 -0.0090264703
-0.0164527664 -0.0597641012 -0.0239742114
-0.0025567958 -0.0660720549 -0.0291372031
0.0023591694 -0.0625726655 -0.0290447770
0.0203193692 -0.0702047499 -0.0211330371
0.0287490734 -0.0902758232 -0.0079396564
0.0296350971 -0.0842545364 0.0003469311
0.0209330778 -0.0664184656 0.0203295492
0.0166674855 -0.0671348141 0.0240276965
0.0030042470 -0.0520414768 0.0287278970
-0.0232523046 -0.0935632238 0.0188798547
-0.0241481427 -0.0946335967 0.0177529135
-0.0197141850 -0.0796439925 0.0220415012
-0.0189529960 -0.1065871235 0.0236265440
-0.0160456080 -0.0868849736 0.0250554078
-0.0038814074 -0.0784751133 0.0292614414
-0.0017701165 -0.0909259459 0.0298496803
0.0036120789 -0.0671308055 0.0289277050
0.0059864618 -0.0746598405 0.0288165072
0.0164315875 -0.0955698691 0.0251506969
0.0189543306 -0.1013540178 0.0234878823
0.0200039281 -0.1101649663 0.0229672689
0.0226139231 -0.0995931776 0.0199554912
0.0225243862 -0.0769507277 0.0190233919
0.0244376231 -0.0931640681 0.0172863399
0.0304218459 -0.1079744413 0.0009190310
0.0294332440 -0.0841528775 0.0037999891
0.0294277059 -0.0982519095 -0.0064970610
0.0296003255 -0.0927450002 -0.0040506789
0.0293805491 -0.0751409818 -0.0010414315
0.0207748671 -0.1052734346 -0.0220496769
0.0164114465 -0.1006185506 -0.0252948076
0.0051078667 -0.0929253255 -0.0294516204
0.0038352134 -0.0886303569 -0.0295450572
-0.0029024979 -0.0819032542 -0.0294769796
-0.0034736060 -0.0812220286 -0.0293959481
-0.0171051713 -0.1057559035 -0.0250175657
-0.0291081751 -0.0924238910 -0.0069424948
-0.0297645535 -0.0986152720 -0.0042523764
-0.0297118136 -0.0867087370 -0.0018045676
-0.0297878025 -0.1024406748 0.0048856690
-0.0297902047 -0.0894712018 0.0008700015
-0.0297526040 -0.0862501567 -0.0009549742
-0.0280971784 -0.0922023014 0.0100803993
-0.0262004524 -0.0711738657 0.0130993815
-0.0252660830 -0.0774346024 0.0152273944
-0.0214072439 -0.0736904378 0.0201234555
-0.0204735618 -0.0824226696 0.0214266103
-0.0145001578 -0.0925522526 0.0261436072
-0.0082468004 -0.0796050236 0.0283902435
0.0028281574 -0.0664326596 0.0290389166
0.0086507408 -0.0833108216 0.0283253695
0.0117684080 -0.0654014189 0.0266802174
0.0155041174 -0.0807431577 0.0251785226
0.0264138314 -0.0740771362 0.0128493523
0.0270126362 -0.0691105338 0.0112765725
0.0287507600 -0.0843667140 0.0073178349
0.0270534756 -0.0819188313 -0.0119707350
0.0256931222 -0.0686231287 -0.0139823277
0.0234076104 -0.0995202211 -0.0189788557
0.0232837866 -0.0809593813 -0.0182735084
0.0167846882 -0.0778742137 -0.0243083352
0.0150063416 -0.0808692729 -0.0254455307
0.0121510760 -0.0922457436 -0.0272413118
0.0090098917 -0.0736108360 -0.0279406309
0.0058665346 -0.0685314091 -0.0286546943
0.0022297970 -0.0926465970 -0.0298889493
-0.0010845053 -0.0869618608 -0.0297470262
-0.0051461226 -0.0732721941 -0.0288982321
-0.0083879126 -0.0854895734 -0.0284572762
-0.0111448107 -0.0894763784 -0.0276557991
-0.0132425816 -0.0839439368 -0.0265688024
-0.0163933840 -0.0701503272 -0.0243261034
-0.0185442334 -0.0790903180 -0.0230135207
-0.0210774965 -0.0989978728 -0.0214870400
-0.0232528659 -0.0764811438 -0.0181343471
-0.0235380222 -0.0986371983 -0.0187514075
-0.0245942396 -0.0799074890 -0.0163574939
-0.0266247076 -0.0883710336 -0.0133990447
-0.0277594374 -0.0794780440 -0.0100394319
0.0009368081 -0.0783384708 0.0295029182
-0.0012013815 -0.0831689268 0.0296422916
-0.0113832385 -0.1116000041 -0.0289977602
0.0120098030 -0.1114131442 -0.0251981743
0.0267834465 -0.1115166512 0.0137648401
-0.0113797161 -0.1114966693 0.0256528304
-0.0087957486 -0.0935999975 0.0271285324
-0.0107103491 -0.1070187781 0.0245209088
-0.0124417914 -0.1032550551 0.0248132461
-0.0118644114 -0.1069723491 0.0270825771
0.0100205884 -0.0938755536 0.0248695692
0.0267375159 -0.0964618992 0.0087493312
0.0255501549 -0.0949011774 0.0137716235
0.0245187336 -0.0960945674 -0.0109789562
0.0083503024 -0.1029981591 -0.0280503612
0.0121140652 -0.0937687798 -0.0246945599
-0.0090096468 -0.1004374360 -0.0255992553
-0.0266787949 -0.1094137239 -0.0087484666
-0.0251626031 -0.0939168158 -0.0130024174
-0.0246397691 -0.0995942614 0.0100112372
0.0084463343 -0.0983735445 0.0271379989
0.0164785480 -0.1109647563 0.0255916590
0.0255900843 -0.1030357834 0.0139738472
0.0265322168 -0.0951769278 -0.0086234269
0.0139201945 -0.0992438365 -0.0256614242
-0.0146556386 -0.0995174031 -0.0259109974
-0.0242601380 -0.1100243681 -0.0181349591
-0.0281465358 -0.0972166284 -0.0082485573
-0.0258384106 -0.0988098697 0.0143410879
0.0107217494 -0.1016477922 0.0274726462
0.0275483076 -0.1032964558 -0.0115745676
0.0110690258 -0.1102272808 -0.0262345573
-0.0261973783 -0.1014275521 -0.0116831992
-0.0275432142 -0.1031347907 0.0110985355
-0.0322776712 -0.0657631617 -0.0232369592
-0.0185023489 -0.0583512676 -0.0284366714
-0.0278417585 -0.0580750417 -0.0285483881
-0.0186189932 -0.0486708391 -0.0323364796
-0.0238982687 -0.0449816772 -0.0333446139
-0.0302343289 -0.0427211593 -0.0341620525
-0.0054244123 -0.0985297073 -0.0329794614
-0.0164428222 -0.0715033152 -0.0289872937
-0.0290460591 -0.0770936605 -0.0162303504
-0.0323610086 -0.0780618978 -0.0070286675
-0.0295370199 -0.1018792100 -0.0153437177
-0.0276835117 -0.1068979077 -0.0183081915
-0.0161443308 -0.1041481761 -0.0290822787
-0.0291399629 -0.0914128286 -0.0160661850
-0.0283172279 -0.1004987584 -0.0177207471
-0.0257415173 -0.0908567113 -0.0211602833
-0.0216510504 -0.0884941578 -0.0253090020
-0.0192719796 -0.0818931317 -0.0270684742
-0.0171902124 -0.0835172898 -0.0284461343
-0.0140957905 -0.0871334534 -0.0301188463
-0.0097724176 -0.0838320201 -0.0317849082
-0.0062292806 -0.0951080158 -0.0328119071
-0.0315570602 -0.0827637960 -0.0105083834
-0.0146477431 -0.0722661334 -0.0298545354
-0.0326490847 -0.0728746388 -0.0144905724
-0.0128398637 -0.0522009530 -0.0312869879
-0.0331162084 -0.0767290467 -0.0059698263
0.0328905259 -0.0877333725 -0.0054229073
0.0261870203 -0.0811466296 -0.0204997607
0.0176725664 -0.0691460334 -0.0282907999
0.0143884118 -0.0556116578 -0.0304005097
0.0309975083 -0.0909009796 -0.0124449516
0.0314493536 -0.1056496748 -0.0108866448
0.0138650595 -0.1003192158 -0.0303418361
0.0278507056 -0.1004408103 -0.0184000919
0.0113067231 -0.0926541548 -0.0312973573
0.0106908098 -0.0806611067 -0.0314187169
0.0176132880 -0.0949724411 -0.0282667126
0.0191518663 -0.0828940067 -0.0271795003
0.0222947799 -0.0915862006 -0.0247523988
0.0242121285 -0.0864215300 -0.0228586495
0.0277140005 -0.0763602117 -0.0183404460
0.0070004022 -0.0899070733 -0.0325537217
0.0310976002 -0.0841676533 -0.0118201158
0.0126968042 -0.0653773566 -0.0307943788
0.0319879467 -0.0465416404 -0.0329549003
0.0136332057 -0.0496537141 -0.0320755780
0.0155271878 -0.0527502420 -0.0310226894
0.0186138803 -0.0584809248 -0.0285135635
0.0286446948 -0.0643894861 -0.0244682597
0.0240445517 -0.0656986129 -0.0235804452
0.0254299333 -0.0429550920 -0.0342914175
-0.0006290273 -0.0625712104 -0.0408046979
-0.0011723711 -0.0446540468 -0.0436287889
-0.0224543188 -0.0398483325 -0.0439071263
-0.0228851352 -0.0435398640 0.0338040595
-0.0324904179 -0.0779812245 0.0067486647
0.0313107424 -0.0819814343 0.0110338334
0.0302551008 -0.0704442621 0.0181548185
0.0332242191 -0.0762900218 0.0053398207
0.0174691385 -0.0579024165 0.0291584526
0.0257820568 -0.0518053098 0.0318398393
0.0122226396 -0.0465192511 0.0331464866
-0.0019297782 -0.0572666676 0.0342369623
0.0015414944 -0.0686609329 0.0358705041
-0.0137135143 -0.0479488057 0.0335869202
0.0200588842 -0.0906916016 0.0265915159
-0.0172427336 -0.0898021887 0.0290341716
-0.0022225445 -0.0969429239 0.0336323899
0.0291127633 -0.0612562330 0.0282702668
-0.0291507821 -0.0556259460 0.0309660214
-0.0166959424 -0.0568322018 0.0308478164
-0.0263475543 -0.0444490726 0.0347145968
-0.0309681077 -0.0709221509 0.0170624633
0.0217374506 -0.0873036673 0.0278579254
0.0262517551 -0.0708413825 0.0247226259
-0.0193422018 -0.0866673408 0.0276622413
-0.0234706414 -0.0841048593 0.0241327322
-0.0264019102 -0.0801859936 0.0249555458
0.0051559265 -0.0805062163 0.0328388951
0.0050466551 -0.0672411522 0.0334640074
-0.0044577703 -0.0690039563 0.0329471396
-0.0101449803 -0.0668424117 0.0330325176
-0.0338217466 -0.0860509242 0.0036120993
0.0029455166 0.0144037078 0.0441225565
0.0058320019 0.0230882782 0.0478846207
0.0047265166 0.0260932271 0.0430000089
0.0063047959 0.0202293940 0.0430000089
0.0064663274 0.0191664384 0.0444254694
0.0114131031 0.0090171251 0.0435370851
0.0171318549 0.0166331905 0.0430000089
0.0191158006 0.0180484779 0.0430000089
-0.0198490943 0.0107095128 0.0452462838
-0.0110731336 0.0091176579 0.0478330806
-0.0129493531 0.0207490748 0.0431626286
-0.0100686787 0.0188745821 0.0430000089
-0.0133675272 0.0141755881 0.0430000089
0.0058088931 -0.0229549933 0.0447049435
-0.0020188424 -0.0143170186 0.0444431623
-0.0010133911 -0.0252821048 0.0430000089
0.0047933883 -0.0198483668 0.0430000089
0.0246870613 -0.0174552818 0.0440213073
0.0096414928 -0.0106105331 0.0506241136
0.0107512747 -0.0097510778 0.0430000089
0.0157253910 -0.0087444220 0.0430000089
0.0225018490 -0.0200377660 0.0430000089
-0.0160305756 -0.0080136293 0.0475493737
-0.0238444306 -0.0188687710 0.0454773614
-0.0144786161 -0.0209337184 0.0430000089
-0.0095678720 -0.0110115598 0.0430000089
-0.0289112404 0.0055628454 0.0447255514
-0.0187651050 -0.0062887740 0.0472718596
-0.0212462474 0.0066546257 0.0463366189
-0.0168612910 0.0023648553 0.0430000089
-0.0152441587 -0.0038835131 0.0430000089
0.0272239561 0.0059561639 0.0449168880
0.0240316037 -0.0056362045 0.0432874200
0.0179025434 -0.0012311163 0.0430000089
0.0197072271 0.0039541089 0.0430000089
0.0158799086 0.0080275380 0.0486968270
0.0175155650 -0.0058184309 0.0467646392
0.0074541725 -0.0133050277 0.0480793996
-0.0087308116 0.0177223749 0.0453971114
-0.0076416568 -0.0136504132 0.0435349752
-0.0036528340 -0.0140051477 0.0470566978
-0.0060477360 -0.0636231032 0.0295250862
-0.0126231260 -0.0588481720 0.0297647020
0.0111201509 -0.0629889795 0.0282888814
0.0129809444 -0.0588698492 0.0307182069
0.0128636749 -0.0590937741 -0.0298452356
-0.0062666714 -0.0531361868 -0.0291678181
-0.0132672804 -0.0593053212 -0.0297077836
-0.0119100979 -0.0518151323 -0.0315375462
0.0079572672 -0.0516396502 -0.0324593990
0.0131482429 -0.0554786014 0.0317646188
0.0019752400 -0.0749037278 -0.0340865420
0.0027783552 -0.0512789644 -0.0342513294
-0.0016213563 -0.0521799316 -0.0350320314
-0.0295765511 0.0156158741 0.0355258077
-0.0206243887 0.0256634805 0.0392323361
-0.0165496123 0.0292967249 0.0349999891
-0.0302390633 0.0233234764 0.0349998990
-0.0105925965 -0.0379538527 0.0391623488
-0.0111612266 -0.0323245758 0.0426880835
0.0130535158 -0.0348428291 0.0411441307
-0.0022737057 -0.0328795321 0.0440893995
0.0060250321 -0.0323883035 0.0413037561
0.0042721976 -0.0345457824 0.0349999927
0.0126228185 -0.0360164436 0.0349999927
-0.0052152163 0.0325590023 0.0356080180
-0.0003115038 0.0328869056 0.0408416420
-0.0108944999 0.0357445836 0.0349999877
-0.0114501488 0.0336978336 0.0349999927
0.0262406856 0.0199536791 0.0417632095
0.0217121822 0.0247743717 0.0425277408
0.0238901380 0.0255544216 0.0349999467
0.0305735633 -0.0149469099 0.0417221148
0.0344502994 -0.0191597187 0.0397893285
0.0263082103 -0.0293824208 0.0438427205
0.0226871789 -0.0322149472 0.0473295450
0.0164164022 -0.0349411865 0.0391513825
0.0272459466 -0.0185293052 0.0382176620
0.0180593880 -0.0275420504 0.0451800372
0.0255178537 -0.0208299333 0.0378481497
0.0250730852 -0.0280390657 0.0349999927
0.0177166762 -0.0336844443 0.0349999927
-0.0315083158 -0.0147523697 0.0413065157
-0.0152179822 -0.0331526072 0.0466633794
-0.0200078021 -0.0340036126 0.0417733606
-0.0246292245 -0.0307811888 0.0423102752
-0.0306116469 -0.0247962148 0.0390118367
-0.0240597915 -0.0225015309 0.0378144521
-0.0175621364 -0.0278398534 0.0471306596
-0.0210729552 -0.0330987796 0.0349999927
-0.0304222146 -0.0244370408 0.0349999927
-0.0373473423 -0.0141157298 0.0351130278
-0.0324241858 0.0054909513 0.0395214705
-0.0319515606 -0.0082293072 0.0370412209
-0.0364562696 -0.0112121891 0.0349999948
0.0327199782 0.0118254512 0.0358775751
0.0328957388 -0.0013712843 0.0353103485
0.0326484368 0.0030698638 0.0422037022
0.0346468227 0.0008405443 0.0349999927
0.0097968679 -0.0317825024 0.0492806923
-0.0221750341 -0.0355878875 0.0411908526
-0.0314335387 -0.0277936448 0.0405668807
-0.0253583804 -0.0394999906 0.0378154282
-0.0270270091 -0.0394978455 0.0349507389
-0.0344119004 -0.0285715570 0.0347233715
-0.0325440819 -0.0353511416 0.0343365776
0.0284914473 -0.0307226279 0.0396008123
0.0256953636 -0.0330695019 0.0455998443
0.0218755685 -0.0394927761 0.0383169306
0.0291331181 -0.0395000563 0.0420133785
0.0251161343 -0.0353913823 0.0343156334
0.0338785277 -0.0302813474 0.0345453554
0.0297292499 -0.0071522366 0.0361558101
-0.0108279193 -0.0290531873 0.0360761070
-0.0292319776 0.0082327753 0.0361849240
-0.0109437608 -0.0295270510 0.0336479949
-0.0199847746 0.0245093926 0.0325746843
-0.0274176726 0.0162136463 0.0328120719
-0.0316476316 -0.0021857220 0.0342331266
-0.0220939352 -0.0225682787 0.0327253635
0.0075962178 -0.0307389933 0.0336833399
0.0295192428 -0.0115794968 0.0346780822
0.0306812138 0.0071809544 0.0341505228
0.0208601898 0.0235502996 0.0347893361
0.0108194968 -0.0060672661 0.0399982920
0.0119301515 -0.0035815885 0.0397305256
0.0141698968 -0.0597254087 0.0421384330
-0.0009667692 -0.0477416998 0.0440275559
-0.0322517526 -0.1058022401 0.0010757300
-0.0308619858 -0.0941736565 -0.0117384307
-0.0331200972 -0.0946669528 -0.0013999987
-0.0308289076 -0.0942828645 0.0045207733
0.0329983000 -0.1074914322 -0.0014529462
0.0308237094 -0.0934203072 0.0025382486
0.0308237837 -0.0949485318 -0.0018644095
0.0316238400 -0.0932942259 -0.0004000115
0.0336730966 -0.0975988523 0.0030232255
0.0289473903 0.0240452871 0.0319834109
-0.0382654504 0.0063891889 0.0338714225
-0.0274363659 0.0268113827 0.0348628085
0.0026698759 -0.0392794482 -0.0370584248
0.0084731352 -0.0399999842 -0.0347881500
0.0153941302 -0.0399999842 -0.0362847656
-0.0094950473 -0.0425859432 -0.0327000059
-0.0086391252 -0.0428000018 -0.0309539606
-0.0104163013 -0.0428000018 -0.0304742998
0.0252771553 -0.0403371617 -0.0343628325
-0.0098600651 -0.0412113848 -0.0334886094
-0.0271062736 -0.1114819473 0.0098265442
