0.0004495878 -0.0282490430 0.1961792724
0.0032627426 -0.0336212919 0.2017051501
0.0014858121 -0.0294104191 0.2122537696
0.0081427736 -0.0256782683 0.2069366942
0.0093443492 -0.0258203312 0.1993657919
0.0032944832 -0.0233364365 0.1981237715
-0.0025340127 -0.0283401190 0.1770292214
0.0029734921 -0.0222426110 0.1814664267
0.0048550489 -0.0332301258 0.1873103764
0.0021287977 -0.0287539684 0.1681651711
0.0111533024 -0.0292197375 0.1876574266
0.0088020191 -0.0325212164 0.1791416782
0.0042397665 -0.0310392011 0.1733641361
0.0088727486 -0.0230069034 0.1832159643
0.0101275904 -0.0283036420 0.1984573987
0.0012829779 -0.0251676303 0.1648618050
-0.0012909078 -0.0293135462 0.1726654239
0.0029104584 -0.0116312009 0.0594991807
0.0034988149 -0.0035482789 0.0611499995
0.0090786692 -0.0118214971 0.0609901654
0.0026730496 -0.0049847058 0.1645074502
0.0003212738 -0.0052607514 0.2014081157
0.0061359621 -0.0118343864 0.2021555453
0.0074588721 -0.0058331399 0.2184282969
0.0094655961 -0.0082931498 0.2058573762
0.0033717551 -0.0027469183 0.2150264545
-0.0003594415 -0.0059351107 0.2076049569
-0.0026386834 -0.0084952748 0.1769571200
0.0008851942 -0.0108448526 0.1871303783
-0.0002317822 -0.0047074488 0.1864958954
0.0042271414 -0.0027822547 0.1713089591
0.0032612907 -0.0084670111 0.1690236572
0.0113579749 -0.0066617938 0.1749591001
0.0105488374 -0.0107948830 0.1756025717
0.0074541487 -0.0126984871 0.1770248906
-0.0012744018 -0.0039215924 0.1690346968
0.0097241576 -0.0025175174 0.1793907748
0.0040932643 -0.0013677193 0.1815702868
-0.0013764068 -0.0068789097 0.1712115507
0.0006120411 -0.0006092345 0.1401167555
0.0000099312 -0.0097583010 0.1425227158
-0.0034611358 -0.0114057821 0.1377797106
-0.0063139938 -0.0024334591 0.1354558575
0.0080775840 -0.0126581253 0.1704934968
0.0055853202 -0.0003207475 0.1677257838
-0.0078747420 -0.0118343143 0.1481544610
-0.0015871713 -0.0132084213 0.1603798729
0.0081261465 -0.0121880455 0.1435256034
0.0046304621 -0.0005445099 0.1446625761
-0.0027389049 -0.0004452322 0.1547056158
0.0105040183 -0.0063642924 0.1376210312
0.0093040538 -0.0065909792 0.1352959246
-0.0055765947 -0.0002136545 0.1409564983
-0.0062513249 -0.0135924147 0.1346477103
0.0045787477 -0.0007229419 0.1385932913
-0.0010669326 -0.0010059075 0.1723425078
0.0020628571 -0.0105382289 0.1732160249
0.0038881104 -0.0134341962 0.1705086586
0.0070298622 -0.0129215449 0.1578766970
0.0087946185 -0.0122323666 0.1541735655
0.0109504063 -0.0041127626 0.1575987315
0.0017440776 -0.0067373560 0.1687392409
0.0014236169 -0.0134768193 0.1468286476
-0.0013112964 -0.0051686641 0.1429169184
0.0091316120 -0.0057603488 0.1532569386
0.0076929367 -0.0099468633 0.1481981554
0.0068477137 -0.0056568161 0.1585619298
0.0073025886 0.0067323832 0.0594573807
-0.0174125511 -0.0213352714 0.0618765850
-0.0200825286 -0.0173301941 0.0596803108
-0.0186311242 -0.0163842693 0.0669965118
-0.0176493902 -0.0291320476 0.0680987263
-0.0164512217 -0.0231383131 0.0578499995
-0.0202404699 -0.0186924205 0.0578499995
-0.0224503396 -0.0256141839 0.0693499967
-0.0571145619 -0.0751379588 0.1179908678
-0.0639063129 -0.0788770749 0.1143298923
-0.0672922609 -0.0756602628 0.1270554965
-0.0670807711 -0.0741586775 0.1206785357
-0.0574141727 -0.0785645499 0.1257398828
-0.0688419530 -0.0775202299 0.1243328418
-0.0631676150 -0.0806072794 0.1328775469
-0.0616873612 -0.0873584261 0.1210021709
-0.0555754489 -0.0824281389 0.1172383649
-0.0632052943 -0.0861487000 0.1153679308
-0.0600896784 -0.0837083229 0.1093025837
-0.0496800542 -0.0666567267 0.1070516651
-0.0562552850 -0.0660299776 0.1094552131
-0.0558383341 -0.0696519144 0.0910864894
-0.0559172983 -0.0695859875 0.1082866240
-0.0553629049 -0.0785827887 0.1012328378
-0.0626298287 -0.0751082021 0.1023272939
-0.0505370113 -0.0698384955 0.0990256617
-0.0616243525 -0.0757706373 0.0998247656
-0.0623807340 -0.0710362333 0.0985191003
-0.0628904531 -0.0727982680 0.1174842971
-0.0548125533 -0.0703826597 0.1139876921
-0.0593715466 -0.0648873857 0.1088495958
-0.0636212752 -0.0695132641 0.0973564209
-0.0666092447 -0.0772297787 0.1096305034
-0.0486666236 -0.0620330808 0.1050879369
-0.0475824789 -0.0727259366 0.1034033299
-0.0509338339 -0.0747463817 0.1121567395
-0.0577446958 -0.0664917247 0.0856342762
-0.0564062092 -0.0805819112 0.0981988454
-0.0475959767 -0.0576953836 0.0990330869
-0.0472299636 -0.0728952500 0.0871225296
-0.0483007820 -0.0617525032 0.0829772039
-0.0508560870 -0.0763405134 0.0917417199
-0.0552027513 -0.0784602498 0.0928791715
-0.0646986902 -0.0738394123 0.0962247726
-0.0426498357 -0.0635945606 0.0835711237
-0.0468395052 -0.0600140163 0.0879858991
-0.0421144473 -0.0561875222 0.0962229217
-0.0553523252 -0.0606054172 0.0830491548
-0.0384884779 -0.0410325326 0.0794532769
-0.0288228386 -0.0432316761 0.0788346446
-0.0299708881 -0.0447226091 0.0780904074
-0.0520770408 -0.0708601390 0.0824531766
-0.0363191702 -0.0509345859 0.0952115924
-0.0332441754 -0.0529282877 0.0901646805
-0.0306080117 -0.0501836517 0.0860412583
-0.0427225615 -0.0610820428 0.1013073731
-0.0616552297 -0.0717487835 0.0884262338
-0.0217991881 -0.0352763316 0.0812342128
-0.0333251480 -0.0555890742 0.0907244365
-0.0334506295 -0.0558366895 0.0902373366
-0.0237686554 -0.0429519742 0.0782249407
-0.0260012948 -0.0425881356 0.0860833414
-0.0472956678 -0.0508665426 0.0814845959
-0.0502271768 -0.0554066514 0.0900418628
-0.0267330387 -0.0418034147 0.0725083477
-0.0436718831 -0.0629448666 0.0908596252
-0.0416556647 -0.0652225777 0.0973119641
-0.0452825442 -0.0701308063 0.0936394476
-0.0387433902 -0.0617108489 0.0976420857
-0.0581349903 -0.0607471959 0.0918483500
-0.0414868338 -0.0400092000 0.0763695721
-0.0337218252 -0.0405331825 0.0896107726
-0.0421310042 -0.0476212900 0.0958486300
-0.0433547574 -0.0437766570 0.0898225966
-0.0321081644 -0.0524154185 0.0842694014
-0.0247860347 -0.0429064106 0.0728361144
-0.0379862456 -0.0598249806 0.0947649446
-0.0544455476 -0.0622034805 0.0784622134
-0.0551022244 -0.0580047844 0.0827635184
-0.0346074254 -0.0425162400 0.0922685443
-0.0279504382 -0.0298942875 0.0800633949
-0.0439053041 -0.0427032004 0.0804336722
-0.0482036017 -0.0488832901 0.0918866266
-0.0478067076 -0.0648635011 0.0745631325
-0.0343018895 -0.0560264452 0.0831881179
-0.0263314057 -0.0339113195 0.0526131804
-0.0491297543 -0.0684411242 0.0753859955
-0.0339935424 -0.0579964773 0.0797796861
-0.0293824183 -0.0515730165 0.0719983808
-0.0182185179 -0.0367807558 0.0621598767
-0.0279697665 -0.0325736242 0.0840382653
-0.0319976126 -0.0451117237 0.0563839756
-0.0212142470 -0.0388318587 0.0538393682
-0.0369916647 -0.0582573443 0.0677946375
-0.0350763250 -0.0493656808 0.0579632970
-0.0298631996 -0.0461764866 0.0553136374
-0.0348784689 -0.0578560799 0.0730119493
-0.0357034076 -0.0577308885 0.0699341526
-0.0422791374 -0.0407962442 0.0685307328
-0.0404746969 -0.0384898136 0.0670825772
-0.0536981978 -0.0552326510 0.0818249949
-0.0460029041 -0.0467834752 0.0689588981
-0.0490694518 -0.0533602648 0.0686796657
-0.0294816685 -0.0446891123 0.0571565737
-0.0366230437 -0.0588176226 0.0766542327
-0.0365032299 -0.0552326477 0.0652870412
-0.0424342097 -0.0657295638 0.0811672521
-0.0380963165 -0.0612068663 0.0877963142
-0.0350493352 -0.0572874620 0.0786056165
-0.0530151060 -0.0639982190 0.0741457530
-0.0258207778 -0.0304170678 0.0535125107
-0.0313734252 -0.0336112601 0.0855548088
-0.0472831400 -0.0510147887 0.0985706023
-0.0444906872 -0.0428301324 0.0897076661
-0.0443291502 -0.0420275040 0.0873581780
-0.0285255940 -0.0409765855 0.0640321280
-0.0262750833 -0.0431356532 0.0636150947
-0.0574932348 -0.0620892151 0.0786018098
-0.0363722004 -0.0455961830 0.0561987992
-0.0495386820 -0.0578007887 0.0688424288
-0.0467104809 -0.0554600668 0.1015243533
-0.0520151539 -0.0572313753 0.0705800181
-0.0339357251 -0.0403657651 0.0524945304
-0.0377345346 -0.0339828759 0.0591680858
-0.0529360557 -0.0535525992 0.0761534962
-0.0555460050 -0.0560269169 0.0824793233
-0.0490152171 -0.0545125551 0.0671383027
-0.0346914567 -0.0295541837 0.0725643267
-0.0416268070 -0.0385386682 0.0834046833
-0.0419519693 -0.0379001800 0.0752167155
-0.0548591910 -0.0539583832 0.0879058420
-0.0408493722 -0.0367835165 0.0676759405
-0.0349135284 -0.0289744953 0.0638636896
-0.0261381831 -0.0336054854 0.0540311530
-0.0265121652 -0.0287172888 0.0736153522
-0.0231910256 -0.0337702604 0.0565390501
-0.0265681082 -0.0241829025 0.0705656836
-0.0338560844 -0.0463802400 0.0922873436
-0.0176206299 -0.0201382592 0.0662286191
0.0055801238 0.0022897684 0.0601451985
0.0094869179 0.0121324811 0.0605458008
0.0107773520 0.0047884888 0.0596917798
0.0059719596 -0.0053413735 0.0605976755
0.0044321783 -0.0240416779 0.0563577449
0.0044323074 -0.0228505673 0.0593596085
0.0054472478 0.0424456382 0.1967915322
0.0014917729 0.0404576822 0.2016985201
0.0032139394 0.0426861126 0.1953370655
0.0015864904 0.0336501772 0.1926785006
0.0108904087 0.0388100358 0.1850269547
0.0019522129 0.0404474261 0.1849516246
0.0006337067 0.0357131216 0.1855468654
0.0081590854 0.0412187761 0.1814886900
0.0069914690 0.0406919480 0.1699124629
0.0068074854 0.0312837169 0.1870514856
0.0042777512 0.0369399554 0.1638509266
0.0069792490 0.0351034228 0.1708962543
-0.0012919698 0.0375985054 0.1685919012
0.0020256518 0.0314818958 0.1674736838
0.0022574994 0.0084461461 0.1724472522
-0.0057382575 0.0137364000 0.1442759147
0.0059664053 0.0075364894 0.1348510403
0.0034204037 0.0164855596 0.1311179701
0.0092925953 0.0189544430 0.1675424607
0.0016119780 0.0200228048 0.1571821779
0.0029669996 0.0065523414 0.1619596360
-0.0062275979 0.0127268665 0.1567401430
-0.0036030628 0.0071666995 0.1556181253
0.0103795981 0.0094945132 0.1399199497
0.0001537346 0.0195070172 0.1469667120
-0.0058218749 0.0188183229 0.1465235050
0.0041714073 0.0177654678 0.1333081239
0.0094233623 0.0099252672 0.1351384290
0.0100909281 0.0093017215 0.1378106919
-0.0056056265 0.0054684932 0.1378037865
0.0045235512 0.0178422853 0.1343157037
-0.0037938676 0.0194798180 0.1448904470
0.0012036360 0.0103605997 0.1717663877
-0.0008320241 0.0078154955 0.1697012938
0.0080877244 0.0076238856 0.1571035321
0.0091273341 0.0079687040 0.1595324839
0.0118599470 0.0140942992 0.1688721505
-0.0010641781 0.0122085256 0.1676147596
0.0032919131 0.0059804090 0.1467169413
0.0063873307 0.0157086395 0.1383284917
0.0095673145 0.0133919111 0.1578783922
0.0086799958 0.0103818818 0.1527427086
0.0084036132 0.0132642428 0.1616816348
-0.0016865817 0.0307116151 0.1719170360
0.0009822526 0.0263721353 0.1386493920
0.0009647854 0.0259731732 0.1301081195
0.0030680973 0.0354225500 0.1327634341
-0.0044666867 0.0358934392 0.1384832281
0.0017981613 0.0403872961 0.1576079577
-0.0056189099 0.0298866779 0.1557569451
-0.0051811930 0.0306097353 0.1577811327
-0.0039376744 0.0265301833 0.1508555883
0.0111276826 0.0301131422 0.1393027471
-0.0066126576 0.0361145299 0.1531917456
0.0083785187 0.0327123077 0.1347028915
0.0080901738 0.0348645378 0.1311381682
-0.0069596474 0.0376450493 0.1358844591
-0.0071431523 0.0255538847 0.1402924411
-0.0038920286 0.0242633744 0.1360686568
-0.0002742319 0.0382942353 0.1369016297
-0.0007897819 0.0375978998 0.1662283092
0.0024056734 0.0409989591 0.1667447552
0.0063247620 0.0397883388 0.1556540338
0.0078444586 0.0268741028 0.1460274676
0.0109742470 0.0310172657 0.1425428888
0.0100284944 0.0371805064 0.1527082152
-0.0037576850 0.0376363406 0.1597368462
0.0019679779 0.0259119380 0.1296949484
0.0037245159 0.0353461450 0.1349874760
0.0089754556 0.0356625628 0.1561695774
0.0073833825 0.0309223551 0.1453659172
0.0043696604 0.0338150226 0.1483311948
0.0058314477 0.0212430154 0.0580626678
-0.0014556857 -0.0218206590 0.1716385954
-0.0073915373 -0.0260168329 0.1451051079
0.0081299670 -0.0236782182 0.1371076324
-0.0066340701 -0.0306410991 0.1412244700
0.0054791048 -0.0218565262 0.1358332638
0.0050818034 -0.0333510826 0.1572459520
0.0032959398 -0.0201783371 0.1573003992
0.0000038961 -0.0333825429 0.1648943553
-0.0040162848 -0.0327463821 0.1535141284
0.0014601684 -0.0335865306 0.1535673560
-0.0014258082 -0.0195875125 0.1458707886
-0.0063476497 -0.0223518978 0.1540643682
0.0073448342 -0.0267599398 0.1339891023
-0.0024584019 -0.0313302832 0.1313226980
-0.0084149787 -0.0202820895 0.1377744932
-0.0070048679 -0.0325477405 0.1369738569
-0.0047044303 -0.0331006323 0.1378641882
-0.0040767852 -0.0193932893 0.1372496869
-0.0018798302 -0.0249571102 0.1666407841
-0.0037193107 -0.0273706516 0.1645620746
0.0065229497 -0.0326492169 0.1527972920
0.0097528479 -0.0306094545 0.1499432205
0.0112475846 -0.0254438618 0.1550953255
0.0018716739 -0.0298936623 0.1683803217
0.0083908164 -0.0214175662 0.1460096440
0.0075153012 -0.0228427768 0.1377620192
0.0084556375 -0.0298029204 0.1611622692
0.0076168556 -0.0258023700 0.1467643301
0.0040228691 -0.0253698653 0.1527556403
0.0010739457 0.0118774719 0.2038399427
0.0036224659 0.0113737219 0.2093584765
0.0041816832 0.0161560869 0.2154363248
0.0084914836 0.0177702128 0.2073075764
0.0020204666 0.0196670010 0.1980234782
-0.0005711963 0.0155208267 0.1873975119
0.0025019154 0.0104828894 0.1895970815
0.0035055402 0.0196888558 0.1900195269
0.0073469125 0.0186542798 0.1715662027
0.0016528128 0.0107530052 0.1679212465
0.0098303111 0.0112907922 0.1948761345
0.0066561988 0.0087774084 0.1814233484
0.0068289089 0.0157975895 0.1688343814
0.0080535959 0.0194606157 0.1785613894
0.0062118175 0.0201057661 0.1820064641
0.0039611665 0.0127097258 0.1726512606
-0.0125536912 -0.0006640818 0.1265259556
-0.0121080593 -0.0099544132 0.1272995631
-0.0104500620 -0.0369000673 0.1040155622
-0.0092686276 0.0408804838 0.1156538203
-0.0118397761 -0.0327699753 0.0999538825
-0.0093602608 0.0383794114 0.0603447151
-0.0133797984 -0.0231706076 0.0955774144
-0.0205519907 -0.0088421868 0.0830811809
-0.0204123393 0.0269180690 0.0681688457
-0.0145571835 0.0324784052 0.0865102457
-0.0187239081 0.0263395510 0.0802374313
-0.0183820950 0.0312465627 0.0639140471
-0.0183659266 0.0318534705 0.0739551072
-0.0165787059 0.0331411733 0.0597485104
-0.0188322400 0.0022256972 0.0815776812
-0.0214056319 0.0042174668 0.0692410888
-0.0214139679 0.0036569507 0.0692502650
-0.0110126234 0.0351285692 0.0967761741
-0.0112862483 0.0319854205 0.1006568171
-0.0114700205 0.0325801060 0.0972473658
-0.0210920160 0.0211084459 0.0659537937
-0.0212646561 0.0137162394 0.0649882309
-0.0206319639 0.0021760813 0.0767927144
-0.0120393818 -0.0237937860 0.0970178978
-0.0139537510 -0.0066571843 0.0913530828
-0.0118369790 0.0112065022 0.1121361230
-0.0123519621 0.0130643771 0.0995810353
-0.0128893449 0.0071852671 0.0962890241
-0.0128740807 -0.0080337389 0.0960146868
-0.0137976979 0.0101310565 0.0921843708
-0.0144030915 0.0112605977 0.0904994970
-0.0116468889 -0.0243320761 0.1042180467
-0.0112275303 0.0256576896 0.1133831868
-0.0116787726 0.0209170599 0.1084730457
-0.0118931008 -0.0039265036 0.1106529516
-0.0116730365 -0.0162516484 0.1116967050
-0.0101487562 -0.0242535274 0.1251871784
-0.0110877914 -0.0080248463 0.1211386352
-0.0108392485 -0.0191950986 0.1212323415
-0.0114584838 0.0034631629 0.1184815494
-0.0103912444 0.0151225736 0.1260200047
-0.0110682664 0.0196314823 0.1183747316
-0.0114868003 -0.0277175546 0.1039424406
-0.0173210740 -0.0082141835 0.0848021648
-0.0224247473 -0.0050790283 0.0584201900
-0.0100538836 -0.0283112247 0.1244110953
-0.0105010211 -0.0323576668 0.1028676354
-0.0074246983 0.0402564287 0.1208981500
-0.0105971639 0.0248881206 0.1203248666
-0.0096390772 0.0371228852 0.1037638686
-0.0143393671 0.0381799696 0.0816303134
-0.0186899910 0.0344328003 0.0766075767
-0.0196550353 0.0299021691 0.0823002272
-0.0142412649 0.0372234142 0.0611622919
-0.0229800009 0.0201839885 0.0640007894
-0.0216995282 -0.0032331425 0.0805049556
-0.0140479314 0.0271536385 0.0985381363
-0.0136314649 0.0370569770 0.0912943324
-0.0141267761 0.0330649382 0.0942426140
-0.0226968553 0.0127836525 0.0743988370
-0.0215120306 0.0081383396 0.0800453167
-0.0232087794 0.0143902344 0.0660005820
-0.0223263437 0.0096111781 0.0560134490
-0.0232260398 0.0082140723 0.0717466956
-0.0201229075 -0.0062535435 0.0838398099
-0.0147905545 -0.0029136243 0.0958985239
-0.0144908259 -0.0084550519 0.0992465969
-0.0204597558 0.0049652399 0.0826188574
-0.0180936824 -0.0029968129 0.0868741787
-0.0163101334 0.0127437575 0.0898771140
-0.0137026568 -0.0276542938 0.0985055239
-0.0138877009 -0.0145328695 0.1073840420
-0.0138936220 -0.0162187990 0.1050550156
-0.0137448428 0.0188615963 0.1069848807
-0.0139824594 0.0105442082 0.1078397044
-0.0142399996 0.0036352979 0.1031111255
-0.0139445788 0.0001553417 0.1121916744
-0.0131436119 -0.0263660341 0.1139245378
-0.0131291455 0.0269814437 0.1123788818
-0.0137164597 -0.0076860839 0.1150908675
-0.0125878534 0.0208912150 0.1232646780
-0.0127873881 0.0149068170 0.1235725504
-0.0133539165 0.0002273974 0.1201458650
-0.0121654029 -0.0280293117 0.1237178859
-0.0238351151 -0.0003616675 0.0704167531
-0.0130934191 -0.0307680159 0.1037733533
-0.0132143897 -0.0296522630 0.1070688281
-0.0123561379 0.0323296638 0.1185431902
-0.0174730725 -0.0120423811 0.0873515453
0.0042046233 0.0218066212 0.0555619083
0.0063100876 0.0182840704 0.0600867302
0.0100615830 0.0220005124 0.0563876720
0.0046596306 0.0211991785 0.0557823722
0.0043510099 -0.0262423920 0.0106357244
-0.0187280853 -0.0086857895 0.0270761291
0.0261703805 0.0039040934 0.0306375595
0.0232175407 -0.0059050684 0.0262954031
0.0253444278 0.0000065829 0.0054609247
0.0026302038 0.0255598176 0.0039813462
-0.0080285545 -0.0244646966 0.0039342724
-0.0231687969 -0.0113244040 0.0084430851
-0.0247273761 0.0082166399 0.0087570304
-0.0088516572 0.0241615006 0.0078331425
0.0152177283 0.0207229489 0.0069269926
0.0231644445 0.0110017015 0.0043444402
0.0199391833 -0.0161164047 0.0070358192
0.0061773100 -0.0250838213 0.0039702211
0.0193011045 -0.0010026657 0.0086668408
0.0006123397 -0.0208393916 0.0063126318
0.0192166187 0.0045793689 0.0239638634
-0.0000140045 -0.0184598246 0.0037923216
0.0046157452 0.0183144167 0.0072549806
0.0138014556 0.0126709799 0.0109896783
0.0188563697 0.0018770406 0.0083005032
0.0157845028 -0.0099561376 0.0030141118
0.0099195183 -0.0159643416 0.0124215170
-0.0052566384 -0.0180629038 0.0062458616
-0.0149792198 -0.0114468427 0.0107915430
-0.0180845234 0.0056005975 0.0114840542
-0.0138131181 0.0127749913 0.0133161893
-0.0047914448 0.0182624216 0.0090706420
0.0197198390 0.0037564648 0.0219738726
-0.0213940175 -0.0165805674 0.0123597040
-0.0170003669 -0.0209894113 0.0217406515
0.0036290527 -0.0269782574 0.0192062379
0.0148734325 -0.0226525311 0.0155336482
0.0061884842 -0.0266223649 0.0142940537
0.0251064067 -0.0104852645 0.0192037563
0.0267866014 0.0038485827 0.0111550694
0.0219182495 0.0160327194 0.0115733062
0.0124463939 0.0240455963 0.0145551105
0.0002352628 0.0273340639 0.0133354247
-0.0071963563 0.0262376568 0.0134718632
-0.0172942037 0.0209428178 0.0171160475
-0.0239838352 0.0129251303 0.0145408170
-0.0270168233 0.0036064417 0.0160299236
-0.0264907958 -0.0056109221 0.0192868793
0.0139470871 -0.0079670689 0.0255021169
0.0172301969 -0.0082024716 0.0291150946
0.0149992435 0.0079351277 0.0245043064
-0.0147017271 0.0080147930 0.0215133552
-0.0167089093 -0.0022945176 0.0228786270
0.0116580245 0.0123215927 0.0291032917
0.0069777145 0.0153625847 0.0317388568
0.0032803511 0.0164163339 0.0199989290
-0.0030336873 0.0165887351 0.0275112641
-0.0080658242 0.0146568393 0.0187825859
-0.0106462634 0.0131343134 0.0267051094
-0.0092606039 -0.0141830978 0.0358916403
-0.0053003083 -0.0159938319 0.0314835660
-0.0023701282 -0.0165343726 0.0387989086
0.0054592755 -0.0158035540 0.0381474387
0.0086883109 -0.0143662504 0.0402222756
0.0075439449 -0.0134659147 0.0473778014
-0.0061938574 -0.0139674467 0.0415169674
0.0000742633 0.0154829871 0.0462592798
0.0076601520 0.0133717305 0.0470644611
-0.0009784110 0.0317320328 0.1386983960
-0.0005037348 0.0159849908 0.1410750527
-0.0010089428 -0.0256750518 0.1384287335
0.0082202014 -0.0034135059 0.0577822895
-0.0122343388 0.0319817784 0.0577697359
-0.0040520549 0.0206329768 0.0551190428
-0.0109264031 0.0209205806 0.0551000014
-0.0001394218 -0.0318293950 0.0562283306
0.0110846413 -0.0126718461 0.0560300989
0.0109543213 0.0059593178 0.0557949426
-0.0015518281 0.0135207850 0.1277808216
0.0130521006 -0.0197226426 0.0626884890
0.0130385711 -0.0102385700 0.0627693167
0.0130385655 0.0107160674 0.0708402339
0.0130385621 0.0227288127 0.0668534854
0.0130385616 0.0255639714 0.0666617548
0.0062313948 -0.0252893925 0.0586181239
0.0024123500 -0.0268049846 0.1279073278
0.0063371501 -0.0112155695 0.0595615997
0.0007428208 0.0128264478 0.0583779313
0.0106813807 0.0053303051 0.0583938712
0.0076257003 0.0202485369 0.0581279300
0.0096560193 0.0280567194 0.0574360981
0.0047930321 -0.0113415463 0.1285578482
-0.0019599990 -0.0254416645 0.1293514188
0.0045399964 0.0154311800 0.1362374160
0.0045399946 0.0342425038 0.1303746198
-0.0090776299 -0.0007236559 0.0904745325
-0.0120944773 0.0333762087 0.0702488403
-0.0098743260 0.0320763207 0.0976686726
-0.0094213235 0.0331692304 0.1021296440
-0.0095934637 -0.0301372450 0.1068688102
-0.0090629358 -0.0197845703 0.0761897914
-0.0108892943 0.0325965569 0.0819599002
-0.0055314740 0.0074628698 0.1283170355
-0.0094858437 0.0052566511 0.1045335909
-0.0094759356 -0.0031345619 0.1034077773
-0.0094827187 0.0026100617 0.1015651219
-0.0095071586 0.0233084570 0.1142446005
-0.0094790699 -0.0004801000 0.1094588107
-0.0094775028 0.0248045138 0.1062358449
-0.0094619236 0.0268640080 0.1037617852
-0.0094600036 0.0175860867 0.0997130588
-0.0094600026 0.0064152594 0.0926343272
-0.0094600037 0.0184858709 0.0952297455
0.0004723885 -0.0189818070 0.0579006883
0.0062811424 -0.0029467212 0.0580034127
-0.0205018804 -0.0209250526 0.0566527680
-0.0040520662 0.0238450974 0.1273094683
0.0109497500 0.0089393718 0.0577970974
0.0072253447 -0.0109283073 0.0574289165
-0.0100187936 -0.0251314270 0.0555579252
-0.0050425324 0.0182996619 0.0570234086
-0.0059029150 -0.0123093701 0.0573598745
0.0105914753 0.0052560752 0.0567547869
-0.0023896039 -0.0109500028 0.1379046609
-0.0016669929 -0.0029255793 0.1335619603
0.0003775783 -0.0132936756 0.1288535235
-0.0017693097 -0.0038535911 0.1442764933
-0.0060985550 -0.0049425613 0.1335710281
0.0027484040 -0.0301124093 0.1351144411
-0.0066797469 -0.0302002473 0.1376298098
0.0003018382 -0.0221116411 0.1352723447
-0.0013140472 -0.0225098814 0.1291742087
0.0017837840 -0.0256142395 0.1428274352
-0.0012957373 -0.0280555809 0.1301684683
-0.0017121262 0.0084892690 0.1437146802
-0.0041400752 0.0160231900 0.1346118840
-0.0018063517 0.0164368621 0.1288049896
-0.0068006161 0.0131546908 0.1390861181
-0.0071419501 0.0092343765 0.1344205660
0.0024092206 0.0296437587 0.1287253238
-0.0070848085 0.0312818832 0.1329136623
-0.0067973568 0.0352883681 0.1368756687
-0.0031249717 0.0349548453 0.1331174632
-0.0019336197 0.0275833920 0.1395169320
-0.0057269695 -0.0346434983 0.1292845673
-0.0185254523 0.0282962926 0.0670258942
-0.0164814558 0.0306383165 0.0616087654
-0.0204006087 -0.0087815527 0.0744300248
-0.0109968794 -0.0286208647 0.0851830488
-0.0108838320 -0.0307326369 0.0842634118
-0.0099316018 0.0201759065 0.1138729619
-0.0102601068 0.0065807606 0.1117504517
-0.0102956250 -0.0120014607 0.1080676058
-0.0101546070 -0.0188200336 0.1097085322
-0.0104253345 0.0012557958 0.1077846035
-0.0056367859 0.0131877957 0.0554151269
-0.0219851664 -0.0005647496 0.0635540888
-0.0220056774 -0.0057251220 0.0571015157
-0.0140486692 -0.0233977497 0.0910340075
-0.0174032143 -0.0011848576 0.0809690481
-0.0106882880 -0.0157020967 0.1004323527
-0.0154669833 -0.0047448989 0.0844753946
-0.0153402502 0.0152164237 0.0846439033
-0.0118048693 0.0037005745 0.0940146765
-0.0102252824 0.0247655724 0.1009493589
-0.0104930910 0.0129010032 0.1057353489
-0.0117328660 0.0238304320 0.0919979718
-0.0108754239 0.0109902543 0.0988464451
-0.0045989429 0.0400763885 0.1295194507
-0.0069426997 -0.0042949797 0.1289958070
-0.0091374154 0.0178844686 0.1282842948
-0.0063971880 -0.0235407082 0.1285549937
-0.0212818091 0.0088061145 0.0642610845
-0.0198097046 0.0119972645 0.0529922854
-0.0211751896 0.0156517283 0.0667028176
-0.0045289633 0.0361648235 0.0562738951
-0.0157683223 0.0325894065 0.0575509427
-0.0209741741 0.0202813109 0.0619054834
-0.0053867408 -0.0354894069 0.0604136600
0.0026254099 -0.0352380830 0.0590059227
-0.0182112224 -0.0086446684 0.0836566053
-0.0163494924 -0.0102726170 0.0867257892
-0.0193522539 0.0040972703 0.0804455065
-0.0218550173 -0.0006938939 0.0705535195
-0.0162418762 0.0041015365 0.0862646591
-0.0144244492 0.0116561735 0.0904060499
-0.0118999127 0.0238048184 0.0992038050
-0.0118111655 0.0258406609 0.0994862810
-0.0112479313 0.0255539533 0.1125961642
-0.0132894570 0.0076892753 0.0939105648
-0.0130252592 0.0091009776 0.0953664155
-0.0124107919 -0.0080780752 0.0989823839
0.0046582613 0.0405040253 0.1303481665
-0.0120630274 -0.0114530930 0.1079324332
-0.0102188870 0.0143205739 0.1280239491
-0.0103130821 0.0010417558 0.1291508598
-0.0101849897 -0.0301630035 0.1209038812
-0.0122260741 -0.0079218848 0.1035498582
-0.0121031798 0.0052769701 0.1086908709
-0.0114179081 0.0154029016 0.1158674301
-0.0113630909 0.0095925454 0.1187790192
-0.0117451871 -0.0066171078 0.1143617690
-0.0110131031 -0.0132021682 0.1217912188
-0.0107318040 -0.0216087658 0.1207623715
-0.0032351993 0.0425728479 0.1245797850
-0.0090049667 0.0381430643 0.1121497830
-0.0064900033 0.0409888209 0.1052139244
-0.0096620443 0.0381280521 0.0930395933
-0.0085176474 0.0374472093 0.1239826272
-0.0167635508 0.0278816487 0.0847546285
-0.0137453207 0.0315294949 0.0895247291
-0.0036328431 0.0412098431 0.0968508882
-0.0171579550 0.0335087363 0.0676986338
-0.0184782418 0.0249852477 0.0816759300
-0.0148889380 0.0355016312 0.0790843709
-0.0198601114 0.0226412885 0.0778192944
-0.0099289349 0.0386465390 0.0806591012
0.0055739924 0.0421169845 0.1272419175
-0.0108532536 -0.0318282614 0.1007678952
-0.0112503994 -0.0297447180 0.0991227535
-0.0100242148 -0.0324718060 0.1198938725
-0.0111493779 -0.0264222828 0.1132636144
0.0015659494 -0.0383976331 0.1277656161
-0.0021887926 0.0402744523 0.0852745373
0.0022653556 0.0390067361 0.0736340963
-0.0019354285 -0.0380378094 0.1060772049
0.0029138225 -0.0385247535 0.1196368729
0.0011823514 -0.0379677139 0.0972188664
-0.0199597413 0.0032606092 0.0656060847
-0.0198224699 0.0065739295 0.0700583857
-0.0191343696 0.0238562534 0.0702414942
-0.0198119843 0.0042147378 0.0717568656
-0.0197390168 0.0025135381 0.0601857664
-0.0101569787 -0.0251255785 0.1015842811
-0.0211808392 -0.0116263599 0.0769773694
-0.0227188232 -0.0127979424 0.0624062831
-0.0089614198 -0.0309479328 0.0596886280
-0.0089614405 0.0314673920 0.0654632122
-0.0089614270 -0.0160578287 0.0810444200
-0.0089614351 0.0133464681 0.0762434156
-0.0089614312 -0.0006267156 0.0794825938
-0.0089614400 0.0297746061 0.0747310174
-0.0089614279 -0.0121765711 0.0880024964
-0.0089614376 0.0216772326 0.0826923197
-0.0089614356 0.0138298234 0.0897335631
-0.0089614359 0.0152820101 0.0877152192
-0.0089614398 0.0304059942 0.0590572705
-0.0089614373 0.0208293699 0.0693790164
-0.0089614246 -0.0242364540 0.0940693991
-0.0089614244 -0.0255775813 0.0994484662
-0.0089614083 -0.0250752839 0.0906120636
-0.0089614390 0.0270244690 0.0637402145
-0.0089614375 0.0216601701 0.0669607407
-0.0089614298 -0.0060921656 0.0695183877
-0.0089614283 -0.0042117075 0.0626715920
-0.0089614152 -0.0352853182 0.0630803200
-0.0079453967 0.0053420473 0.0571000017
-0.0086687633 -0.0018197024 0.0571000017
-0.0155002460 0.0171023849 0.0573142094
-0.0119750381 0.0199385533 0.0570999989
-0.0182409684 -0.0115498710 0.0638008795
-0.0212285318 -0.0075880880 0.0600442756
-0.0157185803 -0.0172529809 0.0780602774
-0.0175935818 -0.0164179183 0.0832953524
-0.0134265965 -0.0129998359 0.0809195261
-0.0152889740 0.0280273759 0.0701426317
0.0017193602 0.0313506471 0.1257150752
-0.0081901883 -0.0240645673 0.0587265083
-0.0052777313 -0.0087142701 0.0594439049
-0.0095451755 0.0281843226 0.0727626138
-0.0194969533 -0.0174175143 0.0701838246
-0.0183442868 -0.0239331223 0.0703435858
0.0072121322 -0.0056434034 0.1277810186
0.0080629005 -0.0305451194 0.1309323576
0.0135686814 0.0196119564 0.0584797346
0.0143321611 0.0076712433 0.0712429732
0.0103130425 -0.0095140579 0.1347248333
0.0124772876 0.0026667574 0.0554170162
0.0120385763 -0.0270424702 0.1329527121
0.0120385636 0.0155387084 0.1307805645
0.0120385596 0.0304313931 0.1313463301
0.0135025865 0.0220714539 0.0643152520
0.0123013479 0.0303775085 0.1354736638
0.0150953465 0.0307402051 0.1283197235
0.0148536479 0.0202432554 0.1287985572
0.0153700088 0.0139847972 0.1304252542
0.0161994857 0.0072176911 0.1257889177
0.0159769800 -0.0123128926 0.1238699523
0.0157684784 -0.0049883323 0.1285880997
0.0162927499 -0.0075210023 0.1258808457
0.0167736147 -0.0100773319 0.1115556040
0.0122834575 -0.0216362542 0.1364715892
0.0145161816 -0.0289135670 0.1200088483
0.0151942977 -0.0282095547 0.1099525713
0.0048569953 -0.0364261394 0.0700784813
0.0031067343 -0.0365360222 0.0673481380
0.0119266374 -0.0331443993 0.1324898848
0.0072742318 0.0419480789 0.1256375840
0.0092164154 0.0407823078 0.1234128316
0.0024691351 0.0421208005 0.1126847651
0.0166307055 -0.0091615157 0.0708845576
0.0168075240 0.0054619883 0.0708520860
0.0154413907 0.0212100269 0.0649047067
0.0158182612 0.0056800257 0.0567570692
0.0156006947 -0.0158891235 0.0573957089
0.0158191623 -0.0253076601 0.0911881982
0.0160209499 -0.0193022700 0.1118978153
0.0161870010 -0.0154030027 0.1154807764
0.0161540248 0.0177680692 0.1163549544
0.0162436096 0.0235464279 0.0910910572
0.0156369363 0.0245428319 0.1152688018
0.0165193681 0.0183162883 0.1099778872
0.0174357932 0.0092667185 0.0919425787
0.0174512963 0.0052228231 0.0854071820
0.0167512134 0.0185837930 0.1021777042
0.0158661498 0.0237199441 0.1113388579
0.0171077390 -0.0021169940 0.0751980288
0.0170477522 -0.0104652047 0.1055042745
0.0170609417 -0.0116193586 0.0971432701
0.0168526122 -0.0119908013 0.0772399339
0.0162529707 -0.0178472935 0.0745358173
0.0161842934 -0.0206959309 0.0828789024
0.0171726832 0.0001604809 0.1087722958
0.0166412179 0.0170801041 0.0832635432
0.0163694091 0.0216479780 0.0870821077
0.0157921611 0.0244847609 0.0786069211
0.0175055135 0.0034903953 0.1022816168
0.0114405418 -0.0319570210 0.0620495698
0.0142856746 0.0193264361 0.0546655314
0.0126326805 0.0254689147 0.0518603622
0.0118815381 0.0304920327 0.0594449394
0.0098351565 0.0226069635 0.1337494451
0.0108489044 0.0075073456 0.1363521658
0.0066924540 -0.0197974628 0.1311208521
0.0067063293 -0.0157393464 0.1330124680
0.0130803828 -0.0139479344 0.0648355639
0.0148162922 -0.0101963002 0.0635096800
0.0143562670 0.0141588084 0.0613511864
0.0150414014 0.0100803381 0.0683365336
0.0140099660 -0.0211984543 0.0629191285
0.0131614644 -0.0275918627 0.0679293032
0.0114945038 -0.0024479317 0.1332229369
0.0074415727 -0.0116399719 0.1283591479
0.0143458816 -0.0289909096 0.0716462546
0.0044380665 -0.0379688872 0.1021369412
0.0113662422 -0.0348314304 0.0915140409
0.0121117722 -0.0319853735 0.0655158013
0.0125382727 -0.0338859759 0.1169713702
0.0087314039 -0.0370292854 0.1255696998
0.0087158869 -0.0370130576 0.1134570363
0.0154421949 -0.0237311296 0.0699954038
0.0131250863 -0.0329055434 0.0931762005
0.0154135036 0.0288112180 0.0880804533
0.0148158407 0.0245770246 0.0647222286
0.0086911411 0.0365533100 0.0723014751
0.0140963882 0.0332691382 0.1060868481
0.0004323334 0.0412818947 0.1007352583
0.0007466147 0.0419561073 0.1095201081
0.0044734319 0.0395441744 0.0828192424
0.0093334744 0.0388204556 0.1008201707
0.0119744424 0.0355949137 0.0906700893
0.0112973722 0.0343806866 0.0750547153
0.0151917830 0.0033819075 0.0324400407
0.0142622117 -0.0059080833 0.0260011279
0.0089289213 -0.0184673559 0.0458561084
-0.0088741229 -0.0294938810 0.0538615936
-0.0100493347 0.0289486318 0.0538449585
-0.0171930258 -0.0171979275 0.0544879189
-0.0179503994 0.0281752889 0.0529031702
0.0153942895 -0.0132001540 0.0530947963
0.0150179079 0.0102723423 0.0518292119
0.0151670365 -0.0206559205 0.0571411876
0.0058086742 -0.0325265494 0.0533339200
-0.0172843336 -0.0102857690 0.0519244860
-0.0084867696 -0.0193441271 0.0448921401
0.0092639428 -0.0144818164 0.0443742147
-0.0056091081 -0.0196324091 0.0515041983
0.0083834981 0.0244607841 0.0519375214
0.0044078562 0.0188331800 0.0513393524
-0.0157009466 -0.0235438505 0.0543555239
-0.0212279186 -0.0115781021 0.0541392296
-0.0176826522 0.0132679475 0.0476476154
-0.0138713275 0.0264871890 0.0450311633
-0.0181884992 0.0239093512 0.0496797007
0.0127071292 0.0217866289 0.0483604288
0.0145138537 -0.0202776083 0.0507085771
-0.0009645361 -0.0335580162 0.0532860587
0.0035637346 0.0153962787 0.0407969320
-0.0162402970 0.0012115177 0.0410388856
0.0069761833 -0.0197794981 0.0422250332
-0.0057907436 -0.0251760781 0.0472079451
0.0073795073 0.0235522856 0.0493582294
-0.0100340036 0.0188530850 0.0369146672
0.0058472504 0.0200394811 0.0391815430
0.0010908857 0.0200547412 0.0297806878
-0.0063113758 0.0199947827 0.0315328004
-0.0053757451 0.0180648060 0.0500999987
-0.0146233022 -0.0148599643 0.0394304295
-0.0180864105 -0.0020900659 0.0411143380
-0.0224273905 0.0127749440 0.0260485988
-0.0175401132 0.0178465755 0.0331042396
-0.0200732756 0.0052871235 0.0360496826
-0.0231548863 0.0037395726 0.0301103391
-0.0199895870 -0.0051888629 0.0342797969
-0.0182541428 0.0067237776 0.0417060262
-0.0020452394 0.0282241666 0.0436245266
-0.0139485240 0.0231241339 0.0406814987
-0.0054460409 0.0266343210 0.0246420532
-0.0037328530 0.0266008516 0.0251441500
0.0022721282 0.0267261315 0.0269044983
0.0094973308 0.0246391387 0.0309171235
0.0105721257 0.0239059769 0.0382033336
0.0201820705 0.0137996351 0.0295069591
0.0147547904 -0.0132893331 0.0434108952
0.0170988673 0.0117575224 0.0381329493
0.0157255590 -0.0039390494 0.0452865054
0.0139830232 0.0179534906 0.0416943810
0.0079897219 -0.0259230306 0.0229243234
0.0130884788 -0.0196172812 0.0395829387
0.0056752975 -0.0242894893 0.0388267490
-0.0016756479 -0.0265280673 0.0442672598
-0.0084875020 -0.0304756486 0.0512081512
-0.0112998546 -0.0172915011 0.0278552396
0.0062398271 -0.0198374814 0.0351594660
-0.0073102613 -0.0199745826 0.0313163794
0.0091495888 -0.0195054313 0.0384902379
0.0108105709 0.0174419826 0.0302545086
0.0094631553 0.0192699729 0.0388333954
0.0106921458 0.0170611544 0.0354235826
-0.0208569145 -0.0135731096 0.0267002342
-0.0263214301 -0.0049464650 0.0216591455
0.0173386776 0.0202452737 0.0247320511
0.0191586514 -0.0002302613 0.0364498995
0.0123318694 -0.0225280571 0.0305023416
0.0014886630 -0.0251998144 0.0334821075
-0.0022287340 -0.0270267266 0.0223307946
0.0112864699 -0.0136891028 0.0379163770
-0.0271359431 -0.0000250480 0.0207685048
0.0224661652 -0.0041839982 0.0197150337
0.0199465862 -0.0033210589 0.0200666382
0.0192050977 0.0058831405 0.0343829623
-0.0099942870 -0.0247113818 0.0241624636
0.0070402817 -0.0155122565 0.0175000001
-0.0136391283 -0.0103695483 0.0175000001
-0.0192005097 0.0051458088 0.0175000001
-0.0042558532 0.0176347906 0.0175000001
0.0142487431 0.0124053164 0.0175000001
0.0160000008 0.0125620159 0.0208775407
0.0073648690 0.0144914684 0.0140000014
0.0181536004 0.0038748951 0.0140000014
-0.0001049825 -0.0034645086 0.0140000014
-0.0130132454 -0.0030097842 0.0140000014
0.0002638491 -0.0099256289 0.0140000014
-0.0145564220 -0.0040581149 0.0140000014
0.0063031026 -0.0041232540 0.0140000014
0.0091384188 0.0040044034 0.0140000014
0.0033768255 -0.0135405454 0.0140000014
0.0123538236 -0.0112240898 0.0140000014
-0.0106145291 -0.0188744065 0.0269974364
-0.0211760664 0.0068368064 0.0209149194
-0.0168510606 0.0142986711 0.0189995092
-0.0035000943 0.0219674452 0.0221521390
0.0111166458 0.0195169743 0.0187186634
0.0133631905 -0.0176273620 0.0194253324
-0.0024067404 -0.0222354925 0.0261321260
-0.0124768301 -0.0182713152 0.0185424899
-0.0203938791 -0.0085157723 0.0221741463
-0.0197624919 -0.0186489981 0.0155329155
0.0172385667 -0.0062422064 0.0306704079
-0.0169084545 0.0105136545 0.0273966937
-0.0037900774 0.0268320421 0.0109919488
0.0069763868 0.0259675793 0.0105943668
-0.0227434710 -0.0044498858 0.0030000014
-0.0168442567 0.0109108332 0.0030000014
-0.0057832115 0.0233132918 0.0030000014
0.0092178089 0.0189158635 0.0030000014
-0.0003326450 -0.0193476826 0.0030000014
-0.0094381689 -0.0233491326 0.0030000014
0.0189267202 0.0065894328 0.0030000014
0.0246671879 -0.0058878346 0.0030000014
0.0192385669 0.0044565865 0.0284725366
0.0262385658 0.0033861049 0.0257096550
0.0060623091 -0.0102162619 0.0545611242
0.0078477475 -0.0209032689 0.0551363743
-0.0089327281 0.0310072707 0.0552732890
-0.0071622524 -0.0111634166 0.0551000014
-0.0019188900 -0.0350737407 0.0759047096
0.0132888992 0.0317713549 0.1183446917
0.0130535418 0.0241047832 0.1238334356
0.0149220387 0.0209662964 0.0989424419
0.0143269586 0.0251643651 0.1065175609
0.0130385613 0.0262099755 0.1009935447
0.0130385614 0.0261487263 0.1096052775
0.0130385693 -0.0009267476 0.0768376860
0.0130385709 -0.0086288005 0.0806058530
0.0149382252 -0.0124965043 0.0893392116
0.0157656599 -0.0047067262 0.0815640907
0.0156221976 -0.0130971748 0.0882208777
0.0156534429 0.0078161709 0.1081099693
0.0156853206 0.0142454841 0.1003691894
0.0130385655 0.0080143423 0.1075331711
0.0130385638 0.0156093076 0.1009878708
0.0158033644 0.0088663418 0.0923392102
0.0130385655 0.0087560925 0.1219729742
0.0130385654 0.0087049705 0.1159264532
0.0134544064 0.0051682989 0.1132495912
0.0152138797 0.0095296962 0.1159364093
0.0156158063 -0.0133181273 0.0993474636
0.0158521649 -0.0041816691 0.1035278644
0.0130385702 -0.0049925910 0.0926030298
0.0130385714 -0.0114245386 0.1062197988
0.0150689860 -0.0138747708 0.0927421800
0.0136977063 -0.0005567535 0.1102495864
0.0145517612 -0.0114656904 0.1132495925
0.0150289816 -0.0063038481 0.1201298903
0.0130385706 -0.0071336290 0.1217665694
0.0130385706 -0.0074057105 0.1133368156
0.0140922539 -0.0190221600 0.1219452601
0.0131663753 -0.0251413569 0.1226446315
0.0130385749 -0.0190571598 0.1161776794
0.0145516169 -0.0243845077 0.0958814061
0.0132937461 -0.0293026003 0.1094828547
0.0130385740 -0.0192915251 0.0992803325
0.0130385768 -0.0286560222 0.1081841536
0.0136101552 -0.0269864408 0.0807408369
0.0146876534 -0.0198587129 0.0790924473
0.0131767084 -0.0216046951 0.0893196860
0.0130385731 -0.0177654005 0.0764736852
0.0115009353 0.0229972330 0.0171529359
0.0087688809 -0.0235126194 0.0174875498
0.0186095107 0.0174041386 0.0171834949
-0.0226611200 0.0079948738 0.0174610871
-0.0025171246 0.0072877616 0.0524999984
-0.0023514544 -0.0074112330 0.0572191699
-0.0161783637 0.0129297997 0.0551000014
0.0135455096 -0.0123555711 0.0537217484
0.0121445721 0.0150859151 0.0545636203
0.0149989474 0.0183009550 0.0760589148
0.0130385614 0.0267076389 0.0818932553
0.0135709448 0.0283366604 0.0893392116
0.0142758420 0.0245547973 0.0797862275
0.0130385675 0.0060284795 0.0778506830
0.0130385687 0.0026148922 0.0771654819
0.0138844184 0.0135123091 0.0893392116
0.0158403263 0.0044174925 0.0812795041
0.0157747976 0.0089818391 0.0847440148
0.0023235786 -0.0275872285 0.0601335246
0.0042535267 -0.0190960030 0.0577870574
0.0049531880 -0.0272996241 0.0609361968
-0.0057016696 0.0310237340 0.0570091768
-0.0139895217 0.0322074569 0.0714826523
-0.0112750630 0.0319041183 0.0658317166
-0.0158261077 0.0298027246 0.0665104400
-0.0059625994 0.0303385030 0.0658745935
-0.0127175456 0.0322315693 0.0632523562
-0.0073704356 0.0008432916 0.0582854073
-0.0119035012 0.0261342065 0.0636541433
-0.0172897102 0.0106473320 0.0756202697
-0.0179961909 -0.0036784354 0.0671735188
-0.0180508113 -0.0047006080 0.0657570181
-0.0170860135 0.0153454230 0.0729815290
-0.0175487818 0.0065013173 0.0626233918
-0.0174050003 0.0095580454 0.0630803759
-0.0169278911 0.0190464095 0.0704501241
-0.0071131792 -0.0013644671 0.0602677427
-0.0069465161 0.0021925740 0.0606735508
-0.0073437965 -0.0069628811 0.0663455947
-0.0068969550 0.0014765292 0.0785450090
-0.0074474791 -0.0103147967 0.0757596178
-0.0074374070 -0.0104860876 0.0792108738
-0.0070972973 -0.0013615764 0.0637697607
-0.0158868197 -0.0081124199 0.0577774090
-0.0159711965 0.0063605720 0.0577696785
-0.0159075853 0.0135830007 0.0577710756
-0.0103858130 0.0085988062 0.0824940777
-0.0141423183 0.0100696539 0.0824646247
-0.0075069178 0.0226362260 0.0765140928
-0.0064567177 0.0253716071 0.0684252277
-0.0162145526 -0.0104047981 0.0802379411
-0.0171797456 -0.0103601447 0.0753179735
-0.0077678507 0.0257935172 0.0665717769
