-0.0001593676 0.0118108895 0.0691328324
0.0038031113 0.0131408353 0.0675750883
-0.0000286104 0.0192336973 0.0708490014
-0.0038189134 0.0169382818 0.0670219112
-0.0004658099 0.0212108884 0.0718673171
0.0047763346 0.0240046212 0.0641134912
-0.0058421173 0.0215293626 0.0670994133
-0.0033004127 0.0243108887 0.0720146452
0.0062501189 0.0243888872 0.0625078600
-0.0018583757 0.0244568980 0.0743587504
-0.0005765651 0.0247219236 0.0592589758
-0.0071246293 0.0273108892 0.0662032820
0.0021656139 0.0298575922 0.0723948848
0.0013035150 0.0295100619 0.0610373967
0.0063949406 0.0309617582 0.0693602947
-0.0015061143 0.0323108882 0.0725251410
0.0008837553 0.0365363620 0.0621385920
0.0046531316 0.0373941375 0.0655869890
0.0018368271 0.0372617411 0.0714588006
-0.0042100933 0.0377979377 0.0694523205
-0.0037715589 0.0331137128 0.0640529497
0.0000452030 0.0428108908 0.0621227280
-0.0037083271 0.0428108908 0.0696808624
0.0030037152 -0.0263236417 0.0724113146
0.0211403913 0.0132715282 0.0725387259
-0.0011738746 -0.0249582329 0.0635753662
0.0217674734 0.0138926191 0.0608764590
-0.0051979113 0.0274750847 0.0575132020
0.0006452312 0.0275680982 0.0763665783
0.0050490117 0.0275680982 0.0744526119
-0.0090930433 0.0273799622 0.0737181233
0.0218572629 0.0187324367 0.0728340754
0.0206594654 0.0150703719 0.0693437153
-0.0042615907 -0.0281042689 0.0751941179
0.0261154160 0.0104674898 0.0770463758
0.0231261021 0.0104782071 0.0668529513
-0.0070653366 0.0121544965 0.0775000006
-0.0093417395 0.0149223028 0.0775000006
0.0135975116 -0.0070902496 0.0775000006
-0.0000257882 -0.0055778818 0.0775000006
-0.0008976560 -0.0201762933 0.0775000006
-0.0027917332 0.0040682151 0.0775000006
0.0085248592 -0.0093503170 0.0775000006
-0.0007246468 -0.0210508769 0.0775000006
-0.0045388971 0.0120239451 0.0775000006
-0.0114116418 0.0151315947 0.0775000006
-0.0010519390 -0.0128899003 0.0775000006
0.0277719767 0.0051841060 0.0775000006
0.0165300860 -0.0184609329 0.0775000006
0.0230288150 -0.0101671791 0.0775000006
0.0183215760 -0.0174002795 0.0775000006
0.0145231227 -0.0130592341 0.0775000006
0.0139597718 -0.0111458815 0.0775000006
0.0096659119 -0.0247275517 0.0775000006
0.0181689201 0.0134766232 0.0775000006
0.0108390078 0.0135176913 0.0775000006
-0.0004628577 0.0143756337 0.0775000006
0.0103876292 0.0107219095 0.0775000006
0.0064218863 0.0241209579 0.0775000006
0.0121867735 0.0201453142 0.0775000006
-0.0134373043 0.0233146800 0.0775000006
-0.0009673260 0.0258598401 0.0775000006
-0.0237319639 0.0132283715 0.0775000006
-0.0235089395 -0.0074827005 0.0775000006
-0.0192221009 -0.0168379628 0.0775000006
-0.0109372998 0.0086747089 0.0775000006
-0.0043252619 -0.0230144893 0.0775000006
-0.0061461164 -0.0272321927 0.0775000006
-0.0151513005 0.0174630863 0.0775000006
-0.0254295522 -0.0025025199 0.0775000006
-0.0128605105 0.0050603903 0.0775000006
-0.0147912057 -0.0129515366 0.0775000006
-0.0158684867 -0.0005505078 0.0775000006
-0.0137862636 0.0096697371 0.0775000006
0.0192513216 -0.0216247022 0.0597164636
0.0092763964 -0.0274588184 0.0656719155
0.0140897165 -0.0252830491 0.0742707629
0.0276334097 0.0087448661 0.0725318952
0.0057772033 -0.0283611295 0.0671174226
-0.0270027369 0.0104623108 0.0598723984
-0.0275366639 0.0086529586 0.0630549129
-0.0252136485 0.0142353410 0.0591582195
0.0093253168 0.0272799378 0.0579958876
0.0181562205 0.0224919817 0.0574040783
-0.0255169542 0.0136509220 0.0699695910
-0.0239252272 0.0162415726 0.0628067669
-0.0230902509 0.0173947512 0.0701243330
-0.0179124812 0.0226851474 0.0632037804
-0.0151954414 0.0245711605 0.0695064690
-0.0142423784 0.0251925152 0.0612788700
-0.0134594411 0.0256766660 0.0633983436
0.0142615208 0.0251793323 0.0740435980
0.0154871917 0.0243809522 0.0599839399
0.0112919768 0.0266571801 0.0760230155
0.0226195266 -0.0179526294 0.0656932022
0.0238177638 -0.0164408039 0.0661780270
0.0250745407 -0.0142359370 0.0607275777
0.0275275983 -0.0088367890 0.0706202014
0.0277741464 -0.0080516024 0.0723463196
0.0285332826 -0.0046961253 0.0614880336
0.0288941908 0.0011144944 0.0569650918
0.0287704638 0.0017693395 0.0730041556
0.0284269467 0.0055147046 0.0614730715
0.0280167386 0.0072106441 0.0710279380
-0.0287556382 0.0024205047 0.0723060299
-0.0288399638 0.0009849280 0.0643274985
-0.0289405318 -0.0006871885 0.0764932588
-0.0284682054 -0.0043525382 0.0576905560
-0.0275141654 -0.0085402531 0.0764712653
-0.0269416256 -0.0102827336 0.0622471360
-0.0255723549 -0.0135830491 0.0566075110
-0.0222780955 -0.0184627935 0.0701975957
-0.0203605408 -0.0203662233 0.0659173893
-0.0181920455 -0.0224203302 0.0711007946
-0.0152619261 -0.0244140737 0.0577040877
-0.0130509032 -0.0258506385 0.0682617322
-0.0110175977 -0.0267177090 0.0709236766
-0.0073057686 -0.0280233324 0.0647328113
-0.0031809713 0.0306342159 0.0588303699
-0.0081120703 0.0298624076 0.0805476753
0.0005185864 0.0308331218 0.0768823140
0.0048446152 0.0304199159 0.0783982710
0.0219912475 -0.0218091680 0.0771189514
0.0086372989 -0.0298024663 0.0695348177
0.0096831612 -0.0293340349 0.0805917640
0.0209721368 -0.0227879711 0.0599100428
0.0087086152 0.0296600619 0.0803357827
0.0111611688 0.0288543760 0.0601570193
0.0139548688 0.0276266438 0.0790420606
0.0162894838 0.0262416118 0.0693480954
0.0148328188 0.0271136477 0.0792199215
0.0188234891 0.0245363632 0.0769403392
0.0227863558 0.0209907531 0.0816431475
0.0228230462 0.0209209558 0.0755328943
0.0245432425 0.0187716321 0.0763270485
0.0266207612 0.0156454131 0.0664291483
0.0274511733 0.0141392517 0.0696180689
0.0290872525 0.0105802529 0.0698516927
0.0295754051 0.0089489342 0.0798395279
0.0302960984 0.0062693296 0.0684059330
0.0304489579 0.0054537008 0.0818128385
0.0308742369 -0.0007673329 0.0576111898
0.0308909072 -0.0004980682 0.0625052245
0.0308515836 -0.0020394162 0.0837971728
0.0308937838 -0.0018050942 0.0587178675
0.0303816391 -0.0052856937 0.0668910461
0.0298741999 -0.0079751804 0.0658244459
0.0287099807 -0.0115894920 0.0663786429
0.0276759066 -0.0136017627 0.0742064468
0.0271790362 -0.0144743749 0.0603414737
0.0252889938 -0.0177552903 0.0743173458
0.0241139619 -0.0193145645 0.0689146747
0.0221777989 -0.0217084541 0.0683190424
0.0038650625 -0.0306333069 0.0723997142
0.0059774842 -0.0303872040 0.0584876800
0.0007673681 -0.0308770396 0.0587455051
-0.0021897690 -0.0308002228 0.0705168024
-0.0051447239 -0.0305114315 0.0708024138
-0.0084634914 -0.0297558475 0.0804159351
-0.0084649283 -0.0297709718 0.0720178239
-0.0116681978 -0.0286265665 0.0706647627
-0.0140827225 -0.0274458690 0.0665435569
-0.0140955073 -0.0274333500 0.0656917301
-0.0180717875 -0.0250422103 0.0749507421
-0.0192729627 -0.0241533897 0.0600775076
-0.0200623692 -0.0235617882 0.0762694145
-0.0227784888 -0.0209617955 0.0744037957
-0.0249535895 -0.0182078525 0.0818528400
-0.0249107111 -0.0182922369 0.0676064540
-0.0276818556 -0.0138243171 0.0596575700
-0.0278278298 -0.0134381262 0.0668638801
-0.0292510137 -0.0101651749 0.0643968254
-0.0295428980 -0.0091115328 0.0759157802
-0.0303882517 -0.0058994857 0.0699776061
-0.0304793866 -0.0053336681 0.0743844662
-0.0308098896 -0.0008704625 0.0610272057
-0.0308746972 -0.0000262215 0.0771404324
-0.0307241199 0.0032370625 0.0605893959
-0.0302474000 0.0064013742 0.0768265975
-0.0299649275 0.0077398598 0.0656973990
-0.0287149190 0.0114812461 0.0667129597
-0.0280529026 0.0127694654 0.0577336296
-0.0281481575 0.0125938465 0.0585525167
-0.0271720228 0.0147075586 0.0822869220
-0.0244041017 0.0189618929 0.0662865229
-0.0220063982 0.0217223032 0.0775660802
-0.0225082692 0.0212434095 0.0581931913
-0.0205532005 0.0231893597 0.0806456412
-0.0176637980 0.0253255190 0.0685003827
-0.0157231907 0.0265062736 0.0578865691
-0.0158408002 0.0265448425 0.0771654259
-0.0105261191 0.0290809633 0.0599160538
-0.0083661208 0.0298090579 0.0638189587
-0.0127472663 -0.0264185389 0.0564999990
-0.0228416740 0.0177738223 0.0564999990
0.0172847380 0.0245817968 0.0564999990
0.0231259978 -0.0190651442 0.0564999990
-0.0149459523 0.0224136798 0.0791621895
-0.0228545654 0.0025029928 0.0794987263
-0.0087645327 -0.0232245403 0.0778383330
0.0056477312 0.0296686908 0.0682714873
0.0055031332 0.0297088423 0.0653522644
-0.0041780833 0.0035791823 0.0804999992
-0.0035651820 0.0012790814 0.0804999992
0.0033245563 -0.0066299612 0.0804999992
-0.0051272566 -0.0049628912 0.0804999992
-0.0022093171 0.0086602513 0.0814171251
0.0074823644 -0.0048063736 0.0836557467
-0.0051530583 -0.0071322740 0.0819498515
-0.0089065927 0.0205177312 0.0844999999
-0.0147856395 0.0146036654 0.0844999999
-0.0142511189 0.0144265590 0.0844999999
-0.0220162677 -0.0038480858 0.0844999999
-0.0272503885 0.0059540546 0.0844999999
0.0171605725 0.0182774856 0.0844999999
-0.0053117651 0.0240563685 0.0844999999
0.0204888840 0.0100666536 0.0844999999
0.0180464951 -0.0200925855 0.0844999999
0.0178399314 -0.0179481604 0.0844999999
-0.0003078924 -0.0211116507 0.0844999999
0.0058929095 -0.0252023284 0.0844999999
0.0058084471 -0.0200030829 0.0844999999
0.0116316450 -0.0023187427 0.0844894930
0.0138888325 -0.0074099880 0.0844999999
0.0027722925 0.0091627771 0.0842714882
-0.0084302026 0.0105884774 0.0844340272
-0.0109533460 0.0076137819 0.0844999999
-0.0106063417 -0.0000940797 0.0844999999
-0.0089374453 -0.0123678925 0.0843577543
0.0221002966 -0.0085162116 0.0844999999
0.0289612048 -0.0028874758 0.0844999999
0.0207316277 -0.0010850707 0.0844999999
-0.0202082788 -0.0185846848 0.0844999999
-0.0280316201 -0.0104743730 0.0844999999
-0.0047743237 0.0271821829 0.0844999999
0.0227959940 0.0183654339 0.0844999999
0.0044756812 0.0199253491 0.0844999999
-0.0244318466 0.0132888215 0.0844999999
0.0205035523 0.0074469888 0.0844999999
0.0135382625 0.0031982920 0.0844999999
0.0075277722 0.0164280468 0.0844999999
0.0073553034 -0.0171771559 0.0844172425
0.0079228894 -0.0062051524 0.0843616131
-0.0087636224 -0.0251432232 0.0844999999
-0.0146090577 0.0074347099 0.0844999999
-0.0154490421 0.0009695649 0.0844999999
-0.0148541444 -0.0024703922 0.0844999999
-0.0170111092 0.0211792903 0.0844512056
-0.0236573593 0.0050583164 0.0844396954
-0.0225224063 0.0041793573 0.0815983817
-0.0076134412 -0.0232840969 0.0826081691
0.0263745901 -0.0005317059 0.0811514292
0.0261753131 0.0032201523 0.0804999992
0.0114478603 0.0207634112 0.0821423218
-0.0052764557 0.0303108897 0.0727146476
-0.0001620890 0.0305317471 0.0599000007
0.0208625177 0.0123563996 0.0785000026
0.0222874908 -0.0112673053 0.0843317638
0.0008973897 -0.0233337521 0.0802822022
-0.0203914461 -0.0112863317 0.0829430860
-0.0210159702 0.0135392841 0.0788319915
0.0202592160 0.0228987640 0.0567209408
-0.0302318237 -0.0048699480 0.0566691215
0.0283788727 -0.0106911010 0.0566264805
-0.0163128219 -0.0256321354 0.0843545097
0.0030881437 0.0303724460 0.0843261543
0.0117392043 -0.0313115061 0.0647354112
0.0154970107 -0.0290139461 0.0734154835
0.0206827789 -0.0248682517 0.0670585467
0.0107137863 -0.0294283031 0.0669393388
0.0200429770 -0.0252306355 0.0642415998
0.0202400272 -0.0235546368 0.0602332133
-0.0240830863 0.0093820696 0.0774041838
-0.0249971356 0.0086298609 0.0789700521
0.0046268996 -0.0281224944 0.0576464845
0.0044858037 -0.0133449876 0.0690998526
0.0178910405 -0.0297387116 0.0644208200
0.0174600445 -0.0298230218 0.0712614696
0.0178354276 -0.0296164233 0.0623528135
0.0207382639 -0.0263152419 0.0723986145
0.0198869894 -0.0229981633 0.0674115264
0.0135388433 -0.0224484837 0.0723245768
0.0113854915 -0.0285358275 0.0700346775
0.0114935926 -0.0302897603 0.0637359208
0.0142155086 -0.0244501179 0.0606076342
0.0200160950 -0.0229291391 0.0658841448
0.0080045124 -0.0228604655 0.0679232911
0.0122265811 -0.0196116526 0.0702933808
0.0070723267 -0.0198626181 0.0657094867
0.0099289714 -0.0161156284 0.0627303260
-0.0188548336 0.0161689860 0.0309283633
0.0177942204 0.0173592633 0.0300640418
0.0249340492 -0.0010656692 0.0315100697
-0.0241296814 0.0058521024 0.0258718321
-0.0219165304 0.0117205198 0.0279260690
-0.0121298171 0.0216742696 0.0238500848
-0.0030453948 0.0247390282 0.0282851298
0.0043624230 0.0245371237 0.0267508023
0.0125586478 0.0214961106 0.0248124608
0.0204391793 0.0143549544 0.0313300386
0.0231110001 0.0091492785 0.0243628368
-0.0191626834 -0.0158826113 0.0247410292
0.0000483184 -0.0248268169 0.0239087166
0.0248362713 0.0006914845 0.0229824962
0.0231536853 -0.0089054854 0.0315609245
0.0192199868 -0.0159110662 0.0273041489
0.0136268522 -0.0208291717 0.0273780857
0.0073096617 -0.0236413880 0.0244617224
-0.0019832011 -0.0248837909 0.0257094604
-0.0090935327 -0.0232330480 0.0301020834
-0.0140176992 -0.0206066486 0.0289257440
-0.0229555307 -0.0095888572 0.0264093241
-0.0243329105 -0.0053922493 0.0316991915
-0.0218689108 0.0120192250 0.0223225843
-0.0209530442 -0.0153574902 0.0222548040
-0.0254193821 0.0032316164 0.0222368173
-0.0171170381 0.0180980654 0.0221999995
0.0242248965 -0.0078388685 0.0221999995
-0.0009562126 -0.0263488711 0.0221999995
0.0129030353 0.0218745649 0.0221999995
0.0252907291 0.0046143052 0.0223951522
-0.0027548686 -0.0276135931 0.0223034388
-0.0027347667 0.0280184202 0.0225240790
-0.0239307701 -0.0148692113 0.0239317681
0.0198057925 -0.0204129459 0.0238882290
0.0140356231 0.0244403251 0.0229770543
-0.0267803171 0.0086172833 0.0235195148
-0.0281107991 0.0010946510 0.0242512021
-0.0017639846 0.0281374874 0.0293721684
0.0084325105 0.0268963436 0.0241400678
-0.0126774927 0.0251444078 0.0258969729
-0.0273845897 0.0068346861 0.0281729401
-0.0236375151 0.0156945864 0.0269102339
-0.0254540966 -0.0120642950 0.0243024603
0.0179176177 -0.0218382639 0.0299999993
-0.0209967442 0.0189468402 0.0297785196
0.0274630812 0.0068008498 0.0320526826
0.0258761703 0.0115928112 0.0304836818
0.0241339541 0.0149305257 0.0347378913
0.0198778561 0.0203268680 0.0309585248
0.0156564750 0.0236106439 0.0393314456
0.0104644869 0.0264270020 0.0360512594
0.0056341346 0.0278376679 0.0336684939
-0.0001076505 0.0284905833 0.0320252013
-0.0074222766 0.0272917656 0.0306267760
-0.0127717910 0.0254249277 0.0306275010
-0.0189095778 0.0213033158 0.0405560117
-0.0217835931 0.0182710551 0.0409221977
-0.0255666304 0.0124822325 0.0344439151
-0.0274787940 0.0067357510 0.0313433120
-0.0282058142 0.0033631016 0.0322453898
-0.0282145281 -0.0032634853 0.0351509531
-0.0279912622 -0.0048853115 0.0400001626
-0.0238027483 -0.0154947660 0.0368216493
-0.0210911258 -0.0190931241 0.0358094695
-0.0174196853 -0.0224732922 0.0384177573
-0.0108731205 -0.0262377199 0.0306520924
-0.0062971022 -0.0276846001 0.0391799685
-0.0015431172 -0.0283650165 0.0359809151
0.0049691027 -0.0279680592 0.0380811463
0.0098802591 -0.0265892151 0.0341453175
0.0142565418 -0.0245674615 0.0344903858
0.0216238663 -0.0184885978 0.0375873087
0.0234873495 -0.0158132022 0.0406044702
0.0270112296 -0.0084491580 0.0326249542
0.0281898311 -0.0035458199 0.0321838462
-0.0177176508 -0.0204661154 0.0260555163
-0.0238038548 0.0138453099 0.0410000011
-0.0206666660 -0.0169966077 0.0410000011
0.0153522824 -0.0229545403 0.0410000011
0.0239636982 0.0123054094 0.0410000011
0.0250562161 -0.0090141466 0.0413285306
-0.0222526580 -0.0149965132 0.0414124318
0.0023924615 0.0265182888 0.0419883323
0.0208542475 -0.0182116471 0.0288591776
-0.0170002754 -0.0104075086 0.0399999991
-0.0188539345 -0.0025696038 0.0399999991
-0.0162845757 -0.0156599390 0.0399999991
0.0015593972 0.0151807067 0.0399999991
-0.0003008437 0.0204712894 0.0399999991
0.0051508757 0.0191507836 0.0399999991
0.0174858119 -0.0074699282 0.0399999991
0.0163013374 -0.0164715116 0.0399999991
0.0120019540 -0.0083763332 0.0399999991
-0.0040511135 0.0105942920 0.0384589114
0.0067622939 -0.0080393919 0.0393189295
0.0064211381 0.0103369650 0.0413209481
-0.0107488242 0.0018695086 0.0408673547
-0.0070413663 -0.0096008280 0.0391952912
-0.0118021894 -0.0027210977 0.0373000018
0.0107866739 -0.0036978432 0.0373000018
-0.0024148360 0.0069984647 0.0373000018
-0.0000782298 0.0059132083 0.0415311645
-0.0053592987 0.0026482833 0.0380011390
-0.0016167355 -0.0057989890 0.0351497794
0.0055847143 -0.0021708369 0.0379266630
0.0069277676 0.0059702848 0.0351166836
-0.0048097486 0.0052651142 0.0366829889
0.0023946133 -0.0066174129 0.0353814240
0.0095375439 0.0034968695 0.0358265828
-0.0066671005 -0.0002798862 0.0347419738
-0.0021165241 -0.0075579162 0.0368311638
-0.0092838856 0.0174538161 0.0416786380
0.0029568496 -0.0184303958 0.0414999984
-0.0155235794 0.0036003800 0.0414999984
0.0103732118 0.0139993822 0.0414999984
0.0194038133 0.0055375950 0.0414999984
0.0082326785 -0.0184176299 0.0414999984
0.0095270085 -0.0086384681 0.0414999984
-0.0008163195 0.0142887645 0.0344999991
0.0138888250 0.0061709154 0.0344999991
-0.0022607721 0.0156010485 0.0344999991
0.0075747642 -0.0159158640 0.0344999991
0.0113295214 -0.0044834819 0.0344999991
0.0157031028 0.0040494857 0.0344999991
-0.0075867134 -0.0125094106 0.0344999991
0.0055568046 0.0020030166 0.0346386535
-0.0140095059 0.0013448700 0.0344999991
0.0011092927 -0.0063299346 0.0345863347
-0.0081056551 -0.0116727715 0.0401965463
-0.0155210246 -0.0179050608 0.0417632007
0.0208159784 -0.0029291340 0.0402734742
-0.0079710331 0.0216717784 0.0404653178
0.0177377027 -0.0204460632 0.0273616974
-0.0125561679 0.0129269623 0.0325536902
0.0123533050 0.0129096404 0.0341825056
0.0122425729 -0.0130487012 0.0341874460
-0.0126952599 -0.0130803725 0.0324190803
0.0138657773 -0.0215389819 0.0419999994
0.0122956609 -0.0219222126 0.0419999994
0.0071293556 -0.0245020929 0.0419999994
-0.0057918462 -0.0210341950 0.0419999994
0.0111385379 0.0209510766 0.0419999994
0.0183350556 0.0160923560 0.0419999994
-0.0148052906 0.0156549194 0.0419999994
0.0222182981 0.0055049895 0.0419999994
-0.0231546954 0.0095959662 0.0419999994
-0.0211564469 0.0006106071 0.0419999994
0.0224227124 -0.0015550496 0.0419230251
0.0181612094 0.0215819481 0.0273767975
0.0149774000 0.0238434433 0.0266136429
-0.0113146227 -0.0257838751 0.0267883925
0.0072360158 -0.0272440647 0.0256419944
0.0261351207 -0.0109201431 0.0247150704
0.0242109708 0.0143274392 0.0278177681
0.0275839886 0.0062902488 0.0252761041
-0.0189786695 -0.0175325854 0.0275892448
0.0010108317 0.0255649252 0.0266009326
-0.0011064686 -0.0208038402 0.0329148916
0.0216699570 0.0115727718 0.0320000015
0.0099442801 0.0188197291 0.0320000015
0.0221721440 0.0026999517 0.0320000015
0.0210750866 0.0012262426 0.0320000015
-0.0111733721 -0.0219696454 0.0320000015
0.0002193345 0.0189632953 0.0320000015
0.0062585914 -0.0221606032 0.0320000015
0.0054550110 -0.0192987343 0.0320000015
0.0176344213 -0.0061077533 0.0320000015
-0.0214780018 0.0047071049 0.0320000015
-0.0188764390 0.0137490405 0.0320000015
-0.0112564292 0.0201930020 0.0320000015
-0.0188812576 -0.0052175286 0.0320000015
0.0197322633 -0.0065354685 0.0320000015
-0.0022973643 -0.0194981486 0.0321235009
0.0155762047 0.0196958614 0.0484089079
-0.0007892473 -0.0225369459 0.0549901374
0.0252689383 0.0045290337 0.0549999997
0.0186358686 0.0144007507 0.0549674431
-0.0128431038 0.0174494252 0.0549999997
-0.0242427012 0.0109185183 0.0549500815
-0.0274184248 -0.0053392345 0.0548141532
-0.0017446201 -0.0205776517 0.0549933760
0.0278798780 -0.0007303649 0.0549018715
0.0050398701 -0.0244708800 0.0549245508
0.0198055613 0.0164347633 0.0549468020
0.0022105776 -0.0273870274 0.0548521514
0.0024045651 -0.0281953572 0.0548442431
0.0103167580 0.0248516084 0.0540525686
-0.0136863452 0.0150363085 0.0546309070
-0.0248934015 -0.0101505704 0.0537840373
-0.0000883670 -0.0201612570 0.0536871430
0.0242721806 -0.0114836737 0.0532045700
0.0283125911 0.0006350895 0.0499165509
0.0280595570 0.0046730879 0.0454785960
0.0260193166 0.0114277490 0.0477608714
0.0232562548 0.0162795843 0.0471133590
0.0213727187 0.0187105724 0.0459365552
0.0175885272 0.0222961984 0.0429804238
0.0124223079 0.0255648783 0.0511439130
0.0074135557 0.0273349708 0.0429752418
0.0043925315 0.0281157653 0.0534912287
-0.0000471589 0.0284002449 0.0502084073
-0.0048484013 0.0279743489 0.0476885213
-0.0099284068 0.0265825132 0.0442486744
-0.0142532393 0.0244937170 0.0462444591
-0.0179467453 0.0220850189 0.0524187566
-0.0229773111 0.0166914664 0.0425429163
-0.0230432902 0.0166078796 0.0491699772
-0.0256551034 0.0122371045 0.0534037877
-0.0278760638 0.0054678340 0.0537593230
-0.0284567252 -0.0003421612 0.0467140397
-0.0277953550 -0.0058823832 0.0489715112
-0.0269623035 -0.0090147060 0.0447227415
-0.0256816497 -0.0122589702 0.0513792063
-0.0230951084 -0.0165248934 0.0511581185
-0.0170730826 -0.0226156780 0.0450282237
-0.0153479962 -0.0239472832 0.0429414410
-0.0110700008 -0.0261270311 0.0442040349
-0.0044579491 -0.0281090185 0.0519315566
-0.0023106332 -0.0282978784 0.0515379356
0.0038405881 -0.0281640463 0.0529621396
0.0065778471 -0.0276064519 0.0492960769
0.0127998573 -0.0254074926 0.0505782344
0.0173400314 -0.0225295704 0.0452430601
0.0197414971 -0.0204569637 0.0500287162
0.0220072224 -0.0178004819 0.0486006067
0.0260378828 -0.0112449641 0.0468050637
0.0275587361 -0.0066281643 0.0484486965
0.0282913495 -0.0024092834 0.0420348236
-0.0255046643 0.0035184960 0.0460307460
-0.0140684459 0.0192084221 0.0522300811
-0.0143351132 0.0219311574 0.0509435753
0.0256513364 0.0009728882 0.0500979838
0.0101772627 -0.0239313316 0.0473982218
0.0115326613 -0.0216898238 0.0492502137
-0.0109047034 -0.0240223940 0.0537936680
0.0249937971 -0.0021641821 0.0529999994
0.0004454448 0.0263409782 0.0529999994
-0.0221931396 -0.0134581849 0.0529999994
0.0012364724 -0.0245813472 0.0508065071
-0.0105158649 -0.0257073141 0.0414999984
-0.0215744266 0.0180006796 0.0414999984
0.0252194791 0.0127772960 0.0414999984
0.0009383225 -0.0275153465 0.0414999984
0.0198309726 -0.0165690764 0.0523019835
0.0113405947 -0.0164361268 0.0497545089
-0.0092704051 -0.0177094335 0.0528431138
-0.0229265424 -0.0116960156 0.0502500818
-0.0197337598 0.0025754600 0.0516664088
-0.0115407434 0.0161976992 0.0505854953
0.0013306549 0.0257064216 0.0517466954
0.0123833030 0.0157447375 0.0512724614
0.0198886712 -0.0012711076 0.0501327421
-0.0148194927 -0.0189640042 0.0472826927
0.0096188100 0.0229662874 0.0499902542
0.0234609605 -0.0140108956 0.0424760648
-0.0241981657 -0.0128921605 0.0422509300
0.0071794843 0.0261163246 0.0419361750
-0.0145565839 0.0012127423 0.0423392089
-0.0129522041 0.0071521620 0.0422790559
-0.0065563914 -0.0021154997 0.0510480804
0.0066458541 0.0019605458 0.0507132712
-0.0034299569 0.0089565229 0.0422153572
-0.0097828198 0.0015219982 0.0444395008
0.0065859939 -0.0081484241 0.0441474351
0.0040284623 0.0082264289 0.0481242094
0.0026561853 -0.0053774076 0.0524999984
0.0043057585 0.0040689088 0.0503064131
-0.0020725519 0.0055718914 0.0488240735
-0.0058115753 0.0012309569 0.0450623600
-0.0031218897 -0.0050336697 0.0452178786
0.0027799431 -0.0050652676 0.0459429254
0.0045711047 -0.0095560022 0.0485000014
-0.0065619819 0.0086865507 0.0462121022
0.0164829331 -0.0113350760 0.0425000004
-0.0179180423 -0.0111979806 0.0425000004
-0.0162436480 -0.0163527384 0.0425000004
-0.0186181733 -0.0063779318 0.0425000004
-0.0113057715 -0.0125717423 0.0425000004
-0.0172989854 -0.0097116656 0.0425000004
-0.0227596988 -0.0142529832 0.0425000004
0.0006113569 -0.0257372668 0.0426185772
0.0174569796 0.0083404756 0.0425000004
0.0198921365 0.0058346962 0.0425000004
0.0057491148 0.0243828531 0.0425000004
0.0158784276 -0.0149240478 0.0425000004
0.0191202556 -0.0025671969 0.0425000004
0.0105656467 -0.0101504573 0.0425000004
0.0264835906 -0.0061931258 0.0425000004
-0.0188967646 0.0197321289 0.0425000004
-0.0098666371 0.0224118776 0.0425000004
-0.0045448428 0.0223910976 0.0425000004
0.0052229986 0.0143341779 0.0425000004
-0.0180431663 0.0021244862 0.0425000004
-0.0198073194 0.0051794872 0.0425000004
-0.0194914450 0.0134654796 0.0425000004
0.0098128744 0.0173737605 0.0425000004
0.0021723535 -0.0160970718 0.0425000004
0.0064590614 -0.0164611343 0.0425000004
0.0142158397 0.0103785728 0.0425000004
0.0187239312 0.0104424029 0.0425000004
-0.0170194509 -0.0153484560 0.0494999997
-0.0233965740 -0.0053393532 0.0494999997
-0.0070634754 -0.0123887339 0.0494999997
0.0038001864 0.0227424430 0.0494999997
-0.0187185952 -0.0160702983 0.0494999997
-0.0074778471 -0.0172335354 0.0494999997
0.0106047264 -0.0109753529 0.0494999997
0.0118925478 -0.0112298774 0.0494999997
0.0182412268 -0.0059701712 0.0494999997
0.0146236889 -0.0156127171 0.0494999997
0.0028921007 -0.0138929429 0.0494999997
-0.0068826772 -0.0068750842 0.0494999997
-0.0086714300 -0.0023896356 0.0494999997
-0.0115314223 0.0125166195 0.0494999997
-0.0196743569 -0.0011088434 0.0494999997
0.0058221439 0.0171605594 0.0494999997
-0.0064766336 0.0047510727 0.0494999997
0.0057599515 0.0161363336 0.0494999997
0.0095289467 0.0172011620 0.0494999997
0.0073875068 0.0076702305 0.0494999997
0.0161472932 0.0016842622 0.0494999997
-0.0108225532 0.0007667345 0.0484559190
0.0108225532 -0.0013875313 0.0465094502
-0.0006717607 -0.0111692371 0.0383000001
-0.0068044939 0.0083035282 0.0381525780
-0.0057733087 0.0067213118 0.0353179484
-0.0021484876 0.0102051981 0.0373000018
0.0093226289 0.0009176537 0.0423622176
0.0098385099 0.0022556582 0.0355837237
0.0101930968 0.0030795782 0.0373000018
-0.0036939385 -0.0083421881 0.0388349034
-0.0025119045 -0.0088731650 0.0364090505
-0.0086407679 -0.0101019106 0.0373000018
0.0061700720 0.0075292214 0.0411337517
0.0029081143 0.0102183962 0.0356626587
0.0065899872 0.0071702338 0.0373000018
0.0036408687 -0.0095040757 0.0440351515
0.0080701984 -0.0084386952 0.0357570039
0.0036972617 -0.0088140054 0.0351000018
-0.0112914439 0.0013033790 0.0442780662
-0.0125370150 0.0020821903 0.0357497149
-0.0095940850 -0.0001291512 0.0351000018
0.0073986716 0.0076273653 0.0554946647
-0.0128486510 -0.0038005625 0.0549999997
0.0078784652 0.0119718299 0.0549999997
0.0059452371 0.0107449556 0.0549999997
-0.0025436151 0.0202306936 0.0549999997
-0.0028010726 0.0145560404 0.0549999997
-0.0068346444 -0.0050113515 0.0549999997
-0.0024867281 -0.0065920160 0.0549999997
0.0233328717 -0.0048146813 0.0549994711
0.0094437550 0.0105547887 0.0549985900
-0.0013520192 -0.0189710620 0.0549937321
0.0146113458 0.0070789709 0.0549974112
0.0183181116 -0.0075501464 0.0549994688
0.0109071711 -0.0060612933 0.0549999997
0.0130016855 -0.0120267767 0.0549999627
0.0194050375 -0.0026043094 0.0549979846
0.0018612885 -0.0130103885 0.0549976900
-0.0078149552 0.0074960833 0.0549999997
-0.0115775930 0.0073782817 0.0549973382
-0.0104934256 0.0003496350 0.0549999997
-0.0017752707 -0.0169483327 0.0549950250
-0.0053211435 -0.0091699559 0.0549999997
-0.0138128391 -0.0084284651 0.0549999997
-0.0140287796 0.0030524254 0.0549979330
-0.0235372102 -0.0129684595 0.0539351398
-0.0082801437 -0.0185783287 0.0547372876
0.0248542391 -0.0099476627 0.0536904167
0.0162988188 0.0121396079 0.0541051297
-0.0115708853 0.0218156538 0.0549745311
-0.0092739578 0.0234753632 0.0539156874
-0.0204924972 -0.0050486280 0.0537227301
0.0049909402 0.0203458713 0.0540023969
0.0033409723 0.0045917425 0.0547755724
0.0199599953 -0.0058350711 0.0532780917
0.0139076629 -0.0191448018 0.0537196152
-0.0087379362 0.0053515027 0.0535495973
-0.0140286531 0.0056233913 0.0529999994
-0.0231888218 -0.0090101005 0.0529999994
-0.0087962662 0.0229723197 0.0530426350
0.0039151729 0.0091439264 0.0529999994
-0.0015357830 0.0101128388 0.0529999994
0.0056708437 -0.0013919741 0.0529999994
-0.0029668398 -0.0082318787 0.0529999994
-0.0092815401 -0.0007212892 0.0529999994
-0.0029768146 0.0107410172 0.0529999994
0.0181724270 -0.0043955995 0.0529999994
0.0086505105 -0.0063290455 0.0529999994
0.0173328606 -0.0204677472 0.0529999994
-0.0097609647 0.0204980704 0.0529999994
0.0236289817 -0.0048782619 0.0529999994
-0.0086093187 0.0188670380 0.0529999994
-0.0243439068 -0.0085347042 0.0529999994
-0.0104281653 -0.0106874896 0.0529999994
-0.0069581965 -0.0154182914 0.0529999994
-0.0084193595 0.0073175905 0.0529999994
-0.0077364473 0.0184056972 0.0529999994
0.0095884501 0.0048415271 0.0529999994
0.0096356325 0.0074681994 0.0529999994
0.0026718012 -0.0156415761 0.0529999994
0.0144412537 -0.0016922936 0.0529999994
-0.0095605783 0.0238131435 0.0544422983
-0.0149852014 -0.0203246641 0.0518409517
-0.0232610800 -0.0025179058 0.0540538597
0.0245989905 -0.0035898399 0.0489895102
-0.0011816382 -0.0091621343 0.0570269148
-0.0069812839 0.0034583028 0.0563205912
0.0068235346 0.0052146061 0.0595000014
0.0010042829 -0.0158683064 0.0595000014
-0.0134939265 0.0124959498 0.0595000014
-0.0107605588 -0.0098904376 0.0595000014
-0.0135124287 0.0060199947 0.0595000014
0.0187091556 -0.0069915220 0.0591614042
-0.0098313929 0.0093265763 0.0595000014
-0.0062922870 -0.0028804590 0.0595000014
0.0052341725 0.0018862241 0.0595000014
-0.0213123405 0.0045150853 0.0595000014
0.0195422763 0.0085766843 0.0595000014
0.0031248253 0.0157031674 0.0595000014
-0.0066023769 0.0168677920 0.0595000014
-0.0055835004 0.0073273628 0.0595000014
0.0048601106 -0.0103902351 0.0595000014
0.0173952085 -0.0033591897 0.0595000014
0.0119670626 0.0057175564 0.0595000014
-0.0164435911 -0.0056419829 0.0595000014
0.0105765540 -0.0088048080 0.0588402662
0.0184243138 -0.0108637127 0.0595000014
-0.0118348803 0.0171643570 0.0585453858
-0.0086461497 -0.0182389887 0.0595000014
0.0216969638 -0.0015784111 0.0584116023
-0.0026159123 -0.0216744417 0.0586114311
-0.0216448160 0.0006036319 0.0584418739
-0.0042308529 0.0215328768 0.0580474368
0.0007149467 0.0053113740 0.0585393317
0.0172754612 -0.0097079313 0.0579217491
-0.0186463928 -0.0073398683 0.0580052748
-0.0132643154 0.0140129941 0.0575000010
-0.0078113065 0.0199080196 0.0577271021
-0.0067011862 0.0015640588 0.0575000010
-0.0181757504 0.0060074703 0.0575000010
-0.0116117663 0.0002206500 0.0575000010
0.0011287490 0.0197113527 0.0579224980
0.0015161311 -0.0188492117 0.0575000010
0.0092897233 -0.0145065598 0.0575000010
-0.0190401539 -0.0091720775 0.0575000010
-0.0084048286 -0.0036775900 0.0575000010
0.0157825373 0.0040192749 0.0575000010
0.0171601759 0.0034487513 0.0575000010
0.0124076267 -0.0116268524 0.0575000010
-0.0004196977 -0.0180473272 0.0578923978
-0.0000898779 -0.0142981267 0.0575000010
-0.0001828953 -0.0125770997 0.0575000010
-0.0126087225 -0.0041863918 0.0575000010
0.0184735814 0.0103562857 0.0575000010
0.0097403703 0.0000416182 0.0575000010
0.0122222964 0.0154706605 0.0575000010
0.0050787528 0.0153545000 0.0575000010
0.0017372192 0.0139463028 0.0575000010
-0.0004043745 0.0123489023 0.0575000010
-0.0067224514 -0.0159678362 0.0644104698
-0.0013761900 -0.0212803242 0.0628621879
-0.0045330588 -0.0102603215 0.0636969496
-0.0057939232 -0.0130648958 0.0644999966
0.0050705798 0.0126232230 0.0628797648
0.0095443812 0.0077591092 0.0644949031
0.0062285249 0.0107448824 0.0644999966
0.0000361029 -0.0309522379 0.0391766865
-0.0045086404 -0.0305337175 0.0236265633
-0.0019409394 -0.0308757215 0.0498891952
-0.0034375176 -0.0306919234 0.0463059461
-0.0062445760 -0.0303472200 0.0400462721
-0.0092002575 -0.0295843771 0.0290922151
-0.0106432739 -0.0290744175 0.0517186051
-0.0104728154 -0.0291398505 0.0229909869
-0.0144837878 -0.0273645727 0.0505489727
-0.0151811830 -0.0270092321 0.0276283523
-0.0171827095 -0.0257540225 0.0236670936
-0.0185945291 -0.0247773260 0.0455304848
-0.0200303488 -0.0236146229 0.0309576258
-0.0208815512 -0.0228989880 0.0414593397
-0.0222939026 -0.0214866366 0.0340363713
-0.0231673810 -0.0205826470 0.0520742715
-0.0252936716 -0.0178915877 0.0500572520
-0.0265380408 -0.0159754271 0.0407097064
-0.0274648137 -0.0142870536 0.0534637829
-0.0275589440 -0.0141023125 0.0261918430
-0.0290488300 -0.0107099316 0.0558362433
-0.0287462584 -0.0114981568 0.0321890316
-0.0300002236 -0.0076482976 0.0328155086
-0.0303572774 -0.0062261661 0.0271110836
-0.0306723744 -0.0042367190 0.0354784110
-0.0309204634 -0.0015176400 0.0411338165
-0.0309687679 -0.0005959340 0.0281753662
-0.0309553516 0.0008519340 0.0466418827
-0.0307456296 0.0037742031 0.0429543383
-0.0304547710 0.0056106145 0.0259569905
-0.0301976490 0.0069114963 0.0290120544
-0.0295790762 0.0092200408 0.0404654342
-0.0290923449 0.0105965715 0.0515365509
-0.0281250948 0.0129911787 0.0413380184
-0.0269991898 0.0152008923 0.0518090029
-0.0265863667 0.0159010118 0.0388762934
-0.0254691951 0.0176213051 0.0374729316
-0.0248416432 0.0185151039 0.0499042932
-0.0238827919 0.0196991875 0.0316512277
-0.0212271117 0.0225534274 0.0418367624
-0.0206832740 0.0230858948 0.0396245296
-0.0184557762 0.0248896858 0.0521891450
-0.0179273319 0.0252704590 0.0426579243
-0.0162936643 0.0263313752 0.0227646815
-0.0144014286 0.0274065368 0.0442954676
-0.0124760758 0.0283708700 0.0483649112
-0.0100363522 0.0293073932 0.0287363505
-0.0091855506 0.0295883178 0.0513387233
-0.0074679533 0.0300485467 0.0360680567
-0.0063093233 0.0303441066 0.0433551395
-0.0032261831 0.0308309226 0.0524367907
-0.0019310767 0.0308987961 0.0264527374
0.0013089219 0.0309314019 0.0384668311
0.0025133874 0.0308682786 0.0287878569
0.0043846891 0.0306489383 0.0384090594
0.0061707948 0.0303660473 0.0364959895
0.0069640826 0.0301835585 0.0260598724
0.0117644476 0.0286440388 0.0483642826
0.0109923160 0.0289404327 0.0374189110
0.0138163579 0.0277046451 0.0484708384
0.0144521505 0.0273806927 0.0233036639
0.0162514389 0.0263587967 0.0321419911
0.0184755610 0.0248736644 0.0286411428
0.0206735469 0.0230937717 0.0400436352
0.0214810306 0.0222995086 0.0335560030
0.0222849223 0.0214956169 0.0265005539
0.0237215924 0.0198982524 0.0502870761
0.0250614848 0.0182436220 0.0338202293
0.0266176227 0.0158528817 0.0511647978
0.0279335321 0.0133671418 0.0487587781
0.0275714866 0.0140776962 0.0348028202
0.0293334917 0.0099683633 0.0535578450
0.0290284751 0.0107629579 0.0289977990
0.0302863749 0.0065803667 0.0516530407
0.0305985715 0.0047026930 0.0459072076
0.0307313447 0.0038643948 0.0461457265
0.0309275175 0.0013830396 0.0537380536
0.0309957570 0.0000809512 0.0354616634
0.0308486623 -0.0028876881 0.0528962325
0.0306088418 -0.0046378484 0.0523823424
0.0304407866 -0.0056989088 0.0333978698
0.0302506161 -0.0067138202 0.0298389713
0.0297768351 -0.0084819948 0.0414734873
0.0294816301 -0.0095824501 0.0291898236
0.0287881487 -0.0113890289 0.0376383803
0.0272220766 -0.0147634522 0.0242216909
0.0266947844 -0.0157340631 0.0289987683
0.0254027653 -0.0177235981 0.0476670423
0.0244899073 -0.0189494619 0.0488194612
0.0232931579 -0.0204273252 0.0446124487
0.0229511800 -0.0208293591 0.0342130997
0.0197460828 -0.0238448168 0.0461450958
0.0195635396 -0.0239926373 0.0294227421
0.0176453747 -0.0254535642 0.0510221784
0.0179469735 -0.0252577036 0.0228773874
0.0144970345 -0.0273578231 0.0534378141
0.0101827841 -0.0292511832 0.0551365529
0.0109022464 -0.0289750072 0.0299736715
0.0093466730 -0.0295451452 0.0438504189
0.0075665545 -0.0300221266 0.0257038982
0.0050350057 -0.0305459384 0.0468186044
0.0045226709 -0.0306270841 0.0390612334
0.0056255909 0.0256743570 0.0549999997
-0.0037323194 0.0229577428 0.0549999997
0.0106246276 -0.0261453626 0.0548683823
0.0243055562 0.0125913018 0.0550317489
0.0020883224 -0.0237801357 0.0549999997
0.0161256167 -0.0210155927 0.0549961695
0.0206174104 -0.0158557150 0.0549999997
-0.0270612285 -0.0040343437 0.0549336828
-0.0139634688 -0.0193272413 0.0549999997
-0.0192377990 0.0159696664 0.0549999997
-0.0263253396 -0.0019851734 0.0549999997
-0.0216997822 -0.0081958222 0.0571231452
0.0009968414 0.0228682550 0.0563066530
-0.0164915908 -0.0220924262 0.0574720526
0.0244573244 0.0114925688 0.0575000010
-0.0211267639 -0.0182926317 0.0575000010
-0.0098937991 -0.0251400286 0.0573940008
-0.0198080048 0.0142238343 0.0574014859
-0.0193412817 0.0167796495 0.0574301782
0.0260878223 -0.0060360219 0.0574752841
0.0183444370 -0.0189860831 0.0575000010
0.0213726151 -0.0107086863 0.0575000010
-0.0026208372 0.0237806117 0.0575000010
0.0107634450 0.0236406589 0.0575000010
0.0223916838 -0.0048777679 0.0572136026
-0.0299096908 -0.0058591972 0.0562569901
-0.0108584342 -0.0285641881 0.0562478711
0.0195146024 -0.0227665494 0.0563358537
0.0288412041 0.0031559074 0.0564125717
0.0086240398 0.0288402921 0.0563142471
-0.0176512027 0.0229947418 0.0564794517
-0.0115809410 -0.0273061112 0.0221815623
-0.0044496459 0.0293045785 0.0222413613
0.0022773188 0.0293765942 0.0506342228
0.0038349915 0.0292098412 0.0437367350
0.0057281195 0.0289112540 0.0494938318
0.0076230746 0.0284548240 0.0242449899
0.0093469275 0.0279766801 0.0478061544
0.0120950579 0.0268951027 0.0247883961
0.0129859686 0.0264525178 0.0231298103
0.0145769380 0.0256155758 0.0400405655
0.0172341722 0.0239072059 0.0432752880
0.0189136434 0.0225842622 0.0260992053
0.0196320485 0.0219769279 0.0439692993
0.0209231299 0.0207476950 0.0389187681
0.0241212892 0.0169591475 0.0225653960
0.0238094854 0.0172189444 0.0531618514
0.0258225263 0.0142386352 0.0250729095
0.0265497642 0.0127548334 0.0226971601
0.0269956074 0.0116493312 0.0353782325
0.0278437367 0.0096102957 0.0392487525
0.0284304036 0.0074874044 0.0378806233
0.0281936005 0.0083449453 0.0481374138
0.0291014615 0.0047880819 0.0403495890
0.0293553332 0.0025444962 0.0502653845
0.0294646920 -0.0003144993 0.0383691598
0.0292143764 -0.0039435037 0.0241959622
0.0292266375 -0.0037512722 0.0459140400
0.0289600812 -0.0054734188 0.0484042798
0.0281933628 -0.0085658422 0.0340248562
0.0275154966 -0.0106006571 0.0480265380
0.0272790067 -0.0111884411 0.0508942374
0.0263920612 -0.0129922722 0.0441497705
0.0246188131 -0.0161867338 0.0291922325
0.0221565353 -0.0192720381 0.0506564870
0.0237342785 -0.0172367904 0.0467099850
0.0191954447 -0.0223397374 0.0224600781
0.0203403828 -0.0212161314 0.0513405937
0.0179941280 -0.0233550118 0.0312652399
0.0152866999 -0.0251158386 0.0480189500
0.0141317734 -0.0258388880 0.0428214889
0.0134405013 -0.0262084146 0.0445441136
0.0129119150 -0.0264250026 0.0479679863
0.0082494345 -0.0282844878 0.0324722109
0.0044566152 -0.0290822538 0.0275798863
0.0047065666 -0.0290310349 0.0224407565
0.0015151718 -0.0294771693 0.0235578927
0.0012610841 -0.0294276602 0.0412191405
-0.0024141890 -0.0293539537 0.0447656222
-0.0056021839 -0.0289347130 0.0489603468
-0.0061079516 -0.0288485185 0.0487324583
-0.0072332483 -0.0285641468 0.0515429803
-0.0095177620 -0.0278872939 0.0231374864
-0.0105847585 -0.0274639441 0.0400706357
-0.0136871600 -0.0260878461 0.0254055242
-0.0144577257 -0.0256562942 0.0430806435
-0.0181188996 -0.0232607183 0.0269102905
-0.0182686706 -0.0231491820 0.0329156550
-0.0201877482 -0.0214911933 0.0435554740
-0.0224089943 -0.0191639629 0.0424931020
-0.0234726656 -0.0177400443 0.0332827548
-0.0238310132 -0.0173025888 0.0229866782
-0.0259552518 -0.0139498311 0.0317107733
-0.0257966904 -0.0141864570 0.0396365751
-0.0273152161 -0.0108999302 0.0388400850
-0.0278460181 -0.0096221192 0.0360642802
-0.0289355840 -0.0054792132 0.0517575909
-0.0288434472 -0.0060013701 0.0315502410
-0.0292366467 -0.0037374622 0.0304847925
-0.0294604684 -0.0010585318 0.0464021361
-0.0294514205 0.0015596704 0.0446134113
-0.0294039234 0.0020890614 0.0521304906
-0.0287901306 0.0062475375 0.0465020245
-0.0284889420 0.0075741051 0.0368426755
-0.0275007674 0.0103608880 0.0440029238
-0.0274259434 0.0107733294 0.0249758188
-0.0264522532 0.0129639662 0.0356312410
-0.0261813218 0.0134400612 0.0441672786
-0.0247350434 0.0160303111 0.0459904216
-0.0234936675 0.0177788792 0.0344141225
-0.0215477613 0.0200919982 0.0408908783
-0.0210205860 0.0206397518 0.0252223303
-0.0193119479 0.0222491063 0.0237189479
-0.0167668194 0.0242216220 0.0513039318
-0.0164410576 0.0244435815 0.0278065749
-0.0138419479 0.0260057770 0.0378466224
-0.0104815159 0.0275333567 0.0493883309
-0.0111903439 0.0272529421 0.0285939010
-0.0088832064 0.0281052634 0.0490159696
-0.0049960269 0.0290319108 0.0425816617
-0.0034592259 0.0292823418 0.0346689305
-0.0018301588 0.0294009618 0.0494015078
0.0004408116 0.0294319902 0.0326057318
-0.0240869018 0.0155298599 0.0536095507
0.0283545657 -0.0068165781 0.0537532207
-0.0276225901 0.0068181106 0.0545535791
0.0202590174 -0.0202560959 0.0570025325
0.0006135438 -0.0246859152 0.0574245139
0.0218883589 0.0072955157 0.0553496605
0.0116219822 -0.0244397642 0.0572734543
0.0235283568 0.0046622584 0.0560748102
0.0220371153 -0.0179820251 0.0542689940
0.0001496782 0.0281574563 0.0548193928
-0.0078059812 -0.0279809088 0.0537110627
-0.0298972490 0.0079013270 0.0562000014
-0.0038603587 -0.0281344303 0.0572975250
0.0029210156 0.0227872248 0.0573943999
0.0006202133 0.0309596615 0.0222999994
-0.0272939787 -0.0128401509 0.0221182911
0.0238585643 0.0177327738 0.0222333489
