0.0021754305 0.0655529490 0.0097930955
-0.0006274633 0.0636843680 -0.0039037357
-0.0004924391 0.0659999996 0.0052301638
0.0017171057 0.0659999996 -0.0044956095
0.0131602032 0.0814362982 0.0046468531
-0.0009141119 0.0811841678 0.0131031418
-0.0107561962 0.0820239030 0.0111088614
-0.0033505286 0.0817145143 0.0143059149
0.0085371746 0.0818111698 0.0123344225
0.0146942147 0.0816991263 -0.0008046097
-0.0053619173 0.0821527751 0.0148417356
0.0127792440 0.0822148053 0.0095279171
0.0157078585 0.0822400862 -0.0029199565
-0.0063591772 0.0828971624 0.0160376968
0.0038613373 0.0831659277 0.0173433883
0.0167927559 0.0829142970 -0.0043117615
-0.0146662011 0.0838643350 0.0118946128
0.0062816634 0.0837286470 0.0175254806
0.0178746652 0.0833514136 0.0030258642
-0.0140241171 0.0841062717 0.0131774800
0.0010678967 0.0837994255 0.0188160593
0.0169710852 0.0842298553 0.0095058066
-0.0175109718 0.0847629746 -0.0076482457
-0.0014104224 0.0847145424 -0.0190545075
0.0083905547 0.0847563844 -0.0159537880
-0.0195675184 0.0845901359 0.0035312888
-0.0098012871 0.0848072767 -0.0007659725
0.0185703097 0.0848072767 0.0005271928
0.0124789221 0.0848072767 -0.0017194680
0.0148513022 0.0848072767 -0.0018711123
0.0108070116 0.0848072767 0.0019440376
0.0123831374 0.0848072767 0.0041240233
0.0174003399 0.0848072767 0.0061965202
0.0063657937 0.0848072767 0.0032105108
-0.0021995932 0.0848072767 0.0054940188
-0.0029346516 0.0848072767 -0.0057086596
-0.0081348504 0.0848072767 -0.0146980289
-0.0092102582 0.0848072767 -0.0150365958
0.0000816210 0.0848072767 -0.0105864357
0.0004788710 0.0848072767 -0.0098413923
0.0057734659 0.0848072767 -0.0033043790
-0.0031586798 0.0848072767 0.0077629006
-0.0116926631 0.0848072767 0.0140903928
-0.0096691858 0.0848072767 0.0162684667
-0.0031422981 0.0848072767 -0.0075923001
0.0036674745 0.0848072767 -0.0056470962
0.0044488529 0.0848072767 -0.0152324649
0.0074164690 0.0848072767 -0.0090067375
0.0116258822 0.0848072767 -0.0093418459
0.0103194467 0.0848072767 -0.0083169442
-0.0135350998 0.0848072767 0.0057142085
-0.0116396894 0.0848072767 0.0019612989
-0.0157025514 0.0848072767 0.0013580774
-0.0158486834 0.0848072767 0.0055354140
-0.0156903713 0.0848072767 0.0062415865
-0.0051189520 0.0848072767 0.0027020554
-0.0089472552 0.0848072767 -0.0046298394
-0.0120702203 0.0848072767 -0.0068463282
-0.0090681052 0.0848072767 -0.0076724839
-0.0069398268 0.0848072767 -0.0084373961
0.0054448253 0.0848072767 0.0125876654
0.0092186521 0.0848072767 0.0116729222
0.0056397718 0.0848072767 0.0119562574
0.0072357882 0.0848072767 0.0143122136
-0.0029566599 0.0848072767 0.0154031634
-0.0007774170 0.0848072767 0.0085758710
-0.0051873604 0.0848072767 0.0173675603
-0.0026726680 0.0848072767 0.0138680913
-0.0056239333 0.0848072767 -0.0007727661
0.0039313945 0.0635000020 -0.0022457794
-0.0049034041 0.0578622368 0.0007434835
-0.0049004884 0.0486201623 -0.0007196213
-0.0042716411 0.0534237259 -0.0025062992
-0.0031465901 0.0587668153 -0.0037976933
-0.0016410746 0.0532247344 -0.0046793694
-0.0012358795 0.0492330521 -0.0048114237
0.0008277190 0.0528055622 -0.0048743470
0.0032364095 0.0502604182 -0.0037396941
0.0032954442 0.0552256481 -0.0036969381
0.0047002276 0.0607659499 -0.0016861502
0.0138563640 0.0786588861 -0.0032396936
0.0122563731 0.0795451950 -0.0054124289
0.0083336359 0.0795538832 -0.0104450294
0.0063329651 0.0798222138 -0.0114604338
0.0055101701 0.0765697762 -0.0154346023
-0.0005523008 0.0781856113 -0.0147589540
-0.0044881279 0.0783532168 -0.0138327667
-0.0095008383 0.0773411987 -0.0123657134
-0.0122301054 0.0761876760 -0.0112880514
-0.0144488679 0.0769200730 -0.0070268413
-0.0151981080 0.0772272337 -0.0039212882
-0.0158356071 0.0767252585 0.0034231551
-0.0170641335 0.0756622062 -0.0027829576
-0.0104820350 0.0759587984 -0.0135264185
0.0038306418 0.0758333265 -0.0165746524
0.0153033974 0.0753324727 -0.0078142574
0.0081767492 0.0690580181 -0.0134391901
0.0081223817 0.0690965857 0.0136066598
-0.0055393088 0.0692921885 0.0007928963
-0.0055452909 0.0803400700 -0.0007983252
-0.0049224180 0.0843907468 -0.0026807399
-0.0046530142 0.0780450117 -0.0030992352
-0.0038136070 0.0674208306 -0.0040955202
-0.0030338192 0.0717962789 -0.0047031645
-0.0021700547 0.0701539448 -0.0051589985
-0.0007276257 0.0777970890 -0.0055457033
0.0000691071 0.0693586435 -0.0056014611
0.0018106690 0.0758029440 -0.0053066107
0.0024550788 0.0669213191 -0.0050248046
0.0037691385 0.0796602296 -0.0041332760
0.0042623294 0.0847109907 -0.0036496769
0.0052213279 0.0725399206 -0.0020399359
0.0053979748 0.0692997734 -0.0014543116
-0.0084880918 0.0607979218 0.0030025527
-0.0077759806 0.0616860578 0.0044963475
-0.0069751710 0.0621547505 0.0056586004
-0.0055621879 0.0512709889 0.0070459454
-0.0036315002 0.0539838750 0.0082064017
-0.0030044907 0.0536593436 0.0084665144
-0.0012429619 0.0613258523 0.0088875518
0.0009406121 0.0585568615 0.0089367735
0.0017518804 0.0545731943 0.0088065802
0.0036986123 0.0561851464 0.0081990163
0.0050062234 0.0522916350 0.0074704880
0.0062727243 0.0568068150 0.0064539052
0.0070699100 0.0509636415 0.0055442493
0.0081599250 0.0594702871 0.0037842983
0.0087298745 0.0559652266 0.0021045133
0.0089650441 0.0599195030 0.0006927302
0.0089173588 0.0530617988 -0.0010292846
-0.0155843853 0.0750486093 0.0015864443
-0.0151062761 0.0750447893 -0.0002886113
-0.0000466270 0.0749372078 -0.0125615445
-0.0104523803 0.0750361351 -0.0112997083
-0.0011973764 0.0750398059 -0.0153559544
0.0071160109 0.0750606652 -0.0146937858
0.0101173389 0.0750011860 -0.0103287545
0.0144560012 0.0750703948 -0.0063842010
0.0147662098 0.0706557707 -0.0043307391
0.0135757292 0.0706599722 -0.0072247520
0.0108477860 0.0703500828 -0.0114028558
0.0041079906 0.0705117150 -0.0150980576
0.0013123766 0.0703436017 -0.0156621247
-0.0030826339 0.0728136589 -0.0129332242
-0.0047304042 0.0735742209 -0.0115992126
-0.0099717168 0.0713513088 -0.0108933604
-0.0120141188 0.0717757550 -0.0077787698
-0.0120809762 0.0737547295 -0.0023051984
-0.0145458733 0.0714129562 0.0015440718
-0.0160914859 0.0699474090 0.0012854254
0.0028096924 0.0697769884 -0.0160843698
0.0150579942 0.0694264785 -0.0061617963
-0.0054017562 0.0485235037 0.0033213471
0.0013376402 0.0484999977 -0.0048345261
-0.0049207445 0.0485003915 0.0073883440
0.0043822949 0.0484999977 -0.0050658578
-0.0011609342 0.0484999977 0.0065360474
-0.0059995928 0.0484999977 -0.0034087857
0.0073289740 0.0484999977 0.0036814561
-0.0040133879 0.0484999977 -0.0059782756
0.0108758222 0.0739674197 0.0051638473
-0.0010459014 0.0802478922 0.0128058887
-0.0043683333 0.0685342105 -0.0135904156
0.0021953793 0.0677388975 -0.0123630063
-0.0130792596 0.0680190047 -0.0001858368
-0.0127822775 0.0684845681 -0.0061669961
0.0116337537 0.0678296564 -0.0052096792
0.0141972794 0.0688138093 -0.0042732340
0.0051203635 0.0673932462 0.0109519691
-0.0113293163 0.0674839051 0.0042483439
-0.0041607773 0.0670879356 0.0107477389
-0.0067340340 0.0653474121 0.0071913399
0.0082536335 0.0648371362 0.0048915318
-0.0015815924 0.0640073442 0.0090891429
-0.0019859296 0.0631246181 0.0088662517
0.0090595589 0.0629432998 -0.0003499590
-0.0090639417 0.0671324212 -0.0073012064
0.0073850017 0.0674448037 -0.0094959689
-0.0041298359 0.0660810879 -0.0095677179
-0.0094517628 0.0655100636 -0.0032779573
0.0008230224 0.0649903051 -0.0096862146
-0.0096609072 0.0650483877 -0.0012211909
-0.0026268852 0.0633897579 -0.0087333396
0.0069630551 0.0678409218 0.0108601907
0.0096291306 0.0681192704 0.0092719234
0.0135708913 0.0685491844 0.0043966744
0.0036030233 0.0677447865 0.0119963345
-0.0117053271 0.0677385757 0.0046371982
-0.0084580394 0.0680966664 0.0102463046
-0.0126588275 0.0800322619 -0.0023105462
-0.0118885003 0.0741081082 -0.0026892728
0.0098627956 0.0692420294 0.0128598781
0.0010834079 0.0692279468 0.0161566086
-0.0115807804 0.0692213002 0.0114447559
-0.0142574300 0.0708420879 0.0054282839
-0.0115256404 0.0717910415 0.0084013668
-0.0097100411 0.0705926523 0.0121191101
-0.0055795681 0.0718127497 0.0131735540
-0.0018075060 0.0713494942 0.0145872175
0.0040378431 0.0733242560 0.0120962749
0.0076544593 0.0711204635 0.0128542451
0.0098658217 0.0708241729 0.0117330506
0.0113689086 0.0727492846 0.0069933757
0.0133134222 0.0727430393 0.0011483514
0.0134692707 0.0749994872 0.0021227493
0.0139234454 0.0750378712 0.0054947587
0.0062621821 0.0750442868 0.0143160493
0.0115783752 0.0750462249 0.0105071289
0.0013077800 0.0750254375 0.0149181490
-0.0050872032 0.0750409775 0.0150078046
-0.0074847581 0.0750176873 0.0131702003
-0.0112999741 0.0749483018 0.0056646721
-0.0149051739 0.0750655039 0.0049902087
0.0085743313 0.0567463578 -0.0026682306
0.0071860719 0.0601432881 -0.0054122159
0.0063369305 0.0556619571 -0.0063599328
0.0057107138 0.0596372953 -0.0069200832
0.0041508379 0.0495618514 -0.0079525945
0.0025494800 0.0576494835 -0.0086150902
0.0014461334 0.0504695069 -0.0088564437
-0.0010153805 0.0537195373 -0.0089398142
-0.0015120133 0.0508046953 -0.0088455845
-0.0035889623 0.0619002086 -0.0082418317
-0.0045456331 0.0581019882 -0.0077414481
-0.0052738630 0.0519703659 -0.0072724457
-0.0079209227 0.0521913745 -0.0042552850
-0.0084455810 0.0551830858 -0.0030291461
-0.0086863837 0.0492804669 -0.0022504301
-0.0089430731 0.0492229793 -0.0007192511
-0.0088982800 0.0502407633 0.0011753306
0.0055895258 0.0779531917 -0.0002803108
0.0055498391 0.0740953005 0.0007392787
0.0051111583 0.0764858977 0.0022647543
0.0046221426 0.0836399347 0.0031443141
0.0037577363 0.0736510485 0.0041525641
0.0033294283 0.0707916116 0.0044915656
0.0016113631 0.0781163530 0.0053541391
0.0010176520 0.0739735661 0.0055172899
-0.0005903326 0.0775517301 0.0055613122
-0.0016324729 0.0689832417 0.0053523793
-0.0031792713 0.0799810326 0.0045982027
-0.0038875985 0.0809834917 0.0040172523
-0.0045151907 0.0732392549 0.0032964234
-0.0048688320 0.0663775195 0.0027758062
-0.0144408687 0.0691415741 0.0071534155
-0.0006928780 0.0690118145 0.0155759869
-0.0104356181 0.0689990544 0.0115025376
0.0163814707 0.0751929318 0.0036437047
0.0091997568 0.0752372660 0.0145219380
-0.0021705325 0.0750859338 0.0166698391
-0.0163800296 0.0755852750 0.0055806831
-0.0124809346 0.0794721726 0.0051407228
-0.0099804551 0.0799408084 0.0082814194
-0.0012514795 0.0798663372 0.0129880937
-0.0048912131 0.0797604632 0.0121860011
-0.0024943294 0.0772021790 0.0154807392
0.0023323947 0.0776119685 0.0151151908
0.0082680152 0.0761864877 0.0145604289
0.0098653418 0.0788445800 0.0099402781
0.0126873629 0.0778557393 0.0081889765
0.0121970833 0.0798086847 0.0046786168
0.0160779216 0.0768630383 0.0006419517
0.0048517454 0.0533240748 -0.0010359739
0.0048142700 0.0522944356 0.0010512586
0.0045734267 0.0544985728 0.0019021330
0.0033604142 0.0625819268 0.0035859980
0.0027962563 0.0634569139 0.0041073271
0.0010527635 0.0510319958 0.0048384821
-0.0002302696 0.0597781926 0.0049209265
-0.0021862877 0.0556991788 0.0044378493
-0.0032565768 0.0596033397 0.0037040932
-0.0046098913 0.0610423165 0.0019036444
-0.0048943828 0.0587266349 0.0008126881
0.0124736747 0.0846246090 0.0153377654
0.0029772911 0.0847623245 0.0191528549
-0.0170875047 0.0848056999 0.0026608453
-0.0180276410 0.0846945936 0.0082648206
-0.0021191953 0.0637546325 0.0033049699
-0.0102544175 0.0741711030 -0.0066176802
0.0120089697 0.0743068512 -0.0013707769
-0.0027936780 0.0807154846 -0.0125100206
-0.0085208516 0.0807014722 0.0094771031
0.0096924061 0.0747042864 0.0075740712
-0.0131873682 0.0815158498 -0.0051528163
0.0017840587 0.0814028277 -0.0137512027
0.0119283590 0.0816507847 -0.0083867715
0.0038351305 0.0818775023 -0.0146459409
-0.0083867247 0.0817166280 -0.0121327212
-0.0141928444 0.0815330201 -0.0001312886
0.0054504085 0.0824022057 -0.0153701428
-0.0127160953 0.0825021278 -0.0106265597
-0.0158283440 0.0822330290 0.0021615305
0.0080822213 0.0823044840 -0.0140406718
-0.0022239721 0.0827102991 -0.0167772603
-0.0170767639 0.0829011775 0.0027393061
0.0075638018 0.0835133578 -0.0167352510
-0.0086876637 0.0834597173 -0.0160176912
-0.0184149763 0.0835849508 -0.0008661854
0.0131370278 0.0837264885 -0.0132674924
-0.0020686793 0.0844994747 -0.0197636230
-0.0157650795 0.0839430273 -0.0106621938
-0.0052616766 0.0565094989 0.0015346195
-0.0046548692 0.0581878467 0.0028727163
-0.0035731077 0.0617384673 0.0041398926
-0.0019760277 0.0534629402 0.0051108960
-0.0007339403 0.0566602633 0.0054301700
0.0007186794 0.0518361258 0.0054346291
0.0022250231 0.0589135074 0.0050128851
0.0033911709 0.0498559374 0.0042806343
0.0044721959 0.0629568105 0.0031496985
0.0051987466 0.0623946382 0.0017328592
0.0054618162 0.0511131723 0.0002552334
0.0076340804 0.0484999977 -0.0023155974
0.0042602105 0.0484999977 0.0046308885
-0.0013964452 0.0484999977 -0.0055107024
0.0044570643 0.0484999977 -0.0039725531
-0.0046183387 0.0484999977 0.0032858053
-0.0054857707 0.0484999977 -0.0041324225
-0.0013173206 0.0484999977 0.0061118613
-0.0069328019 0.0446291494 0.0054740648
-0.0033463865 0.0481298906 0.0081354837
0.0036460208 0.0476724857 0.0080414562
0.0077143432 0.0466602865 0.0042908694
0.0087971203 0.0483239151 -0.0003567007
0.0050414611 0.0445000008 -0.0028653271
-0.0080508077 0.0445000008 0.0008376104
0.0050599455 0.0445000008 0.0040984608
-0.0081968927 0.0445000008 -0.0026149596
-0.0042857554 0.0445000008 0.0050886137
0.0026448488 0.0445000008 0.0073884425
0.0035992685 0.0410389200 -0.0013246482
-0.0011639630 0.0437464497 0.0053467752
0.0019970803 0.0630000010 0.0043438783
-0.0009389643 0.0630000010 -0.0045615290
0.0038890861 0.0641034230 0.0014709608
-0.0041337306 0.0659999996 0.0013875131
-0.0062750411 0.0397574232 0.0018882979
-0.0049712403 0.0396760334 0.0042025853
-0.0032773018 0.0389966239 0.0056499218
-0.0003249732 0.0406580554 0.0065400836
0.0015687322 0.0377278533 0.0063412549
0.0033026147 0.0357555393 0.0056040771
0.0053708211 0.0359425873 0.0037738662
0.0064780586 0.0353745928 0.0010686465
0.0026008825 0.0483730121 -0.0015753297
0.0032790214 0.0483739981 -0.0007840006
0.0023373000 0.0479978683 0.0023942736
0.0023861487 0.0491306648 0.0022555963
0.0027190906 0.0611263971 0.0013104031
0.0012088855 0.0512198884 0.0028258862
0.0003771352 0.0594251687 0.0029814891
0.0028515427 0.0335000008 -0.0052830310
0.0008209678 0.0335000008 0.0049308251
-0.0046087380 0.0335000008 0.0021270210
-0.0031645306 0.0425000004 0.0049706376
0.0001663023 0.0473705032 0.0034625071
-0.0032866358 0.0468997207 0.0010880438
-0.0028074226 0.0439196982 -0.0019948123
0.0012889836 0.0476000429 0.0029066562
-0.0009918875 0.0499922164 -0.0028664001
0.0008105741 0.0568416641 -0.0032036625
-0.0012784598 0.0536267141 0.0031184821
-0.0032547540 0.0578378820 0.0008123185
-0.0029411793 0.0559120502 -0.0006799122
-0.0025287766 0.0562820314 -0.0018506881
-0.0002250676 0.0363148736 0.0048333984
-0.0026524707 0.0353035713 0.0040492011
-0.0047019179 0.0389767890 0.0010603389
-0.0044258612 0.0401762005 -0.0019565629
-0.0023234109 0.0371236569 -0.0042543496
-0.0033508473 0.0639091874 -0.0008290236
-0.0006194427 0.0638177360 -0.0033695933
0.0022890116 0.0677238728 -0.0025838296
-0.0033394222 0.0678665075 -0.0026779019
0.0043621430 0.0676032909 -0.0003842404
0.0044849290 0.0675581972 0.0003509813
0.0033317367 0.0682548285 0.0009045401
0.0012260123 0.0634011149 0.0032447843
-0.0025332143 0.0645841270 0.0023528397
0.0014881563 0.0375585552 -0.0046190543
0.0038007913 0.0369307793 -0.0029962454
0.0048268696 0.0380509598 0.0004281576
0.0034124015 0.0343388734 0.0034105811
0.0006762445 0.0360490434 0.0048013179
0.0022534631 0.0459152604 -0.0026555789
0.0034052052 0.0461230363 0.0005623869
0.0007173613 0.0461159270 0.0033758075
0.0060110288 0.0348556670 -0.0025823759
0.0049622704 0.0385356787 -0.0042141209
0.0025839033 0.0359141880 -0.0059711870
0.0002815074 0.0336132593 -0.0065402255
-0.0027406642 0.0418092359 -0.0059244290
-0.0050362513 0.0405630539 -0.0041472803
-0.0059697399 0.0381902220 -0.0027409930
-0.0065588115 0.0367588617 -0.0000469930
0.0015444641 0.0640282135 -0.0038741101
0.0012905486 0.0425657803 -0.0052998141
-0.0023554086 0.0406720728 0.0038553962
0.0079733808 0.0446394203 -0.0037489393
0.0047114314 0.0466048815 -0.0073869448
-0.0009649451 0.0484749024 -0.0087777283
-0.0065877084 0.0451697683 -0.0058580840
-0.0086872923 0.0454117903 -0.0011841140
0.0051116416 0.0590870906 -0.0019370585
0.0045491098 0.0556476850 -0.0030460575
0.0033690590 0.0511468893 -0.0043008165
0.0021130722 0.0597570146 -0.0050590168
0.0004391969 0.0588637694 -0.0054680467
-0.0012648112 0.0558306652 -0.0053361557
-0.0026974408 0.0506432484 -0.0047679392
-0.0036924723 0.0584112952 -0.0040470520
-0.0044573359 0.0602922299 -0.0031864964
-0.0052655852 0.0544418447 -0.0015446391
-0.0054723859 0.0597860142 0.0002605451
-0.0011292139 0.0081744796 -0.0015620399
0.0002731490 0.0073864309 -0.0019394521
0.0008945929 -0.0117311026 -0.0017039882
0.0013463040 0.0111853533 -0.0014653961
0.0014987853 0.0119012087 -0.0012277838
0.0019402350 -0.0092277201 0.0002898166
0.0016828229 -0.0042736001 0.0009355809
0.0010859229 -0.0085304971 0.0015898208
-0.0021542732 0.0136169456 -0.0023697535
-0.0023217855 -0.0067501662 -0.0022036070
-0.0028886270 -0.0091526652 -0.0013803270
-0.0032348016 -0.0135908870 0.0000348373
-0.0031858670 0.0122493576 -0.0002807266
-0.0031500694 0.0153643365 0.0006198972
-0.0028219652 -0.0115747756 0.0014927095
-0.0021314929 0.0052799348 0.0024141011
-0.0018859363 0.0105824323 0.0026083243
-0.0008241188 -0.0063323842 0.0031171596
-0.0003494674 -0.0047183814 0.0031968470
0.0003759779 0.0008916195 0.0032112217
0.0011892673 0.0102674719 0.0029772496
0.0017907812 -0.0140000004 -0.0011929256
0.0020839264 0.0159999989 -0.0020492879
0.0018682538 0.0132407067 0.0025915081
0.0022966571 0.0005155840 0.0022489092
0.0027574096 -0.0136707766 0.0016805839
0.0030077178 0.0097386876 0.0011423001
0.0032085975 0.0020580357 0.0001318493
0.0029854149 0.0077900270 -0.0011770332
0.0026299098 -0.0134510937 -0.0018520680
0.0024237750 -0.0030888429 -0.0021291514
0.0020673880 0.0116950416 -0.0024774735
0.0015336409 -0.0051476547 -0.0028328126
0.0005790169 0.0072496579 -0.0031741763
-0.0007747754 -0.0129723835 -0.0031258221
-0.0009987038 0.0141350568 -0.0030313708
-0.0014548879 -0.0090508860 -0.0028464862
0.0003003927 0.0005676443 0.0019125125
0.0001505865 0.0125727993 0.0019195490
-0.0013118105 0.0061056455 0.0014885467
-0.0014191922 -0.0095439760 0.0013518141
-0.0019190040 -0.0099499826 0.0001621892
-0.0019124905 0.0105589108 0.0003008622
-0.0015424308 0.0051927695 -0.0012074601
-0.0009983405 -0.0006055536 -0.0016460244
-0.0065710196 0.0307435537 -0.0130042164
-0.0143552935 0.0293128542 0.0025432574
-0.0140995393 0.0375117732 -0.0050279565
0.0048330197 0.0378948184 0.0136975678
0.0071924763 0.0345594997 -0.0110878212
0.0135864011 0.0291499998 -0.0042962012
0.0067138638 0.0291499998 0.0121414184
-0.0103600092 0.0291499998 0.0097633984
-0.0124191501 0.0291499998 -0.0069833414
0.0063349986 0.0291499998 -0.0116186074
-0.0061814539 0.0379999988 0.0122452722
0.0097711815 0.0379999988 0.0103632835
0.0105342470 0.0379999988 -0.0089545196
-0.0046915999 0.0379999988 -0.0135700672
-0.0134011507 0.0379999988 0.0025342835
0.0052383705 0.0339050077 -0.0101333074
0.0070492298 0.0367293632 0.0111091403
0.0064217511 0.0320921835 0.0115538591
0.0064376641 0.0368466943 -0.0115316547
0.0050872349 0.0299728341 -0.0121981995
0.0131784273 0.0358858723 0.0006249894
-0.0038457338 0.0373454484 -0.0125993378
-0.0001701223 0.0370947742 -0.0131555351
0.0017426502 0.0378865563 -0.0130823266
0.0088160534 0.0322461713 -0.0098556229
0.0108397772 0.0375436913 -0.0075296869
0.0121064712 0.0378469544 -0.0051502450
0.0128946120 0.0342669294 -0.0027602473
0.0132358346 0.0313036613 -0.0004639368
0.0125379526 0.0375836014 0.0041759009
0.0112447122 0.0341837921 0.0068255713
0.0103383129 0.0371867073 0.0082460025
-0.0079939483 0.0314940657 -0.0126765391
-0.0099665923 0.0333026251 -0.0111828248
-0.0120542128 0.0339802929 -0.0088907896
-0.0135509214 0.0345460924 -0.0063866811
-0.0144774783 0.0361802575 -0.0039044664
-0.0149775696 0.0352972981 0.0000526490
-0.0148652621 0.0337319055 0.0018776892
-0.0141005718 0.0359161239 0.0050445734
-0.0126605890 0.0314806984 0.0079827780
-0.0109583517 0.0299694334 0.0101812640
-0.0068609906 0.0306651792 0.0133265591
-0.0047890678 0.0315521461 0.0141911507
-0.0012778521 0.0348279847 0.0149263734
0.0007515156 0.0353504700 0.0149713458
0.0045679428 0.0367401553 0.0142645429
-0.0062349646 0.0331416820 -0.0136311846
0.0149510528 0.0336103221 0.0009651978
0.0141046428 0.0313430294 0.0050529084
0.0132088726 0.0315753546 0.0070696242
0.0110217374 0.0307347530 0.0101456457
0.0100918394 0.0334053659 0.0110665886
0.0072218226 0.0372246478 0.0131031079
0.0148414403 0.0301516088 -0.0018934376
0.0141371759 0.0346838679 -0.0048976120
0.0127432287 0.0338409612 -0.0078367783
0.0105244727 0.0327811859 -0.0106502208
0.0092436518 0.0337512999 -0.0117804025
0.0061263945 0.0333576942 -0.0136662260
0.0038269405 0.0304607559 -0.0144959254
0.0003848255 0.0343553460 -0.0149737016
-0.0024028810 0.0343628366 -0.0147909762
-0.0048803143 0.0336723475 -0.0141619474
-0.0064563843 0.0296040020 0.0114637292
-0.0129771786 0.0360218272 0.0023221206
-0.0131889882 0.0327672255 -0.0009812186
0.0032977610 0.0361615172 0.0127501028
0.0015886604 0.0332417440 0.0131171805
-0.0011152143 0.0305143565 0.0131752333
-0.0036420149 0.0318597624 0.0127152249
-0.0084091468 0.0366669050 0.0101368624
-0.0104331065 0.0351108744 0.0080156513
-0.0114992895 0.0304170975 0.0065272824
-0.0127036417 0.0321807574 0.0037245476
-0.0129705199 0.0309149828 -0.0026406441
-0.0119041348 0.0297935446 -0.0057651602
-0.0103189267 0.0376033023 -0.0082344004
-0.0091589232 0.0361033628 -0.0095286816
0.0131477815 0.0377453912 0.0066433561
-0.0009841218 0.0376550715 -0.0147703770
0.0130288369 0.0293109958 -0.0065637753
0.0140935177 0.0326119002 0.0007017552
-0.0002180724 0.0324027631 -0.0071658337
0.0054108966 0.0324999988 -0.0006661139
0.0047407987 0.0312327221 0.0036305094
-0.0029080140 0.0298388461 0.0052225409
-0.0030326297 0.0300996349 -0.0088133170
-0.0031462683 0.0360944764 -0.0084210494
-0.0055984020 0.0309471215 -0.0069395627
0.0047049605 0.0365115029 0.0067579551
0.0086104038 0.0297580143 0.0032060137
0.0075473733 0.0421816821 -0.0088275660
0.0087833577 0.0437062411 -0.0066867780
0.0092783301 0.0388070442 -0.0058294609
0.0083978621 0.0422072874 0.0073544761
0.0097664293 0.0399919209 0.0049840480
0.0042137633 0.0422221941 0.0109500000
0.0017050935 0.0432682216 0.0109500000
-0.0014479588 0.0425768546 0.0109500000
-0.0065867858 0.0413445182 0.0104913528
-0.0069595862 0.0390525653 0.0098456432
-0.0104958496 0.0420855841 0.0037206559
-0.0065887382 0.0425098892 -0.0104879704
-0.0089547367 0.0405668954 -0.0063899410
-0.0121170753 0.0409272014 -0.0009126092
-0.0044753045 0.0432349834 -0.0109500000
-0.0035750342 0.0391930302 -0.0109500000
0.0022207101 0.0429887098 -0.0109500000
0.0000254145 0.0385364919 -0.0104950350
-0.0111353433 0.0387409397 -0.0015530803
-0.0062680696 0.0444809631 -0.0085034590
0.0081525351 0.0307429516 0.0047873318
-0.0008403996 0.0305765508 -0.0094368400
0.0013421774 0.0341683852 -0.0093891383
0.0042193929 0.0371607167 -0.0084480211
0.0060081233 0.0343077741 -0.0073344427
0.0077208410 0.0368251049 -0.0054279766
0.0090601179 0.0382070093 -0.0026613618
0.0094222526 0.0309515368 0.0009956653
0.0093995828 0.0305822988 0.0012205277
0.0077572490 0.0380557053 0.0054010168
0.0015845599 0.0295000002 0.0065373880
-0.0024162448 0.0295000002 -0.0058481564
0.0079312970 0.0295000002 0.0002594177
-0.0054964972 0.0295000002 0.0053022640
0.0047332821 0.0295000002 -0.0049531805
-0.0087754510 0.0445000008 -0.0030168810
-0.0053353400 0.0445000008 0.0020811380
-0.0093255888 0.0445000008 0.0002955397
0.0091058576 0.0445000008 0.0031332769
0.0056777516 0.0445000008 0.0058288346
-0.0055912710 0.0445000008 -0.0033539020
0.0026969081 0.0445000008 -0.0055276787
-0.0029085212 0.0445000008 -0.0050937490
0.0074240722 0.0445000008 -0.0062483807
0.0086002260 0.0445000008 -0.0040138658
-0.0024366559 0.0445000008 0.0097413580
0.0072428509 0.0384999998 -0.0071771507
-0.0057433214 0.0384999998 -0.0084029550
-0.0084355321 0.0384999998 -0.0049166223
0.0002611157 0.0297856352 0.0091743601
0.0014852358 0.0325003486 0.0093356320
-0.0000341046 0.0325040077 0.0094410908
-0.0037636612 0.0370339704 0.0086601213
-0.0059108800 0.0342004629 0.0073685156
-0.0075317632 0.0306362827 0.0057821719
-0.0040113685 0.0335429378 0.0037385576
-0.0029134386 0.0431203340 0.0046390757
0.0002437275 0.0437940112 0.0054663395
0.0013872827 0.0353392469 0.0052941635
0.0032284051 0.0411011726 0.0044183341
0.0046047407 0.0411812740 0.0029523872
0.0050683253 0.0444118359 0.0019699693
0.0054321426 0.0397595308 -0.0005968202
0.0049542841 0.0433138223 -0.0023440907
0.0037950864 0.0401052891 -0.0039294119
0.0021256455 0.0369760685 -0.0050429944
0.0006991891 0.0419830187 -0.0054458757
-0.0012672421 0.0399763861 -0.0052972810
-0.0033733062 0.0351384820 -0.0042638467
-0.0044142109 0.0353865234 -0.0032270009
-0.0050827432 0.0418687402 -0.0019672713
-0.0054168633 0.0373597343 0.0006159955
-0.0049013528 0.0414838427 0.0024616081
-0.0089507626 0.0340791645 0.0031397770
-0.0094549915 0.0302220174 -0.0000165300
-0.0089338161 0.0363841619 -0.0030542697
-0.0064983422 0.0369270197 -0.0069051017
-0.0085426342 0.0299766387 0.0038165549
0.0103004050 0.0443905898 0.0031087353
-0.0063492490 0.0442106064 0.0095405067
0.0052493677 0.0386932989 0.0098673985
-0.0057481670 0.0323306175 0.0016211311
-0.0043109593 0.0300935976 -0.0041116399
0.0031957157 0.0323366342 -0.0050246748
0.0062463652 0.0328187809 0.0045300173
0.0099184399 0.0180613491 0.0006608817
0.0058788843 0.0177345478 -0.0028578839
0.0057458816 0.0150113281 0.0014981560
0.0089084970 0.0126553148 -0.0004584445
0.0073126840 0.0089003804 0.0019986561
0.0059143613 0.0169250204 0.0000124202
0.0062564879 0.0191935235 -0.0007578605
0.0078836927 0.0135421074 -0.0006402345
0.0051937461 0.0224999806 0.0016828565
0.0089961317 0.0219812470 0.0014044722
0.0067579848 0.0189999994 0.0028263523
0.0089385475 0.0198491316 -0.0015294323
0.0046668250 0.0191078686 -0.0007416292
0.0080533204 0.0114203047 0.0000329665
0.0071862613 0.0237645027 0.0010586122
0.0063605765 0.0225287129 0.0008172571
0.0067674444 0.0088176407 -0.0019796847
0.0066662079 0.0137388975 -0.0019245003
-0.0015333862 0.0166183815 0.0028578839
0.0020863052 0.0167766827 -0.0021021813
-0.0023948676 0.0167342076 -0.0015677352
0.0005801292 0.0142101332 0.0018872838
0.0017785202 0.0075673064 -0.0005989428
-0.0008545963 0.0099886705 0.0019734247
-0.0010871547 0.0136439682 -0.0000061845
0.0000663667 0.0218535121 -0.0010908546
0.0007689180 0.0195633699 -0.0007437882
-0.0011488453 0.0222570366 0.0021728548
0.0023374537 0.0223722010 0.0008075781
0.0003306198 0.0159999989 -0.0021638527
0.0007866361 0.0226433171 -0.0023395597
-0.0024216630 0.0217006692 -0.0003813348
0.0009856833 0.0177722459 0.0004219000
0.0000163587 0.0157770533 0.0010880299
-0.0015614399 0.0088270778 0.0012994064
0.0005253141 0.0080317383 -0.0018277993
-0.0016485656 0.0148560421 -0.0009936013
0.0062762101 -0.0045933513 -0.0018045174
0.0060654316 0.0152085885 -0.0017559882
0.0078289466 0.0056168448 -0.0017836523
0.0079633533 -0.0100799579 -0.0017154456
0.0085726305 -0.0072559744 -0.0011749470
0.0089559025 -0.0070544806 -0.0000983819
0.0089534698 0.0057168851 0.0002393949
0.0086369156 0.0062616595 0.0011233667
0.0045639824 -0.0093253933 -0.0020882215
0.0039494856 -0.0122401529 -0.0010642608
0.0038859148 0.0106449838 -0.0008171396
0.0037671469 0.0045883514 -0.0000042513
0.0038631890 0.0021156955 0.0007836179
0.0040600818 -0.0108699503 0.0013129370
0.0047826531 -0.0119224363 0.0023391130
0.0045389067 0.0141796955 0.0020843423
0.0058376525 -0.0078481132 0.0030196420
0.0061214397 0.0100586125 0.0031154977
0.0072123783 -0.0037009648 0.0032097089
0.0076253566 0.0097843727 0.0031405613
0.0085102312 0.0058936975 0.0028493555
0.0093112892 0.0042961994 0.0022466849
0.0057305519 -0.0140000004 0.0019085567
0.0050781455 0.0159999989 0.0006514701
0.0097859011 -0.0080418460 0.0015559068
0.0100322733 -0.0007708054 0.0011124114
0.0102218753 -0.0082140534 0.0001346974
0.0102112021 0.0130352844 -0.0001902108
0.0101642439 0.0150778456 -0.0006112158
0.0094907804 -0.0128420336 -0.0019935789
0.0093160230 0.0091223400 -0.0022235185
0.0088189320 0.0044208204 -0.0026604489
0.0078457179 -0.0134537216 -0.0030828160
0.0072402556 0.0124536801 -0.0032087995
0.0062210646 0.0132304712 -0.0031253392
0.0054148412 -0.0115894389 -0.0028188640
0.0049133324 0.0046522866 -0.0024757105
0.0077667012 0.0022097343 0.0018296137
0.0072239600 -0.0118267118 0.0019706026
0.0061179214 -0.0134220523 0.0017621977
0.0058373347 -0.0030782628 0.0016056499
0.0052528612 -0.0093071743 0.0009042608
0.0050458308 0.0043275064 0.0001763889
0.0052411854 -0.0083222313 -0.0008890949
0.0055258165 -0.0042990563 -0.0013096715
-0.0025125635 0.0226015971 -0.0138945755
-0.0056749150 0.0225699592 -0.0126376256
-0.0045066903 0.0232175681 -0.0128556288
0.0090810954 0.0233648227 -0.0099328979
-0.0143002900 0.0244022259 0.0007474221
0.0010280988 0.0241488286 -0.0135675580
-0.0134031275 0.0239845714 -0.0025966439
-0.0052023105 0.0244824746 0.0136354999
0.0084194366 0.0244950043 0.0122834558
-0.0006062333 0.0209643710 -0.0144193042
0.0041656821 0.0190641109 -0.0118324836
0.0134655365 0.0207040186 0.0043769821
0.0137181905 0.0203913805 -0.0018449841
0.0103104634 0.0191397822 -0.0072717686
0.0084598479 0.0194886693 0.0098076945
0.0021848529 0.0195281223 0.0127988686
-0.0062296131 0.0290000010 -0.0133237423
-0.0126906901 0.0290000010 -0.0044509488
-0.0122376994 0.0290000010 0.0062050614
-0.0045060840 0.0290000010 0.0132843473
0.0058304991 0.0290000010 0.0119792117
0.0132835258 0.0290000010 0.0037862703
0.0118436377 0.0290000010 -0.0069548631
0.0042073757 0.0290000010 -0.0140438244
-0.0089825774 0.0219456484 0.0119062346
0.0124650766 0.0218052866 0.0082444228
0.0015860183 0.0373360183 -0.0123651413
-0.0093339028 0.0379264611 0.0028757690
-0.0094542785 0.0312310883 0.0063350045
-0.0029316687 0.0356412376 0.0113214511
-0.0101136626 0.0331999995 -0.0057171954
-0.0080391425 0.0348925476 -0.0074032587
-0.0089337869 0.0357059734 -0.0062423543
0.0022998926 0.0331999995 0.0114612391
0.0023998745 0.0332291488 0.0106182524
-0.0013092366 0.0374828178 0.0108165005
0.0117540464 0.0335150519 0.0053428264
-0.0092149835 0.0350957353 0.0038814761
0.0108354343 0.0356608778 -0.0025309340
0.0024439381 0.0331999995 -0.0120052508
0.0078940064 0.0355848670 -0.0075138345
0.0020830252 0.0351144339 -0.0106789177
0.0012014381 0.0319407035 -0.0124312168
-0.0012500000 0.0334593013 -0.0109012448
0.0056778751 0.0268833003 -0.0020999999
0.0093263663 0.0285000000 0.0020167043
0.0002900779 0.0285000000 0.0064340410
-0.0060022562 0.0285000000 0.0075174284
-0.0058085706 0.0285000000 0.0030131390
0.0001096825 0.0285000000 -0.0063427288
0.0011925822 0.0285000000 -0.0059677824
-0.0074652626 0.0285000000 -0.0019373202
-0.0025289352 0.0285000000 -0.0081843537
0.0021642691 0.0269855750 0.0055714616
-0.0048576252 0.0274613829 0.0033807911
-0.0048900791 0.0050810161 0.0076348915
0.0002285728 -0.0011403889 0.0059071273
-0.0103657532 0.0006338462 0.0061950593
-0.0061515661 -0.0041542714 0.0064992504
0.0111915359 0.0047623330 0.0051394468
0.0039349941 -0.0051930128 0.0079678094
-0.0104960049 0.0009263224 -0.0055313708
-0.0069521721 -0.0035638118 -0.0061514998
0.0095255453 -0.0009053653 -0.0075742407
0.0029069712 -0.0055470137 -0.0068337691
-0.0027227511 -0.0054275945 -0.0080000004
-0.0064648761 -0.0002537653 -0.0080000004
-0.0060277554 -0.0017433921 -0.0080000004
-0.0043997569 0.0021674986 -0.0080000004
0.0073657194 -0.0023607149 -0.0080000004
0.0091873895 0.0006240404 -0.0080000004
0.0050636428 0.0030962985 -0.0080000004
0.0008165846 0.0058522755 -0.0080000004
-0.0005876248 0.0039608241 -0.0080000004
-0.0077717570 0.0062031554 -0.0080000004
0.0062901649 0.0084999995 -0.0085193035
-0.0034471898 0.0084999995 -0.0101044536
-0.0020155519 0.0084999995 -0.0111753741
-0.0089867904 0.0037794921 0.0080000004
0.0011988532 -0.0048046880 0.0080000004
-0.0034443173 -0.0026167442 0.0080000004
-0.0020864036 0.0003184596 0.0080000004
0.0042141512 0.0039873186 0.0080000004
0.0052830678 0.0079226114 0.0080000004
0.0021080784 0.0059402404 0.0080000004
-0.0057058729 0.0076619287 0.0080000004
0.0079957100 0.0008168164 0.0080000004
0.0053167933 -0.0037120976 0.0080000004
-0.0015496943 0.0084999995 0.0082719044
0.0072191502 0.0084999995 0.0096109997
0.0045461237 0.0084999995 0.0108128057
0.0015429349 0.0032831299 -0.0049999999
0.0054200603 0.0108077196 -0.0049999999
0.0013535337 0.0060465561 -0.0049999999
0.0052634657 0.0110687214 -0.0049999999
-0.0044001465 0.0051157582 -0.0049999999
-0.0080980511 0.0077359323 -0.0049999999
-0.0105261883 0.0062810971 -0.0049999999
0.0065781725 0.0107448128 -0.0049999999
0.0075805905 0.0069838562 -0.0049999999
0.0111325970 0.0102060157 -0.0049999999
-0.0050434096 0.0188345321 -0.0049999999
-0.0086232332 0.0179947695 -0.0049999999
0.0020080988 0.0128991850 -0.0049999999
-0.0040236817 0.0188788189 -0.0049999999
0.0018538480 0.0175557194 -0.0049999999
-0.0008036540 0.0132820075 -0.0049999999
-0.0040785982 -0.0032122218 -0.0049999999
-0.0020504848 -0.0007619926 -0.0049999999
-0.0067213884 0.0036272198 -0.0049999999
-0.0022784305 0.0023953311 -0.0049999999
0.0100692784 0.0016027980 -0.0049999999
0.0061300037 -0.0004618029 -0.0049999999
0.0107293297 0.0169591115 0.0049999999
0.0063728564 0.0062271333 0.0049999999
0.0082925947 0.0148690207 0.0049999999
0.0100678390 0.0086550512 0.0049999999
0.0108269793 0.0090323203 0.0049999999
0.0095455059 0.0031111435 0.0049999999
0.0021015817 -0.0034538024 0.0049999999
0.0069050344 0.0019797440 0.0049999999
-0.0022356601 0.0042523350 0.0049999999
0.0026278427 -0.0025416418 0.0049999999
0.0080987410 -0.0003507577 0.0049999999
-0.0076036474 0.0088170801 0.0049999999
-0.0112130831 0.0087745988 0.0049999999
0.0076307023 0.0176849676 0.0049999999
-0.0025587581 0.0101820456 0.0049999999
-0.0033635167 0.0131840062 0.0049999999
-0.0044476394 0.0112438670 0.0049999999
0.0053782683 0.0153021145 0.0049999999
-0.0027227581 0.0153700023 0.0049999999
-0.0064335145 0.0026485055 0.0049999999
-0.0097660970 0.0011075683 0.0049999999
-0.0019108518 -0.0004220365 0.0049999999
-0.0011054434 0.0195296240 -0.0017010625
0.0019870766 0.0231611505 0.0003098449
0.0022085447 0.0326480857 0.0094347555
0.0057452215 0.0319607968 0.0071728107
0.0034474120 0.0370461040 0.0079901858
-0.0037991456 0.0353093287 -0.0073163619
-0.0107066534 0.0083693372 -0.0064085619
-0.0092708214 0.0164275984 -0.0083153116
-0.0108436046 0.0185965165 -0.0062008881
-0.0075770912 0.0092378923 -0.0099300301
-0.0073313194 0.0134153451 -0.0101203656
-0.0046782422 0.0173653221 -0.0115835277
-0.0026791442 0.0121170217 -0.0121892055
-0.0006655919 0.0164468449 -0.0124585917
0.0008758913 0.0112811930 -0.0124447471
0.0033119500 0.0106004480 -0.0120437162
0.0052267110 0.0085968806 -0.0113282725
0.0073119188 0.0169367275 -0.0101355456
0.0094630445 0.0105754228 -0.0081430512
0.0107519215 0.0052409873 -0.0063526670
0.0100115113 0.0085356401 -0.0074398889
0.0109131078 0.0115232360 -0.0060684398
-0.0010083748 0.0254999995 -0.0025793162
-0.0046692332 0.0254999995 0.0013764337
0.0007169616 0.0254999995 0.0039617359
0.0090390585 0.0190000013 0.0027606381
-0.0036610384 0.0190000013 0.0009419550
0.0002145338 0.0190000013 0.0035747227
-0.0081161806 0.0190000013 0.0046099517
0.0039219721 0.0190000013 -0.0032618122
0.0027985229 0.0190000013 -0.0023088250
0.0098657890 0.0190000013 -0.0032765392
0.0021222767 0.0190000013 0.0010723306
-0.0058605712 0.0190000013 -0.0018617084
0.0050114503 0.0212642241 -0.0004040634
0.0078977892 0.0223162284 -0.0018668039
0.0082326080 0.0357999988 -0.0082573126
0.0100048663 0.0363182267 -0.0082923326
-0.0086804711 0.0295198769 0.0043227029
-0.0074715493 0.0303568860 -0.0062164079
-0.0085199290 0.0357230022 -0.0047229658
-0.0095244056 0.0314727887 -0.0020542234
-0.0097192722 0.0297198268 0.0004027517
-0.0095362807 0.0374077742 0.0017885316
-0.0058704248 0.0378197263 0.0077472281
-0.0043682798 0.0372423140 0.0087153255
-0.0013578135 0.0353925117 0.0096356526
0.0005040482 0.0360418074 0.0097117258
-0.0119823499 0.0379999988 -0.0024907631
-0.0065182631 0.0379999988 -0.0092193644
-0.0044282717 0.0379999988 -0.0078091737
0.0053043629 0.0379999988 -0.0098833540
0.0097839102 0.0379999988 -0.0020882090
-0.0076962849 0.0379999988 0.0104005324
-0.0015989649 0.0379999988 0.0107631802
0.0029554098 0.0379999988 0.0107733097
0.0072592726 0.0304795304 0.0064858077
0.0096058214 0.0328393216 0.0014772701
-0.0109347819 0.0357999988 0.0011198764
0.0071634698 0.0357999988 0.0088593883
-0.0128348613 0.0370727262 -0.0018906160
0.0066938009 0.0364291948 0.0110056890
-0.0127167163 0.0311631564 0.0025061301
-0.0106021056 0.0317558929 0.0075113465
-0.0027445918 0.0309658333 0.0126653682
0.0005485631 0.0325140374 0.0129202663
0.0076232960 0.0319035213 0.0104070189
0.0099108860 0.0294421604 0.0083649220
0.0122582546 0.0372483366 0.0043021591
0.0129464593 0.0353028178 0.0006781791
-0.0082639900 0.0309881446 0.0100214981
-0.0058707398 0.0371797548 0.0115824210
0.0108795864 0.0110615794 0.0061141493
0.0090235127 0.0189461286 0.0085730455
0.0103760206 0.0063532223 0.0069368257
0.0084439957 0.0151446631 0.0092058909
0.0064068916 0.0133082981 0.0107130485
0.0044560491 0.0108134420 0.0116673264
0.0030658178 0.0110573880 0.0121138363
0.0011934728 0.0184559489 0.0124257506
-0.0023747817 0.0155766604 0.0122486614
-0.0043667875 0.0120878152 0.0116976490
-0.0060151284 0.0140933322 0.0109558807
-0.0076655071 0.0185446373 0.0098450007
-0.0092647503 0.0153570812 0.0083297986
-0.0102027452 0.0054914732 0.0072083435
-0.0108138236 0.0143286844 0.0062349816
-0.0149073453 0.0249949862 0.0015317696
-0.0138206383 0.0274792104 0.0057736884
-0.0114288249 0.0254311401 0.0096900729
-0.0075420002 0.0270630728 0.0129365668
-0.0030173921 0.0280023470 0.0146690134
0.0018103558 0.0274913854 0.0148902110
0.0071999026 0.0247604367 0.0131433721
0.0108414349 0.0260311041 0.0103330658
0.0139516891 0.0280109393 0.0054825055
0.0149896541 0.0278381477 0.0001710337
0.0144163735 0.0248502158 -0.0040638945
0.0123201719 0.0266503474 -0.0085523529
0.0085414510 0.0259219571 -0.0123287130
0.0044943695 0.0270004679 -0.0142822321
-0.0011853744 0.0284353486 -0.0149282982
-0.0060477747 0.0264560366 -0.0136972821
-0.0110020607 0.0250413077 -0.0101724400
-0.0128196409 0.0280537175 -0.0077354192
-0.0148789041 0.0256804988 -0.0018720556
0.0123264316 0.0371592759 -0.0040638760
0.0011930840 0.0306751044 -0.0129235430
0.0107297697 0.0330156425 -0.0071931371
0.0055877963 0.0322579646 -0.0116595961
-0.0014070983 0.0348265421 -0.0129184057
-0.0076965931 0.0305817416 -0.0104449294
-0.0116418075 0.0300933986 -0.0056572687
-0.0128346969 0.0295447035 -0.0011045684
-0.0042977694 0.0340895861 -0.0122558392
-0.0067726240 0.0377441185 -0.0110756170
-0.0018163169 0.0373392669 -0.0095660695
0.0096673500 0.0323393154 -0.0010232805
0.0093777703 0.0342801481 -0.0025734253
0.0085812123 0.0313676945 -0.0046193996
0.0065205389 0.0291686746 -0.0072155637
0.0050862969 0.0332033730 -0.0082921508
0.0028816163 0.0376710810 -0.0092941816
0.0074642409 0.0272480496 0.0019903216
0.0051638854 0.0231188233 0.0008055996
0.0012843567 0.0224283309 0.0015721580
-0.0016547225 0.0232253463 0.0012287068
-0.0004953547 0.0010932419 0.0061893203
-0.0054989601 0.0073530750 0.0053940858
-0.0040284394 0.0281090786 -0.0043144464
0.0035653107 0.0258309478 -0.0047845204
-0.0101558351 0.0352769339 0.0039959045
0.0026986434 0.0216169672 -0.0146900757
-0.0143751236 0.0218738379 -0.0040154693
-0.0072445315 0.0208688677 0.0123749148
-0.0120912788 0.0212470594 0.0084351517
-0.0131173543 0.0197074240 0.0009773900
-0.0112009593 0.0193787581 0.0063200180
-0.0117528267 0.0213274229 -0.0088336127
-0.0055903623 0.0214041961 -0.0136834170
0.0013155973 0.0243890267 0.0141201995
-0.0033098235 0.0242653522 0.0134910459
-0.0133169254 0.0236705798 0.0020684953
0.0119733275 0.0226344609 0.0072976770
-0.0112220828 0.0225921688 0.0081771092
-0.0135578261 0.0227497685 0.0018497620
-0.0133668638 0.0230063463 0.0032309871
