0.0143760724 -0.0201573091 0.0010581655
0.0168329391 -0.0188737740 0.0046000001
-0.0203297014 -0.0204242597 0.0046000001
-0.0164714027 0.0262401447 0.0020908503
0.0156090007 0.0258064385 0.0033453731
0.0181178463 0.0244037081 0.0047383144
-0.0015267707 0.0324085746 0.0037603528
-0.0212425751 0.0357574257 0.0047738267
0.0026312824 0.0178206992 0.0044804024
-0.0169026351 0.0034330537 0.0028766828
-0.0165964507 0.0009276006 0.0050365315
-0.0007430414 -0.0170583453 0.0046000001
0.0180210507 0.0024159867 0.0006950561
-0.0016572440 -0.0064933194 0.0030000000
0.0030258567 -0.0018511254 0.0030000000
0.0029252791 0.0012701851 0.0030000000
-0.0006334439 -0.0071443937 0.0030000000
0.0050571864 0.0077768300 0.0030000000
-0.0097314131 0.0020653197 0.0041787742
0.0061874665 -0.0320030162 0.0038038497
-0.0111417422 -0.0288011462 0.0017517135
-0.0093964461 0.0363870062 0.0014437588
0.0117772525 0.0359737764 0.0051175857
0.0088167163 0.0341773633 0.0008378414
0.0021664924 0.0063042939 -0.0020000001
-0.0059881388 0.0024637258 -0.0020000001
0.0071287361 -0.0049731700 -0.0000311107
0.0051720973 -0.0112014764 0.0038999999
-0.0072780245 0.0149279070 0.0021578136
-0.0090251938 -0.0125795900 0.0038999999
0.0225000009 -0.0175314169 0.0025116947
0.0225000009 -0.0079530135 0.0052509762
0.0225000009 0.0095670093 0.0001532438
0.0225000009 0.0048647541 0.0057363754
0.0225000009 0.0282798569 0.0058618402
0.0108468644 -0.0375000015 0.0056227187
0.0032110800 -0.0375000015 0.0007772890
-0.0058604676 -0.0375000015 0.0004735780
-0.0225000009 0.0303198565 0.0000615556
-0.0225000009 0.0165538233 0.0018392108
-0.0225000009 -0.0112609552 0.0055396641
-0.0225000009 0.0001599075 0.0015790528
-0.0225000009 -0.0231329995 0.0004193466
-0.0225000009 -0.0336621582 0.0055470711
0.0093694630 0.0375000015 0.0047506307
0.0062501034 0.0375000015 0.0004888787
-0.0183196974 0.0375000015 0.0011731720
0.0193389300 -0.0298409062 0.0060000001
0.0207608983 0.0229063261 0.0060000001
0.0132424272 0.0172557642 0.0060000001
0.0176824739 0.0294017612 0.0060000001
-0.0208567245 -0.0047339298 0.0060000001
-0.0066101196 -0.0099815092 0.0060000001
-0.0057052956 0.0125932993 0.0060000001
0.0173727679 0.0361995174 0.0060000001
-0.0157125751 0.0348104907 0.0060000001
-0.0199698311 -0.0315319119 0.0060000001
-0.0065877117 -0.0258213585 0.0060000001
0.0158658594 -0.0365560347 0.0060000001
-0.0150803370 0.0096545317 0.0060000001
-0.0144123169 -0.0108088612 0.0060000001
-0.0113047705 -0.0028853935 0.0060000001
0.0052497770 -0.0102528320 0.0060000001
-0.0202661405 0.0270758677 0.0060000001
-0.0192521479 0.0264089767 0.0060000001
-0.0222053196 -0.0182433365 0.0060000001
-0.0220636442 0.0156871091 0.0060000001
-0.0150036109 0.0052862645 0.0060000001
-0.0062730705 -0.0204420662 0.0060000001
0.0013893414 0.0272134255 0.0060000001
-0.0045407630 0.0208996433 0.0060000001
-0.0014610102 0.0135660429 0.0060000001
0.0024239174 -0.0267797680 0.0060000001
-0.0026123010 -0.0353717049 0.0060000001
-0.0053263582 0.0198739264 0.0060000001
-0.0036672386 -0.0259319060 0.0060000001
0.0086188556 -0.0243050562 0.0060000001
0.0173916212 0.0166437495 0.0060000001
0.0181056553 0.0055632806 0.0060000001
0.0149483119 -0.0049210611 0.0060000001
0.0191871124 -0.0100734369 0.0060000001
0.0211656496 -0.0026498940 0.0060000001
-0.0137002320 0.0315899078 0.0000000000
-0.0131270202 -0.0283419798 0.0000000000
-0.0080258930 0.0280930309 0.0000000000
0.0220234503 -0.0229340175 0.0000000000
0.0123176191 -0.0201925650 0.0000000000
-0.0188515832 0.0327099365 0.0000000000
0.0149238818 0.0279149399 0.0000000000
-0.0010650076 0.0367542100 0.0000000000
0.0042259554 0.0113234998 0.0000000000
-0.0031337207 -0.0210318328 0.0000000000
0.0209491524 0.0020885188 0.0000000000
0.0177332150 -0.0035485197 0.0000000000
0.0055804875 -0.0236513175 0.0000000000
0.0101547489 0.0359371675 0.0000000000
-0.0095064643 0.0033088892 0.0000000000
-0.0049953903 -0.0071946592 0.0000000000
0.0065059320 0.0094904302 0.0000000000
-0.0184377210 0.0111184135 0.0000000000
-0.0123595996 -0.0164074828 0.0000000000
-0.0212306299 -0.0028582849 0.0000000000
-0.0177483749 0.0037839248 0.0000000000
0.0154286208 -0.0072320858 0.0000000000
0.0161110435 0.0163948940 0.0000000000
0.0146717644 0.0104070142 0.0000000000
0.0047530454 -0.0178955998 0.0000000000
0.0070870188 0.0228001438 0.0000000000
0.0132317010 0.0256488985 0.0000000000
0.0034664356 -0.0329632928 0.0000000000
-0.0046848086 -0.0373877850 0.0000000000
-0.0085457303 0.0161051822 0.0000000000
-0.0161667421 -0.0085404839 0.0000000000
-0.0049995326 0.0241546880 0.0000000000
-0.0207046383 -0.0353736613 0.0000000000
-0.0208984600 -0.0163388447 0.0000000000
-0.0047739471 0.0115805870 0.0012213172
0.0093310890 -0.0131522553 0.0034878593
0.0062339995 0.0321278835 0.0050979664
-0.0118046335 0.0292208251 0.0017822066
-0.0068035468 -0.0347049639 0.0026927916
0.0133549363 -0.0342808952 0.0038205520
0.0046677824 -0.0087502546 0.0041264849
0.0174378767 -0.0030485295 0.0003829551
-0.0001681777 -0.0189514540 0.0027317041
-0.0171108998 -0.0033404594 0.0008101714
-0.0030065947 0.0126012924 0.0006242739
0.0014757764 -0.0324691911 0.0027978953
0.0135548145 0.0226740127 0.0008446858
-0.0180196241 -0.0245857795 0.0053597284
0.0210408518 -0.0242634405 0.0008143836
0.0301818497 0.0218948140 0.0535926713
-0.0344912469 -0.0220830224 0.0500343271
-0.0130482465 0.0189999994 0.0510171881
-0.0032444095 0.0185495152 0.0511999987
0.0246977820 0.0178455196 0.0511999987
-0.0212135909 0.0164999999 0.0503055432
-0.0357139828 -0.0015788326 0.0520000011
-0.0056802248 0.0241519927 0.0520000011
0.0356336628 0.0033082473 0.0520000011
0.0205696429 -0.0246105921 0.0520000011
-0.0305512553 -0.0248190846 0.0520000011
-0.0364999995 -0.0106766451 0.0521427884
0.0100625694 -0.0250000004 0.0535108429
0.0217592896 -0.0250000004 0.0538727519
0.0364999995 -0.0018854568 0.0527186080
0.0144644010 0.0250000004 0.0529085035
0.0047047922 0.0250000004 0.0539865932
0.0102278421 -0.0116385316 0.0510881727
0.0102281053 0.0154032223 0.0529999994
0.0152661529 -0.0046335357 0.0529999994
0.0070807461 -0.0155899146 0.0529999994
-0.0141006642 -0.0008908497 0.0529999994
-0.0061902277 -0.0176557531 0.0529999994
-0.0172037446 0.0074360990 0.0529999994
-0.0186695600 0.0032046583 0.0535518900
0.0361202792 0.0131547807 0.0540000014
0.0277229151 0.0182304122 0.0540000014
0.0328735522 0.0155288460 0.0540000014
0.0336626581 0.0088672819 0.0540000014
0.0280063366 -0.0246184662 0.0540000014
-0.0289319725 -0.0071178857 0.0540000014
-0.0287500867 -0.0065977744 0.0540000014
-0.0128997567 -0.0242747278 0.0540000014
-0.0173786284 -0.0168975970 0.0540000014
-0.0204622786 -0.0141420664 0.0540000014
-0.0205137625 -0.0082509029 0.0540000014
0.0283067512 -0.0188519552 0.0540000014
0.0145429256 -0.0201633136 0.0540000014
0.0192769545 -0.0044119536 0.0540000014
0.0200628490 -0.0209250367 0.0540000014
0.0046832036 -0.0207206921 0.0540000014
-0.0191326353 -0.0203628909 0.0540000014
-0.0050160535 0.0234045501 0.0540000014
-0.0350996247 0.0118784565 0.0540000014
-0.0253642843 0.0043270311 0.0540000014
-0.0330982148 0.0043063517 0.0540000014
-0.0266340060 0.0114838240 0.0540000014
-0.0218776755 0.0076460220 0.0540000014
-0.0250222659 0.0150363232 0.0540000014
-0.0226218333 0.0183559804 0.0540000014
-0.0139097745 0.0226333213 0.0540000014
-0.0154547309 0.0223994443 0.0540000014
0.0131430447 0.0149667372 0.0540000014
0.0241829687 0.0054960041 0.0540000014
0.0267245313 -0.0023900352 0.0540000014
0.0248112017 0.0190213849 0.0540000014
-0.0055000000 0.0128827117 0.0501490831
-0.0133944652 0.0006822918 0.0516657057
0.0055463577 -0.0122760308 0.0521285784
0.0111133730 0.0075160635 0.0520222142
-0.0335171372 -0.0118861423 0.0500000007
0.0337677532 0.0021210122 0.0500000007
0.0132883032 0.0163851294 0.0500000007
0.0297322202 0.0123977123 0.0500000007
0.0222656240 0.0128250166 0.0500000007
0.0243120366 -0.0187362574 0.0500000007
0.0125818128 -0.0179967561 0.0500000007
0.0249351619 -0.0068080277 0.0500000007
0.0316443159 0.0035727660 0.0500000007
0.0289511030 0.0003219098 0.0500000007
0.0186461028 -0.0109330180 0.0500000007
0.0264500731 -0.0166594984 0.0500000007
0.0139107863 -0.0068497714 0.0500000007
0.0100957020 -0.0168840092 0.0500000007
-0.0039240658 -0.0207988478 0.0500000007
-0.0134713009 -0.0158107523 0.0500000007
0.0026816529 -0.0157711396 0.0500000007
-0.0240359162 -0.0039718074 0.0500000007
-0.0149891052 -0.0133910374 0.0500000007
-0.0214954949 -0.0003736406 0.0500000007
-0.0165095834 -0.0171843606 0.0500000007
-0.0254780396 0.0057108600 0.0500000007
-0.0174177556 0.0042481691 0.0500000007
-0.0312685661 0.0147139449 0.0500000007
-0.0094400537 0.0121603126 0.0500000007
-0.0082334439 0.0156841715 0.0500000007
-0.0287371852 -0.0046474900 0.0500000007
-0.0268322479 -0.0175592741 0.0500000007
-0.0324350891 -0.0233280401 0.0510499716
-0.0309970398 0.0234999992 0.0507462835
0.0349741151 -0.0033930786 0.0507389957
-0.0045922323 -0.0234999992 0.0506597271
-0.0061373371 -0.0234999992 0.0513728805
-0.0349575880 -0.0176098524 0.0503301007
0.0099009240 0.0230150508 0.0500000007
-0.0162075873 0.0211445790 0.0500000007
-0.0069802923 0.0202891565 0.0500000007
0.0075888371 0.0215659437 0.0500000007
0.0112326379 0.0151531575 0.0531244458
-0.0323961086 0.0191301021 0.0527648790
0.0346241986 0.0211401105 0.0504372691
-0.0010691557 0.0066535435 0.1336826093
0.0015919366 0.0078620832 0.1435282668
-0.0016672258 0.0077667235 0.1417503117
-0.0006701320 0.0036194183 0.1453287210
0.0000242465 0.0045744113 0.1320849170
0.0132696442 0.0165999997 0.0091017806
0.0029014568 0.0165999997 0.0093560653
0.0246792678 0.0165999997 0.0351674631
0.0221321699 0.0165999997 0.0325971581
0.0172655499 0.0165999997 0.0308746256
0.0149485360 0.0165999997 0.0142785976
0.0306368584 0.0165999997 0.0121216914
-0.0055261555 0.0165999997 0.0207432421
0.0050691274 0.0165999997 0.0174894858
0.0084627851 0.0165999997 0.0240576853
0.0309754625 0.0165999997 0.0204118907
0.0308517279 0.0165999997 0.0101602773
0.0290215110 0.0165999997 0.0374496100
0.0111628227 0.0165999997 0.0321191973
-0.0109161735 0.0165999997 0.0181338743
-0.0217920761 0.0165999997 0.0166606024
-0.0171633139 0.0165999997 0.0174157199
-0.0189796678 0.0165999997 0.0182268531
-0.0037469942 0.0165999997 0.0282611943
-0.0130874180 0.0165999997 0.0377683995
-0.0249395786 0.0165999997 0.0500186213
-0.0127868962 0.0165999997 0.0448004355
0.0024310761 0.0165999997 0.0419179973
-0.0280141161 0.0165999997 0.0294769825
0.0036613872 0.0165999997 0.0438916568
0.0101906083 0.0165999997 0.0397438222
-0.0014336404 0.0165999997 0.0421463132
0.0063059920 0.0165999997 0.0408157035
-0.0276440857 0.0165999997 0.0388308302
-0.0313190302 0.0165999997 0.0192290384
0.0156596110 0.0165999997 0.0450920051
-0.0158684052 0.0165999997 0.0348407911
0.0012634479 0.0165999997 0.0457839060
-0.0271648830 0.0182000007 0.0250922084
-0.0150580643 0.0182000007 0.0217345969
-0.0187355499 0.0182000007 0.0271378523
-0.0224043510 0.0182000007 0.0233165526
-0.0310312832 0.0182000007 0.0433672042
0.0020925196 0.0182000007 0.0495622697
-0.0073828757 0.0182000007 0.0508446332
-0.0033776638 0.0182000007 0.0474351693
0.0011978557 0.0182000007 0.0478254553
0.0218889565 0.0182000007 0.0489681568
-0.0083607871 0.0182000007 0.0360542144
0.0026450332 0.0182000007 0.0418300786
-0.0027821881 0.0182000007 0.0375571600
-0.0035424668 0.0182000007 0.0281707104
-0.0207659215 0.0182000007 0.0347542276
-0.0160300150 0.0182000007 0.0279256214
-0.0140137478 0.0182000007 0.0356900396
0.0163322396 0.0182000007 0.0422566044
0.0019583219 0.0182000007 0.0426576614
-0.0027071940 0.0182000007 0.0211730421
-0.0005890880 0.0182000007 0.0239836623
0.0225088409 0.0182000007 0.0302161077
0.0295417827 0.0182000007 0.0138709055
0.0168329082 0.0182000007 0.0223496042
0.0181253460 0.0182000007 0.0326015969
0.0168526443 0.0182000007 0.0314993516
0.0248650837 0.0182000007 0.0259425189
0.0128459502 0.0182000007 0.0327060584
0.0217327121 0.0182000007 0.0203908676
-0.0084023222 0.0182000007 0.0090900986
0.0235355303 0.0182000007 0.0331891284
0.0077476918 0.0182000007 0.0103968054
0.0124124579 0.0182000007 0.0229386508
0.0260188553 0.0170661606 0.0509999990
-0.0099368754 0.0166755399 0.0509999990
0.0073005975 0.0176684091 0.0090000005
0.0315000005 0.0177632931 0.0298731660
0.0151981528 0.0178448580 0.0458910365
0.0150800389 0.0141745158 0.0432999991
0.0088921368 0.0150417357 0.0427095422
0.0069059579 0.0128617705 0.0478000008
0.0064466002 0.0102577986 0.0483999997
0.0061000003 0.0112474483 0.0434148244
0.0055377419 0.0148460761 0.0442564979
0.0172924163 0.0146000003 0.0467160248
-0.0009502742 0.0080894445 0.0434089740
-0.0039525554 0.0129500004 0.0448736266
-0.0041224710 0.0160089165 0.0440480096
0.0017882189 0.0155493501 0.0445312285
0.0234191901 0.0143650435 0.0456870187
0.0284632354 0.0104709969 0.0432999991
0.0215331018 0.0099756227 0.0427368744
0.0225377237 0.0119657747 0.0478000008
0.0245719003 0.0110263929 0.0483999997
0.0311991464 0.0118184618 0.0468103115
0.0212832881 0.0161532803 0.0473916616
0.0227286615 0.0146000003 0.0471428269
-0.0000009497 0.0207086021 0.0211659666
0.0122846729 0.0299041081 0.0108677822
0.0246040170 0.0272653652 0.0247919715
0.0170280486 0.0280852541 0.0266524000
0.0147689415 0.0272000004 0.0276278615
0.0084547497 0.0272000004 0.0228634751
0.0124973023 0.0273411484 0.0138089005
0.0218643116 0.0299999993 0.0253482335
0.0138040843 0.0299999993 0.0127637206
0.0138249827 0.0369176755 0.0255992827
0.0215776510 0.0309286540 0.0254450200
0.0118541223 0.0275203244 0.0258334625
0.0250115432 0.0204965767 0.0182682672
0.0121573508 0.0208726796 0.0164347599
0.0204946678 0.0226999987 0.0170923463
0.0120645712 0.0204215603 0.0167283065
0.0227527697 0.0202279045 0.0196183052
0.0199359905 0.0238223002 0.0251520945
0.0229036707 0.0222078498 0.0254314375
0.0099272954 0.0222057387 0.0223472213
0.0213840377 0.0244350172 0.0147368726
0.0213537583 0.0287636099 0.0132357037
0.0124367047 0.0372917070 0.0141937779
0.0230082407 0.0353971981 0.0176763247
0.0232115425 0.0270539654 0.0212548822
0.0098115419 0.0315438915 0.0180508618
0.0130785452 0.0340046959 0.0216126362
0.0198457104 0.0334813351 0.0190709543
0.0177696514 0.0379915344 0.0166872329
0.0159260193 0.0287928122 0.0223294893
0.0143366317 0.0324363993 0.0193274337
0.0144723147 0.0386678964 0.0209826423
0.0145205352 0.0396250002 0.0205597102
0.0202986909 0.0339785694 0.0208678984
0.0138828545 0.0307000000 0.0235934797
0.0178213348 0.0328188562 0.0247625438
0.0217934569 0.0375429463 0.0189243452
0.0140270864 0.0335292515 0.0146964152
0.0163950465 0.0208904375 0.0199054733
0.0165368018 0.0174270404 0.0193274441
0.0097500002 0.0243283146 0.0170226083
0.0326612450 -0.0221861554 0.0448314624
-0.0319904522 -0.0189535020 0.0100000007
-0.0169686619 0.0236000009 0.0083874093
0.0350871510 -0.0071180378 0.0090963062
0.0332830674 -0.0230616050 0.0097412924
0.0312533033 -0.0236000009 0.0087736807
-0.0350750193 0.0160349239 0.0090800454
-0.0321866425 0.0235216832 0.0089305132
-0.0350792108 -0.0189666817 0.0512076317
-0.0350983658 0.0143535528 0.0503562926
-0.0058473961 -0.0236000009 0.0501225603
0.0350655324 -0.0206914823 0.0508404138
0.0350828922 -0.0125109742 0.0509802234
-0.0096087726 0.0236000009 0.0509345515
-0.0349850470 0.0207968305 0.0501758532
0.0314177334 0.0250000004 0.0341066250
0.0312979127 0.0250000004 0.0169691548
0.0300604348 0.0250000004 0.0229188822
0.0022691658 0.0250000004 0.0149632301
-0.0013456018 0.0250000004 0.0154392282
-0.0132912304 0.0250000004 0.0108656737
0.0246293280 0.0250000004 0.0122496556
-0.0019879178 0.0250000004 0.0189951863
-0.0151536646 0.0250000004 0.0082690277
0.0097400944 0.0250000004 0.0247339856
0.0045946137 0.0250000004 0.0228231223
-0.0143427085 0.0250000004 0.0393714269
-0.0023658227 0.0250000004 0.0275889471
0.0156816329 0.0250000004 0.0281371239
0.0182438592 0.0250000004 0.0327258129
-0.0151232168 0.0250000004 0.0442169243
0.0231754734 0.0250000004 0.0405760783
0.0267610533 0.0250000004 0.0518448849
-0.0098624654 0.0250000004 0.0459306294
-0.0007886805 0.0250000004 0.0431665343
0.0013574717 0.0250000004 0.0453279973
0.0038310033 0.0250000004 0.0394633787
0.0003390377 0.0250000004 0.0410230725
0.0237393237 0.0250000004 0.0464703019
-0.0189507635 0.0250000004 0.0448492935
-0.0170593116 0.0250000004 0.0232821027
-0.0237096716 0.0250000004 0.0176579263
-0.0224372705 0.0250000004 0.0389015414
-0.0263570842 0.0250000004 0.0429779733
-0.0157389527 0.0250000004 0.0322173647
-0.0253021453 0.0250000004 0.0204028654
-0.0241177235 0.0250000004 0.0375524705
-0.0233239590 0.0250000004 0.0177782874
-0.0195590782 0.0250000004 0.0160611879
0.0364297690 0.0212883875 0.0449385205
0.0358312799 0.0228440196 0.0395501704
0.0348745243 0.0239598174 0.0137653884
0.0330270658 0.0248658142 0.0467904287
0.0364999995 0.0052768822 0.0323589438
0.0364999995 0.0172431609 0.0217321560
0.0364999995 0.0025232652 0.0379251970
0.0364999995 -0.0015961932 0.0388224138
0.0364999995 0.0153358018 0.0141421003
0.0364999995 0.0153741239 0.0400859724
0.0364999995 0.0196312619 0.0448106681
0.0364999995 0.0020389162 0.0313688921
0.0364999995 0.0149542947 0.0422287290
0.0364999995 0.0130959925 0.0384200496
0.0364999995 -0.0100209246 0.0481059481
0.0364999995 0.0087660270 0.0342055990
0.0364999995 -0.0001481189 0.0257047794
0.0364999995 -0.0122450079 0.0164077070
0.0364999995 -0.0040695954 0.0156756066
0.0364999995 -0.0109225702 0.0144208511
0.0364999995 0.0019785225 0.0120469624
0.0364999995 -0.0006620342 0.0239367494
0.0364999995 -0.0200500613 0.0495147602
0.0364999995 0.0026401055 0.0171832573
0.0364999995 -0.0046405323 0.0284482138
0.0364999995 -0.0134224583 0.0200412929
0.0364999995 -0.0197498279 0.0132438496
0.0364999995 -0.0204474074 0.0359969694
0.0329425631 -0.0248884568 0.0456860634
0.0347029430 -0.0240799598 0.0263243598
0.0355784291 -0.0232051286 0.0449764141
0.0364820217 -0.0207054947 0.0095071719
0.0280214582 -0.0250000004 0.0301784368
0.0033200909 -0.0250000004 0.0349761398
0.0180255758 -0.0250000004 0.0389732975
0.0246886418 -0.0250000004 0.0376016194
0.0108920462 -0.0250000004 0.0239219038
-0.0135302142 -0.0250000004 0.0458375254
0.0041736937 -0.0250000004 0.0330706127
0.0203923460 -0.0250000004 0.0469736156
0.0089445773 -0.0250000004 0.0302712009
0.0316014329 -0.0250000004 0.0279192058
0.0293306134 -0.0250000004 0.0204986536
0.0111546847 -0.0250000004 0.0334112084
0.0190294221 -0.0250000004 0.0509640855
0.0185368416 -0.0250000004 0.0267660389
0.0308610662 -0.0250000004 0.0310471777
-0.0099862788 -0.0250000004 0.0429836861
-0.0019210111 -0.0250000004 0.0399993472
0.0093240770 -0.0250000004 0.0300610061
-0.0236709417 -0.0250000004 0.0366493048
-0.0297954835 -0.0250000004 0.0082973354
0.0060399155 -0.0250000004 0.0166934511
-0.0274709910 -0.0250000004 0.0346702201
0.0004747326 -0.0250000004 0.0138287912
-0.0312764821 -0.0250000004 0.0295882513
-0.0080923388 -0.0250000004 0.0247604487
-0.0250464598 -0.0250000004 0.0195281234
-0.0041425699 -0.0250000004 0.0086314219
-0.0284310668 -0.0250000004 0.0204253500
-0.0104902745 -0.0250000004 0.0311565209
-0.0201890363 -0.0250000004 0.0168304156
-0.0177423533 -0.0250000004 0.0252488311
0.0100114069 -0.0250000004 0.0112542625
-0.0128726927 -0.0250000004 0.0125005528
0.0085006990 -0.0250000004 0.0085640082
-0.0128548718 -0.0250000004 0.0366066041
-0.0018724948 -0.0250000004 0.0102686482
-0.0049883436 -0.0250000004 0.0087608989
-0.0363819760 -0.0214667509 0.0226773294
-0.0354972790 -0.0233210232 0.0311631158
-0.0347159124 -0.0240708785 0.0499297764
-0.0324236314 -0.0249629378 0.0128805041
-0.0364999995 -0.0170155828 0.0514096067
-0.0364999995 -0.0063454679 0.0300632355
-0.0364999995 0.0014226009 0.0387124831
-0.0364999995 -0.0021168101 0.0368216652
-0.0364999995 -0.0050719414 0.0402529004
-0.0364999995 -0.0136070705 0.0515194948
-0.0364999995 -0.0089954357 0.0237966166
-0.0364999995 -0.0031442927 0.0495051017
-0.0364999995 -0.0161958878 0.0477412643
-0.0364999995 -0.0172918988 0.0217040751
-0.0364999995 0.0044266416 0.0365409927
-0.0364999995 -0.0025324803 0.0288310076
-0.0364999995 0.0105652296 0.0353828881
-0.0364999995 -0.0065442447 0.0193169108
-0.0364999995 -0.0060456019 0.0200483291
-0.0364999995 0.0096235175 0.0122590106
-0.0364999995 0.0160564563 0.0459619417
-0.0364999995 0.0137676966 0.0430543175
-0.0364999995 0.0204595030 0.0174895866
-0.0364999995 -0.0007781144 0.0187917914
-0.0364999995 0.0148671344 0.0140801395
-0.0364999995 -0.0008859931 0.0262296648
-0.0364999995 0.0190618477 0.0219783466
-0.0364999995 0.0178801374 0.0396169412
-0.0330532280 0.0248588040 0.0417450812
-0.0349128295 0.0239269145 0.0298815225
-0.0359639680 0.0226066295 0.0166770400
-0.0364775073 0.0207570963 0.0309881720
0.0017716748 0.0249437030 0.0520000011
-0.0364132091 0.0162654842 0.0520000011
0.0063620468 -0.0246247794 0.0520000011
0.0356343970 -0.0136428579 0.0520000011
0.0254041564 -0.0241788381 0.0080000004
-0.0357260432 -0.0106871163 0.0080000004
-0.0295636675 0.0243516760 0.0080000004
0.0343266970 0.0227729268 0.0080000004
-0.0318247477 0.0190460176 0.0357296235
-0.0322260520 0.0196726156 0.0274816357
-0.0318113226 -0.0189187009 0.0438334160
-0.0305253325 -0.0209366204 0.0377524847
0.0317360401 -0.0215808307 0.0411878363
0.0316659349 0.0215029842 0.0226723315
0.0317787756 0.0190024937 0.0442730048
-0.0308528413 0.0209282875 0.0252214746
0.0320723159 0.0195358863 0.0490326532
-0.0340176755 0.0184775957 0.0481590911
-0.0301026103 0.0231112588 0.0117929792
-0.0346449909 -0.0181782445 0.0242395329
-0.0297143414 -0.0233638012 0.0252410374
0.0303149962 -0.0222480136 0.0375943354
0.0303447270 0.0224354850 0.0356765251
0.0322754302 -0.0220458765 0.0424593104
0.0337836186 -0.0184713810 0.0138083924
-0.0323688796 0.0220542598 0.0186858942
0.0350000001 -0.0147337385 0.0268970311
0.0350000001 0.0127139511 0.0109574260
0.0350000001 -0.0166346460 0.0189664908
0.0350000001 -0.0071237091 0.0206912162
0.0350000001 0.0105707986 0.0114920954
0.0350000001 -0.0132244350 0.0188377650
0.0350000001 -0.0029183803 0.0139750911
0.0350000001 -0.0050904383 0.0119923622
0.0350000001 0.0097132362 0.0140877635
0.0350000001 0.0022595768 0.0267971502
0.0350000001 0.0052987310 0.0370824655
0.0350000001 -0.0087125913 0.0478526189
0.0350000001 0.0098085785 0.0345063405
0.0350000001 -0.0104510301 0.0438474857
0.0350000001 -0.0056443554 0.0495606628
0.0350000001 0.0064948838 0.0281576893
0.0350000001 0.0059911674 0.0496942818
0.0350000001 0.0036532548 0.0298102180
0.0350000001 0.0114049789 0.0209467927
-0.0147003658 -0.0234999992 0.0363052079
-0.0022214209 -0.0234999992 0.0157926476
-0.0091683393 -0.0234999992 0.0296067241
-0.0080961075 -0.0234999992 0.0117224253
-0.0179496892 -0.0234999992 0.0325445587
-0.0165694439 -0.0234999992 0.0207368593
-0.0268267293 -0.0234999992 0.0336481547
0.0155372097 -0.0234999992 0.0182760245
-0.0158540957 -0.0234999992 0.0289722358
-0.0252330805 -0.0234999992 0.0242064391
-0.0230395492 -0.0234999992 0.0252900616
0.0087235080 -0.0234999992 0.0177627647
-0.0237479920 -0.0234999992 0.0302718766
-0.0136849821 -0.0234999992 0.0314282289
0.0153738511 -0.0234999992 0.0181621724
0.0228161995 -0.0234999992 0.0497544146
0.0253702997 -0.0234999992 0.0129161736
-0.0196976258 -0.0234999992 0.0479092030
0.0001228396 -0.0234999992 0.0408696270
0.0194886272 -0.0234999992 0.0173508183
0.0212891572 -0.0234999992 0.0450047428
0.0027072379 -0.0234999992 0.0341072265
-0.0056192865 -0.0234999992 0.0381024022
0.0173681462 -0.0234999992 0.0414182250
0.0260475530 -0.0234999992 0.0435610632
0.0109357610 -0.0234999992 0.0410280798
0.0155570013 -0.0234999992 0.0443391386
0.0230996589 -0.0234999992 0.0311346827
0.0170634807 -0.0234999992 0.0480408158
0.0212007197 -0.0234999992 0.0468647907
0.0243380775 -0.0234999992 0.0299044844
-0.0350000001 0.0079063814 0.0329494823
-0.0350000001 -0.0018540523 0.0207375320
-0.0350000001 0.0175048506 0.0458275557
-0.0350000001 -0.0014472824 0.0205263431
-0.0350000001 -0.0031761319 0.0167666192
-0.0350000001 0.0135099109 0.0205880112
-0.0350000001 0.0070679113 0.0328507560
-0.0350000001 0.0006025747 0.0217663435
-0.0350000001 0.0086880226 0.0217835629
-0.0350000001 -0.0109486163 0.0431010377
-0.0350000001 -0.0002040570 0.0421799441
-0.0350000001 -0.0168908578 0.0171076974
-0.0350000001 -0.0144636721 0.0138730219
-0.0350000001 0.0115942471 0.0454011122
-0.0350000001 -0.0141491428 0.0476467024
-0.0350000001 -0.0171004523 0.0194641596
-0.0350000001 0.0075896791 0.0386904161
-0.0350000001 -0.0018171390 0.0389375800
0.0212805316 0.0234999992 0.0331554698
0.0094020950 0.0234999992 0.0273277139
0.0111185529 0.0234999992 0.0291323567
0.0120153116 0.0234999992 0.0353239253
-0.0092629121 0.0234999992 0.0474211779
0.0047738575 0.0234999992 0.0323515658
0.0027691189 0.0234999992 0.0435896361
0.0021585908 0.0234999992 0.0449084687
0.0067116943 0.0234999992 0.0444298186
0.0064443435 0.0234999992 0.0355539529
-0.0017549239 0.0234999992 0.0406220753
0.0096554398 0.0234999992 0.0172888151
-0.0158597463 0.0234999992 0.0358975903
0.0038252545 0.0234999992 0.0230221720
0.0071434922 0.0234999992 0.0232757046
0.0222379466 0.0234999992 0.0296242674
0.0278493778 0.0234999992 0.0153671377
0.0262276595 0.0234999992 0.0165030298
-0.0055930836 0.0234999992 0.0113343701
-0.0169137172 0.0234999992 0.0107050996
-0.0278408778 0.0234999992 0.0407324856
-0.0127289878 0.0234999992 0.0235752920
-0.0278961953 0.0234999992 0.0307828741
-0.0198060199 0.0234999992 0.0377588076
-0.0230198366 0.0234999992 0.0154325923
-0.0249776408 0.0234999992 0.0219639588
-0.0233382445 0.0234999992 0.0189878061
-0.0088046208 0.0234999992 0.0274430284
-0.0082011196 0.0234999992 0.0108235009
-0.0302439317 0.0217416853 0.0478852482
-0.0335131925 -0.0184419582 0.0212792569
-0.0338288249 -0.0204438989 0.0326661770
-0.0330583172 0.0183577629 0.0336773999
-0.0339094483 0.0212586741 0.0331901568
0.0332560146 0.0199573501 0.0195277326
0.0335100236 0.0219228544 0.0383275667
0.0338704131 -0.0207702317 0.0419561928
0.0347978493 -0.0179823942 0.0391487253
0.0329905409 -0.0198177234 0.0431381518
-0.0317419955 -0.0216156436 0.0451736964
0.0339159385 0.0208532924 0.0138140649
-0.0328974598 -0.0198345751 0.0137389711
-0.0339049655 0.0198577384 0.0080947061
0.0309239828 0.0205690956 0.0071769164
0.0031081641 0.0246328958 0.0080000004
-0.0355966219 0.0175409728 0.0080000004
0.0122251663 -0.0237710327 0.0080000004
0.0355204145 -0.0043089183 0.0080000004
0.0050081729 0.0249863593 0.0060911599
-0.0295354128 0.0250000004 0.0077417833
0.0364999995 0.0096328005 0.0065214519
0.0364049640 -0.0212858663 0.0072772696
-0.0120983382 -0.0250000004 0.0073224321
-0.0364999995 -0.0148731237 0.0074871299
-0.0342308555 0.0243415783 0.0074287522
0.0049107327 0.0176761421 0.0089999996
0.0179716036 0.0189999994 0.0097252008
-0.0063287877 0.0116602157 0.0061467762
-0.0164213067 -0.0179881348 0.0077725648
-0.0019816539 -0.0047197552 0.0080000004
0.0049987329 -0.0015906985 0.0080000004
-0.0022897733 0.0069220922 0.0066271101
0.0296541255 -0.0202221877 0.0060000001
0.0042245569 0.0237755325 0.0060000001
0.0153199342 0.0205514999 0.0060000001
-0.0318096762 0.0159743278 0.0060000001
-0.0070992359 0.0146810096 0.0060000001
-0.0108491037 0.0060196840 0.0060000001
-0.0025242105 -0.0193521659 0.0060000001
-0.0174321375 0.0094657113 0.0060000001
-0.0094378104 0.0124944527 0.0060000001
-0.0250628410 0.0161466648 0.0060000001
-0.0106161487 -0.0209287637 0.0060000001
-0.0207138748 -0.0196175611 0.0060000001
-0.0184397742 -0.0024686618 0.0060000001
-0.0164256460 0.0018837184 0.0060000001
-0.0285573172 -0.0157125563 0.0060000001
0.0111203431 0.0054481733 0.0060000001
0.0083739111 0.0052551539 0.0060000001
0.0172115646 -0.0051606594 0.0060000001
0.0304797571 0.0020223404 0.0060000001
0.0267113826 0.0017649852 0.0060000001
0.0251641006 0.0031785036 0.0060000001
0.0351329938 -0.0071233428 0.0060000001
0.0349704981 0.0000278333 0.0060000001
0.0122052525 -0.0056456657 0.0060000001
-0.0062025378 -0.0075860647 0.0060000001
-0.0136200589 -0.0104987681 0.0060000001
-0.0344315867 -0.0029315024 0.0060000001
-0.0358566344 0.0103990802 0.0060000001
-0.0265645592 -0.0043584501 0.0060000001
-0.0317016159 0.0076481317 0.0060000001
0.0249467293 -0.0214902809 0.0060000001
0.0118638123 -0.0247927941 0.0060000001
0.0042458261 -0.0194971672 0.0060000001
-0.0017500008 -0.0189744371 0.0060000001
0.0081392584 -0.0127088320 0.0060000001
0.0228596394 0.0131175731 0.0060000001
0.0034282235 0.0092286776 0.0060000001
-0.0120184165 0.0233696185 0.0060000001
0.0232459209 0.0153819421 0.0060000001
-0.0085270024 0.0206136140 0.0060000001
0.0263029297 0.0164149630 0.0060000001
0.0031486284 0.0209129695 0.0060000001
0.0275013318 -0.0168463814 0.0060000001
0.0333946842 -0.0070839358 0.0099999998
-0.0311454215 0.0186123775 0.0099999998
0.0102212526 0.0202964401 0.0099999998
-0.0113174240 0.0217499702 0.0099999998
0.0065521979 0.0216233219 0.0099999998
-0.0183451575 0.0192406614 0.0099999998
-0.0218903471 -0.0029493359 0.0099999998
-0.0309880030 -0.0030551551 0.0099999998
-0.0225970846 0.0101106837 0.0099999998
-0.0272775213 -0.0135979834 0.0099999998
-0.0288321220 -0.0149306495 0.0099999998
-0.0299678957 0.0067254324 0.0099999998
0.0101050136 0.0137012267 0.0099999998
-0.0189071760 -0.0045102797 0.0099999998
-0.0124673596 0.0137903193 0.0099999998
-0.0081399242 0.0011340619 0.0099999998
-0.0228248620 -0.0108872734 0.0099999998
-0.0160165982 -0.0037782454 0.0099999998
0.0066189910 -0.0025803345 0.0099999998
0.0072520321 0.0027767630 0.0099999998
0.0095696717 -0.0001573542 0.0099999998
0.0121013310 0.0077002620 0.0099999998
0.0091966840 0.0041526376 0.0099999998
0.0226554676 -0.0076255689 0.0099999998
0.0213276633 -0.0104995505 0.0099999998
0.0283510439 -0.0019447152 0.0099999998
0.0323545146 -0.0085540163 0.0099999998
0.0294971054 -0.0002211618 0.0099999998
0.0299880587 -0.0189165882 0.0099999998
0.0018028074 -0.0090334172 0.0099999998
0.0005002794 -0.0089593809 0.0099999998
-0.0143399057 -0.0132774694 0.0099999998
-0.0113074971 -0.0104077112 0.0099999998
-0.0028895042 -0.0012177564 0.0099999998
-0.0269438267 -0.0196715939 0.0099999998
-0.0009079878 -0.0219757464 0.0099999998
0.0018954612 -0.0214208493 0.0099999998
0.0196621004 -0.0178126650 0.0099999998
0.0159029162 -0.0195671007 0.0099999998
-0.0295076323 -0.0186373313 0.0099999998
-0.0337544400 0.0023499109 0.0099999998
0.0349866548 -0.0083827400 0.0098345138
-0.0349939915 0.0182431473 0.0086729313
-0.0253030345 0.0234808425 0.0098399807
0.0133209593 0.0234999992 0.0092467152
0.0174214910 -0.0234999992 0.0089530224
-0.0261098418 -0.0234999992 0.0086427360
-0.0276535132 -0.0180174281 0.0094712215
0.0078824410 -0.0119163269 0.0088204722
0.0315856238 -0.0185631969 0.0062667153
0.0013153202 0.0219999999 0.0184134932
-0.0008748374 0.0191209812 0.0170901881
0.0031166647 0.0214177390 0.0212752734
-0.0033278103 0.0201492417 0.0170489766
-0.0036050154 0.0170000009 0.0542379794
0.0120357350 0.0115596130 0.0550579206
-0.0022029024 0.0185880094 0.0592544355
-0.0124502409 0.0133318952 0.0597248086
-0.0171435291 -0.0004752215 0.0608277640
-0.0106440057 -0.0128231759 0.0613218586
-0.0013071969 -0.0189065067 0.0536888213
-0.0136439441 -0.0131576523 0.0589356184
-0.0184416411 -0.0043817010 0.0547502707
-0.0164824890 0.0093589245 0.0548611516
-0.0077192445 0.0173477721 0.0538515188
0.0092414436 0.0100782060 0.1339854703
0.0129953082 0.0030506287 0.1336205253
-0.0088445785 -0.0055974500 0.1364036368
-0.0105144481 0.0039179976 0.1357224232
-0.0142365517 -0.0014455512 0.1480425003
0.0118625498 0.0034257938 0.1450066297
-0.0087293017 -0.0085115061 0.1367210014
-0.0125419185 -0.0009878738 0.1505919705
0.0126779076 0.0066167873 0.1477414388
0.0116754510 -0.0032066707 0.1500377564
0.0122457534 -0.0085034727 0.1432980520
0.0071348612 0.0114222241 0.1216376648
0.0007375522 0.0134388850 0.0985888280
0.0006715121 0.0134443573 0.0699856990
0.0028925023 0.0131460905 0.1119838971
0.0031378067 0.0130839710 0.0719557988
0.0044318438 0.0127473025 0.0954871956
0.0045914289 0.0126784522 0.0627513558
0.0057725983 0.0121815412 0.0863886606
0.0081268639 0.0107685721 0.0764773725
0.0086275268 0.0103198734 0.1118568879
0.0086700397 0.0103122369 0.0716054473
0.0106088075 0.0082854706 0.1182160361
0.0102618961 0.0087250538 0.0645437410
0.0114398279 0.0071035454 0.1008059392
0.0112348765 0.0074653954 0.0869163207
0.0114004097 0.0072067924 0.0619362362
0.0123981762 0.0052325701 0.1236387745
0.0129581196 0.0037261067 0.0951097352
0.0131922380 0.0027617379 0.1180937273
0.0133418176 0.0019332343 0.0952469217
0.0134541031 0.0009297229 0.0997897567
0.0134731291 0.0005278945 0.1201746966
0.0134119999 -0.0011121439 0.1296684068
0.0134114729 -0.0014436482 0.0959569385
0.0132856884 -0.0021546900 0.0713539094
0.0131078942 -0.0030099482 0.1311166621
0.0127839366 -0.0042466514 0.1101288963
0.0128118210 -0.0041545215 0.1265574770
0.0118805292 -0.0063156224 0.0552187237
0.0117801801 -0.0064943010 0.1326630628
0.0104621652 -0.0084745092 0.0794036806
0.0107956407 -0.0080404348 0.0670410150
0.0097366529 -0.0093398096 0.1061436998
0.0098604597 -0.0092133197 0.0634385941
0.0082300856 -0.0106412922 0.1300562893
0.0078191570 -0.0109750760 0.0938981525
0.0019368119 -0.0133395115 0.0570586757
0.0009149516 -0.0134241853 0.0689048020
0.0002980374 -0.0134753043 0.1300299992
0.0033972402 -0.0130182735 0.0652886458
0.0028630732 -0.0131535429 0.1178260862
0.0055538016 -0.0122551662 0.0815122850
0.0056325435 -0.0122206268 0.1314889438
0.0064020392 -0.0118830947 0.1256547630
0.0081000002 -0.0052894869 0.1406386826
0.0081000002 0.0063109289 0.1424842482
0.0081000002 0.0023542224 0.1417211825
-0.0081000002 0.0025415888 0.1400981925
-0.0081000002 -0.0071517705 0.1379812835
-0.0036353096 -0.0135757795 0.1334999949
-0.0071369972 0.0114895905 0.0529999994
-0.0033516282 -0.0180676547 0.0529999994
-0.0011351849 -0.0174811699 0.0529999994
0.0144103920 -0.0097428685 0.0529999994
0.0106070531 -0.0124386774 0.0529999994
-0.0032416998 0.0182180136 0.0529999994
-0.0062810364 0.0130839205 0.1334999949
-0.0004940331 0.0149605891 0.0811630829
-0.0020380080 0.0148341733 0.0886892577
-0.0027336330 0.0147369839 0.1263920912
-0.0031455998 0.0146236370 0.0687443720
-0.0048182423 0.0141973504 0.1216722126
-0.0060023276 0.0137039929 0.1175414756
-0.0058384728 0.0137953080 0.0939204201
-0.0084939536 0.0123052655 0.0700789047
-0.0079143852 0.0126964399 0.1139900128
-0.0072844063 0.0130996298 0.0978574295
-0.0102887771 0.0108721427 0.0868978535
-0.0123314293 0.0085379833 0.1339063802
-0.0113565273 0.0097746452 0.0681441595
-0.0114620892 0.0096560876 0.0980979876
-0.0127450528 0.0078802918 0.0827510873
-0.0142187207 0.0046644026 0.0928472367
-0.0138679232 0.0056101510 0.1119725605
-0.0138144699 0.0057494115 0.1108295725
-0.0135489496 0.0063912206 0.0699474268
-0.0147405282 0.0025253362 0.1117900858
-0.0145669945 0.0035702279 0.1286996760
-0.0146546711 -0.0031268218 0.1294942879
-0.0147085367 -0.0028796575 0.1333289517
-0.0144707402 -0.0039188365 0.1093728136
-0.0140367211 -0.0052074302 0.1195981454
-0.0130307221 -0.0073781277 0.1389227949
-0.0137395834 -0.0060147302 0.1233946700
-0.0116619844 -0.0093808138 0.1200981390
-0.0130241900 -0.0073697367 0.0895900185
-0.0125316638 -0.0082320145 0.1076864996
-0.0096951274 -0.0114160145 0.0974594289
-0.0109647700 -0.0102006586 0.0752003844
-0.0114238760 -0.0096710674 0.1044460687
-0.0084190430 -0.0123937779 0.0754200374
-0.0084159008 -0.0123503328 0.1254235627
-0.0071409679 -0.0131723977 0.0858193365
-0.0063819531 -0.0135391560 0.0908202768
-0.0056339072 -0.0138532548 0.0784487579
-0.0039902095 -0.0144153689 0.1129544207
-0.0032992230 -0.0145930711 0.1003436172
-0.0029516050 -0.0146803983 0.1142593318
-0.0010335910 -0.0149109122 0.1328458406
-0.0004172565 -0.0149700913 0.0740408895
-0.0149718838 -0.0004955587 0.0702270507
-0.0149958354 0.0000013458 0.0875828930
-0.0149302085 0.0011804916 0.0730826519
-0.0147175773 0.0026424871 0.1025903133
0.0098140306 -0.0112951356 0.1322534597
0.0095676813 -0.0115339422 0.1278771761
0.0120623732 -0.0088795113 0.1161085452
0.0119997948 -0.0089725366 0.1206769347
0.0125371636 -0.0082285186 0.1050772863
0.0131442775 -0.0071363486 0.0731117651
0.0132831321 -0.0069212278 0.1213576187
0.0141366532 -0.0048916779 0.0756830426
0.0137172737 -0.0060628414 0.0692809172
0.0146944735 -0.0027837318 0.1045496415
0.0143970231 -0.0041850900 0.1417977013
0.0146618282 0.0028752686 0.0640462173
0.0147286549 0.0025893241 0.0801257065
0.0148561661 0.0019639601 0.0993392560
0.0143270866 0.0044161832 0.1062657785
0.0130834755 0.0072760016 0.1409848785
0.0137445597 0.0059933749 0.0954707570
0.0120916960 0.0088480093 0.1142290505
0.0130208552 0.0073694426 0.0776193499
0.0123835970 0.0084588468 0.1313586217
0.0102974167 0.0108399429 0.0801413517
0.0109078472 0.0102558792 0.0805127759
0.0116104248 0.0094317352 0.0848700132
0.0084665846 0.0123577906 0.0685539103
0.0093013553 0.0117527327 0.1276119734
0.0074089032 0.0130216294 0.0851685466
0.0066281321 0.0134312274 0.0865050187
0.0052131726 0.0140433738 0.1154028010
0.0042655825 0.0143421313 0.1181571735
0.0024248999 0.0148003257 0.1081780767
0.0039425764 0.0144337584 0.0796495207
0.0020887804 0.0148397188 0.0888858366
0.0003750167 0.0149730597 0.0828992191
0.0005180574 -0.0149587347 0.0715962173
0.0006843543 -0.0149445116 0.1163289621
0.0026342610 -0.0147585849 0.1173468499
0.0041249903 -0.0143769500 0.1235894208
0.0054513556 -0.0139481826 0.0750954875
0.0066718854 -0.0134226753 0.0959447706
0.0074508428 -0.0130063482 0.0857038704
0.0079657189 -0.0126588566 0.1057499783
0.0094228067 -0.0116546025 0.0790358627
0.0149742700 0.0004087374 0.1318440500
0.0149888053 0.0001831991 0.0663605187
0.0149719963 -0.0004663645 0.0679239525
0.0149789476 -0.0003863011 0.1273763572
0.0148136928 -0.0021492456 0.0969802642
-0.0002211718 0.0134816735 0.0727926634
-0.0014799727 0.0133773663 0.0816493271
-0.0004569391 0.0134621373 0.1289857501
-0.0023056732 0.0132946958 0.1069608586
-0.0039083823 0.0128888348 0.1257824102
-0.0057727397 0.0121634236 0.1261215336
-0.0063221481 0.0119216697 0.1053576451
-0.0000489044 -0.0134959480 0.0932390394
-0.0007021394 -0.0134418194 0.0541562315
-0.0012346903 -0.0133976910 0.0951103674
-0.0033678604 -0.0130257135 0.1233989946
-0.0041150764 -0.0128364927 0.0879913180
-0.0060656448 -0.0120306510 0.1290043554
-0.0059959198 -0.0120612352 0.0927052339
-0.0075166169 -0.0111785381 0.1123821812
-0.0067411742 -0.0116722676 0.0825591772
-0.0086837667 -0.0102998372 0.0722379208
-0.0082784759 -0.0106517109 0.0685841160
-0.0083749839 -0.0105377495 0.1071108098
-0.0105612006 -0.0083490556 0.0833316117
-0.0100993918 -0.0088948376 0.1201911356
-0.0121134131 -0.0059193150 0.1125432023
-0.0115610221 -0.0068762545 0.1230598600
-0.0129454651 -0.0037471614 0.0770796159
-0.0125330634 -0.0049293429 0.0552887071
-0.0123060113 -0.0055218495 0.0879114853
-0.0132541482 -0.0024248563 0.0855331480
-0.0131948138 -0.0027760927 0.1019791525
-0.0131946112 0.0027108163 0.0772999384
-0.0134586715 0.0004712708 0.0914494209
-0.0134612358 0.0001885337 0.0786472299
-0.0134047466 -0.0013286771 0.1307128496
-0.0129008725 0.0038652454 0.0636086327
-0.0131221352 0.0030647531 0.0834260216
-0.0131174763 0.0031005694 0.0783038798
-0.0120448883 0.0060273170 0.0811707105
-0.0126397002 0.0046363443 0.1015865696
-0.0106586766 0.0082148291 0.0635746347
-0.0117231908 0.0066156817 0.1069098864
-0.0097010804 0.0093609333 0.0658270621
-0.0105607195 0.0083419145 0.1199104982
-0.0105916637 0.0083018257 0.1240841924
-0.0073538370 0.0112789454 0.0934538600
-0.0079136104 0.0109190386 0.1119661633
-0.0080009766 0.0108331346 0.1327061777
-0.0119619708 -0.0033921763 0.1445777290
0.0055131049 0.0181706192 0.0584693817
0.0158716700 0.0104219851 0.0562489131
0.0188140177 -0.0026003604 0.0550640726
0.0135778994 -0.0132236970 0.0573115048
0.0024331117 -0.0188259796 0.0573945880
0.0096936199 -0.0147779128 0.0603078592
0.0149487166 -0.0042917802 0.0624317078
0.0119723619 0.0100722339 0.0623256473
0.0022844547 0.0164138158 0.0614227970
0.0114767997 0.0105916820 0.0583029472
