-0.0109069850 -0.1077222891 0.4321302352
-0.0048302460 -0.1027875613 0.3605302956
0.0167714591 -0.1024499983 0.3634966350
0.0137160121 -0.1049250556 0.4333660610
-0.0133829137 -0.1124822784 0.3635129612
-0.0245875195 -0.1067228492 0.4217354123
0.0343686254 -0.1127366315 0.4052211525
0.0051076272 -0.1097030414 0.3600519581
-0.0344316396 -0.1068808264 0.3972018270
0.0287259412 -0.1043231702 0.3736987806
0.0348231140 0.0043381306 0.6052533179
-0.0513644112 0.0130903725 0.6006481554
-0.0190895101 0.0461313601 0.5923852290
0.0220931438 0.0304234360 0.6057555947
0.0374523688 -0.0109155253 0.5948204995
0.0024646718 -0.0465867845 0.5896332428
-0.0388521057 -0.0331506420 0.6005283018
0.0608062811 -0.0468129973 0.4643290210
0.0269528240 -0.1015352490 0.4680880087
0.0562957592 0.0610373610 0.4656555878
-0.0294282087 -0.1044920081 0.4619799743
0.0197027851 -0.1018202301 0.4658245216
-0.0764946543 -0.0011962489 0.4630144835
0.0601515633 0.0429205577 0.4612810366
-0.0562968144 0.0857773885 0.4587760602
-0.0219660027 -0.1013124336 0.4656619371
0.0196216491 0.0953412969 0.4713700039
-0.0502952176 0.0797253749 0.4637629488
-0.0673163815 0.0546240614 0.4600141337
0.0076476590 -0.0831968680 0.4800801062
0.0216622584 -0.0816095717 0.4780882994
0.0159996087 0.0923956896 0.4747313443
-0.0258697364 0.0966840074 0.4670850662
-0.0802582546 0.0198585163 0.4641205985
0.0517533792 0.0139807742 0.4792311262
0.0181243204 0.1005389110 0.4731706494
0.0551828590 0.0653062966 0.4692516602
0.0211445962 -0.1038077861 0.4713163350
0.0589282917 -0.0198997220 0.4721367885
-0.0035603049 -0.0499027788 0.5817250588
-0.0057420427 -0.0464037218 0.5238353004
-0.0328217384 -0.0581806888 0.4981906410
-0.0348467952 -0.0853045154 0.4771290424
-0.0734907667 -0.0003443766 0.4759088401
-0.0607451444 -0.0488789386 0.4802613635
-0.0425564332 -0.0367476686 0.5219615905
-0.0537471855 -0.0060892770 0.5443830486
-0.0493141386 -0.0251994450 0.5287965151
-0.0532785876 -0.0170943826 0.5656748184
-0.0188655200 -0.1020871579 0.4726113018
-0.0691810227 -0.0486968198 0.4699595943
-0.0153873416 0.0495187389 0.5806358233
-0.0565949791 0.0772191504 0.4684724755
-0.0359618739 0.0629711119 0.4919606922
-0.0274572434 0.0795133638 0.4830092097
-0.0479215035 0.0595806619 0.4867161931
-0.0649057438 0.0588457614 0.4701475788
-0.0756111471 0.0032984377 0.4725103664
-0.0461163731 0.0319586004 0.5757236121
-0.0425206792 0.0321162992 0.5400918116
-0.0445276346 0.0361807189 0.5183570142
-0.0190674691 0.0494628273 0.5165239541
-0.0538555584 0.0094312419 0.5302388159
0.0382236549 0.0013104162 0.5623002336
0.0201370668 0.0392520181 0.5711617897
0.0288194063 0.0622042710 0.4869375523
0.0314468734 0.0274307001 0.5084791809
0.0170479443 0.0557561273 0.4986285029
0.0415293609 0.0051720648 0.5792059722
0.0394550508 0.0043845330 0.4992932274
0.0212190740 -0.0697157555 0.4864842484
0.0105947597 -0.0388442032 0.5442669253
0.0182355470 -0.0432843010 0.5119292870
0.0113989596 -0.0672505390 0.4914873722
0.0282455191 -0.0344120877 0.5815999968
0.0415217915 -0.0225763775 0.4913480328
0.0377895221 -0.0131563086 0.5017513924
-0.0126472968 -0.0499251815 0.5864910382
-0.0497940315 -0.0184192210 0.6050496232
0.0391087074 -0.0138477109 0.5934735200
-0.0572667357 0.0084986374 0.5894104089
0.0029665212 0.0487745761 0.5880699735
0.0309085563 0.0315034012 0.5831948823
0.0267782125 -0.0349421966 0.5928276505
-0.0090773562 -0.0491036221 0.5940141394
0.0334160651 -0.0064551080 0.6104866726
-0.0055836317 0.0458001748 0.5691704572
-0.0395621760 0.0579969149 0.4913139768
-0.0352037123 0.0497720830 0.5033038593
-0.0033367486 0.0727985156 0.4871146313
-0.0700282586 0.0087120434 0.4772610056
-0.0508400621 0.0489316400 0.4888049715
-0.0507523910 0.0216227310 0.5770369780
-0.0555161221 0.0015539188 0.5740925122
-0.0170453500 0.0435659998 0.5273052908
-0.0512221028 0.0133030370 0.5289280363
0.0091530055 0.0384573642 0.5539981947
0.0197240072 0.0390661902 0.5114906920
0.0254353005 0.0533382969 0.4918431121
0.0423964909 0.0304155716 0.4847538448
0.0313988291 0.0067884249 0.5342931140
0.0277963117 0.0220160154 0.5529053203
0.0113261230 0.0382216174 0.5574733129
-0.0203026182 -0.0436751414 0.5650498483
-0.0306836231 -0.0378374253 0.5426776042
-0.0063134329 -0.0694964978 0.4896090676
-0.0484782094 -0.0295936067 0.5137733393
-0.0585412300 -0.0415477407 0.4840594012
-0.0559986730 -0.0049539312 0.5803709282
-0.0431286681 -0.0297434599 0.5629182775
-0.0366077613 -0.0489299253 0.5033137010
-0.0370042058 -0.0344317245 0.5392695433
-0.0374221751 -0.0339055897 0.5544285181
0.0228932463 -0.0273819684 0.5294234104
0.0097145796 -0.0471548247 0.5099994354
0.0161752022 -0.0740739743 0.4833278304
0.0378697422 -0.0253561868 0.4925931084
0.0389002543 -0.0066588357 0.5764703680
0.0235462185 -0.0328682696 0.5682385778
-0.0031461926 -0.0396460036 0.5515234908
-0.0130093348 0.0415290692 0.6097558916
0.0210823693 0.0382518153 0.5832333745
-0.0413896394 0.0346968531 0.5871433637
0.0036644784 0.0441631510 0.5991662480
0.0376089064 0.0135029664 0.5900897537
0.0234009468 -0.0280726035 0.6071302994
-0.0197950794 -0.0444085116 0.5986373026
-0.0541359861 -0.0129594205 0.5897954657
-0.0379733247 -0.1042675011 0.4620783936
0.0600967417 -0.0012853866 0.4645144939
-0.0142180280 0.1130687157 0.4647799258
-0.0741809890 -0.0249999985 0.4627852959
0.0539105932 -0.0507005485 0.4655825964
0.0474124689 0.0654790312 0.4670708853
0.0283624521 0.0963919691 0.4657968867
-0.0681215825 -0.0210847166 0.4706498627
-0.0716063162 -0.0329440494 0.4628351186
-0.0741015653 0.0070417846 0.4640919639
-0.0314196671 0.1055064912 0.4607280299
-0.0689317061 -0.0115964638 0.4719356020
0.0445481505 -0.0583383373 0.4757630347
0.0496241776 0.0084117707 0.4787167317
0.0360611276 0.0718297783 0.4763980378
0.0630996350 -0.0135229281 0.4662978208
0.0517156399 0.0217924200 0.4787747919
0.0584037248 0.0271638023 0.4721737735
0.0457315893 0.0745265441 0.4726632473
0.0451958848 -0.0501394778 0.4800584347
0.0522344250 -0.0414745210 0.4760522255
0.0518933781 -0.0614556225 0.4724674722
-0.0307252909 -0.0413343131 0.5322662290
-0.0227824980 -0.0533541593 0.5085111428
-0.0110817685 -0.0685572564 0.4929355929
-0.0252465035 -0.0776223075 0.4846507391
-0.0642854255 -0.0229630396 0.4881044293
-0.0342440774 -0.0380732290 0.5481454941
-0.0559248657 -0.0132465823 0.5753390703
-0.0421853255 -0.0348477279 0.5691637357
-0.0653706300 -0.0020439147 0.4904811433
-0.0148250322 -0.0942788080 0.4768507444
-0.0458577508 -0.0888402080 0.4697152552
-0.0484252083 -0.0414485736 0.5029168397
-0.0022053207 0.0427133085 0.5438769933
-0.0110829962 0.0516507083 0.5128975829
-0.0206214205 0.0750678028 0.4873366667
-0.0386574632 0.0922207170 0.4717828213
-0.0700041530 0.0097352638 0.4810744390
-0.0627983919 0.0490530466 0.4777468541
-0.0581150267 0.0594575218 0.4771446814
-0.0520104669 0.0205662020 0.5666181738
-0.0162170348 0.0477667867 0.5707372337
-0.0557828807 0.0338813115 0.4979889443
-0.0026356482 0.0537938072 0.5084055672
-0.0381071511 0.0828660742 0.4772659629
0.0298202648 0.0325982680 0.5804486022
0.0200827569 0.0339991629 0.5533356599
0.0006642521 0.0719669381 0.4899240757
0.0150530807 0.0489328645 0.5072741232
0.0357767794 0.0009968637 0.5510793917
0.0338880378 0.0119481214 0.5166187057
0.0070721761 0.0525150810 0.5075016159
0.0028255580 -0.0450037388 0.5633442246
0.0325999734 -0.0586864931 0.4862377471
0.0153290201 -0.0599426862 0.4957905569
0.0398162058 -0.0071368829 0.5713399284
0.0335937880 -0.0054692663 0.5294087898
0.0287900373 -0.0213816127 0.5408219951
0.0348151998 -0.0435376056 0.4921045327
0.0353150594 0.0042081807 0.6085920366
-0.0295283511 -0.0415486248 0.6022913957
-0.0523273931 0.0204497200 0.5962070564
-0.0179028484 0.0491821082 0.5860793604
0.0162415455 0.0390384715 0.6039284202
0.0384435731 0.0112018584 0.5986760910
0.0119226598 -0.0417532736 0.6032501126
-0.0368643642 0.0411534035 0.5850108474
-0.0686894470 0.0352220164 0.4727241696
-0.0519418303 0.0606643459 0.4793007600
-0.0125085996 0.0500110634 0.5117677635
-0.0067443763 0.0515359742 0.5088652509
-0.0544902324 0.0158118039 0.5102276900
-0.0600859349 0.0157197256 0.4947517289
-0.0507757966 0.0127772393 0.5500159553
-0.0362184679 0.0367218493 0.5665861521
-0.0349633284 0.0406254629 0.5199585833
-0.0465044985 0.0336223223 0.5124113241
0.0449115307 0.0269532388 0.4824403521
0.0004538016 0.0406044484 0.5360256683
0.0131452846 0.0612874878 0.4928695594
0.0347001342 0.0088140156 0.5063409870
0.0354764406 0.0038862305 0.5600809871
0.0285152262 0.0170463052 0.5327692578
0.0110125791 0.0776105337 0.4825365724
-0.0108850253 -0.0975708104 0.4733984139
-0.0380392075 -0.0345341185 0.5336330286
-0.0123744961 -0.0476951898 0.5163154153
-0.0055233723 -0.0940086753 0.4752940669
-0.0594635550 -0.0238535435 0.4925490576
-0.0601156787 -0.0387569703 0.4834379359
-0.0517710996 -0.0056574119 0.5422701031
-0.0499756147 -0.0161928026 0.5341013637
-0.0428143149 -0.0736997398 0.4777674939
-0.0013660207 -0.0542657892 0.5042197482
0.0182510066 -0.0397320510 0.5777387320
0.0133058504 -0.0350621168 0.5449889233
0.0229524358 -0.0491132217 0.4970841304
0.0395144559 -0.0040172224 0.4939735014
0.0315520480 -0.0572106036 0.4850888488
0.0341537370 -0.0059508548 0.5555366807
0.0027408804 -0.0416014313 0.5280735215
-0.0089745430 -0.0403227696 0.5534367435
0.0080656020 0.0385404413 0.6096524070
-0.0120417131 0.0348877678 0.5149224003
-0.0216187212 -0.0428217666 0.5221178007
-0.0186892268 -0.0427457747 0.5573513361
-0.0516077304 -0.0123248305 0.5442855348
-0.0412803649 -0.0292125378 0.5473494065
-0.0244466724 -0.0391708390 0.5216699949
-0.0235777865 0.0362065129 0.5740364073
-0.0304029782 0.0352957332 0.5513662748
-0.0405082723 0.0262017583 0.5311410457
-0.0420829246 0.0213044084 0.5272207758
-0.0275220066 0.0231261770 0.5150099270
-0.0494917134 0.0077884168 0.5168280426
-0.0320546530 0.0323964403 0.5693589563
-0.0420914250 0.0251775523 0.5726131786
-0.0388500489 0.0287766811 0.5487900247
-0.0479904749 0.0040435433 0.5650295491
-0.0519271291 0.0167345113 0.5812161903
-0.0415925293 -0.0196274132 0.5830174695
-0.0214462624 -0.0397145484 0.5169663232
-0.0099660039 -0.0453739837 0.5874286543
-0.0087260057 -0.0428729904 0.6053097000
-0.0099573041 0.0421300722 0.6045765853
-0.0504536945 0.0071093572 0.5943736185
-0.0029199228 -0.0411552754 0.5437717722
0.0109444582 -0.0385507315 0.5889318175
0.0327005286 0.0234818729 0.5839977539
0.0304431136 -0.0089456332 0.5723783413
0.0286620276 -0.0075786038 0.5151460264
0.0065512560 0.0367249882 0.5355482236
0.0097833041 -0.0383007233 0.5418245252
-0.0026053832 0.0442443118 0.5910204431
0.0167003830 0.0338710453 0.5603579954
0.0178159689 -0.0172818849 0.5136821336
0.0172469957 0.0325766117 0.5700171247
0.0297441639 0.0282576565 0.5757492610
0.0232627765 0.0302890491 0.5709043844
0.0026953972 -0.0425165501 0.5822773615
0.0236082983 -0.0263572479 0.5519954906
0.0360814268 0.0079672080 0.5667556217
0.0313106776 -0.0067478041 0.5255421596
0.0235600646 0.0112083147 0.5194836169
0.0276469376 0.0207421607 0.5456217047
0.0258885933 -0.0104728371 0.5327134709
0.0307965444 0.0092574489 0.5484388412
0.0312575436 0.0152518446 0.5573455318
0.0263101183 -0.0177920582 0.5588660239
0.0106065336 0.0650657734 0.2034013241
-0.0255622221 0.0668570539 0.2071798231
0.0014566807 0.0682766094 0.2109177865
0.0133663043 0.0611025585 0.1902966648
-0.0176741746 0.0665081689 0.2027971351
0.0252587667 0.0739375755 0.2211408578
-0.0897928088 -0.0026572378 0.4264255625
-0.0980193819 0.0004574408 0.4224823284
0.0486952239 -0.0960751972 0.2201937585
0.0513158347 -0.1108538777 0.2510848525
0.0479790098 -0.1075424297 0.2465203154
0.0276020768 -0.1153184867 0.2469151680
0.0566308455 -0.1029041734 0.2401581498
0.0208792909 0.1225885779 0.3074279431
0.0166717206 0.1011126288 0.2004334947
0.0434534745 -0.1305028910 0.3343364642
0.0446417428 -0.1317056876 0.3671044396
0.0434461574 -0.1319481579 0.3637671858
0.0536007933 0.0979506800 0.4187761511
0.0574619273 0.1088652754 0.3958522519
0.0218214793 0.1218968942 0.4578298156
0.0195919889 -0.1371646089 0.3049838181
0.0290873629 0.0687340931 0.1494444169
0.0427555549 0.0359975302 0.1483347033
0.0419216471 0.0469523710 0.1564700579
0.0293396124 0.0766520903 0.1865698761
0.0365646706 0.0635891551 0.1850194266
0.0128039890 0.0652430280 0.1726627391
0.0213180225 0.0646693890 0.1759652256
0.0065229532 0.1152993834 0.2975208813
-0.0001734441 0.1233377444 0.4422246530
0.0727602143 -0.0920100716 0.3239365206
0.0446099324 -0.1110354296 0.2910509389
0.0638719661 -0.1020354015 0.2721107130
0.0581682759 -0.1239509107 0.3241824168
0.0639899544 -0.1182682155 0.3903877661
0.0590756325 -0.1256625950 0.3886328322
0.0722180122 -0.0053145173 0.1721929169
0.0516113526 -0.0407586491 0.1699173854
0.0634686009 -0.0247715346 0.1606443662
0.0561148415 -0.0380338641 0.1583590922
0.0228528249 -0.0872960716 0.1623889573
0.0134856880 -0.0746779146 0.1131721178
0.0553437669 -0.0525800999 0.1172552088
0.0439090617 -0.0570736759 0.1777361998
0.0442211106 -0.0534705571 0.1757432359
0.0451714381 -0.0913446083 0.2080393474
0.0193126385 -0.1070360978 0.2230883831
0.0576194234 -0.0456126701 0.4641484365
0.0771760951 -0.0935991616 0.2737686959
0.0842712840 -0.0525351270 0.2523150569
0.0801074659 -0.0219153647 0.1994041797
0.0912846629 -0.0761504632 0.2611943752
0.0843220039 -0.0535793374 0.2548859504
0.1006946123 -0.0619563882 0.2999608823
0.0833815578 -0.0558771355 0.2868837678
0.0960664924 -0.0465083581 0.2717765130
0.0444119231 0.1187007903 0.2716597708
0.0741860492 0.0632844101 0.2234732821
0.0593790934 0.0886166846 0.2198625696
0.0609312663 0.1079640835 0.3032289899
0.0714567194 0.1003184921 0.2618805113
0.0820447387 -0.0877212081 0.2409671022
0.0795906281 -0.0483612232 0.4213905642
0.0776619054 -0.0432689569 0.4205301579
0.0717788780 0.0003733718 0.4595794097
0.0771487725 -0.0420403006 0.4518603092
0.0642113760 -0.0251056070 0.4646718702
0.0800804730 0.0572673844 0.4409669558
0.0774039334 0.0582779792 0.4458982531
0.0648332884 0.0720995929 0.4453769512
0.0600890589 0.0551028713 0.4637491292
0.0699734199 -0.0976953518 0.3836147540
0.0686673281 -0.0964421786 0.3876071170
0.0849164201 0.0177423223 0.4411232431
0.0788885570 0.0575475616 0.3818754722
0.0816060719 0.0444522846 0.3878461049
0.0748160114 0.0776435251 0.3721563173
0.0750671023 0.0360833251 0.4447421978
0.0669297999 0.0891996840 0.4495951685
0.0035054102 0.1218081942 0.4625849792
0.0864065561 -0.0740434252 0.3631624153
0.0931624498 -0.0570087422 0.3913709763
0.0933440255 -0.0579412486 0.3878472146
0.0978812402 0.0290240201 0.4281487439
0.0767170744 0.0135796453 0.4541036048
0.0451772537 -0.1159332676 0.4478016329
0.0875367293 -0.0668663699 0.3750299748
0.0882952411 -0.0674349974 0.3689496949
0.0698057763 -0.0546269625 0.4290661372
0.0669286339 -0.0471908936 0.4490746937
0.0750769468 -0.0641332986 0.3979126428
0.0595909655 -0.0771485324 0.4347035599
0.1093051046 0.0033463778 0.2477881255
0.0925776229 0.0061074099 0.2170475839
0.1186704145 0.0059973610 0.2652371619
0.0997105390 0.0129145331 0.2306090274
0.0882654068 0.0236671604 0.3942867463
0.0828785353 0.0721139350 0.3782182676
0.0905607914 -0.0760634433 0.3287019507
0.0979591286 -0.0659412239 0.3173438719
0.0927511631 -0.0544083134 0.3840397737
0.0957141303 -0.0605390866 0.3474493224
0.0988034062 0.0587566064 0.3241776708
0.1122037174 0.0419989437 0.2924581531
0.1086058397 0.0405015645 0.3279242112
0.1008063626 0.0411817115 0.3871629718
0.0984539711 0.0503643449 0.3646842346
0.1196265365 -0.0239065077 0.2533732786
0.1181369079 0.0464114776 0.2441104990
0.0754784740 0.0599151706 0.4525667575
0.0771313086 0.0650127648 0.4071923559
0.0789105739 0.0680080081 0.4163180412
0.0930905105 0.0410621849 0.4345090658
0.0265176164 0.1160096312 0.4641768134
0.0319400805 0.1040804215 0.4681075084
0.0751748972 -0.0795396151 0.4359394454
0.1001097357 0.0119982488 0.4222487812
0.1025268296 0.0371330258 0.3990532557
0.0430066888 -0.1103059115 0.4522841296
0.0067752698 -0.1099890669 0.4679877136
0.0571061372 0.0514279192 0.0974759415
0.0694974138 0.0364224968 0.1002855376
0.0565906322 0.0699173871 0.1519867760
0.1144265589 0.0091895240 0.2158110327
0.0931525626 0.0727467445 0.2887786297
0.0903837143 0.0777835150 0.2727350378
0.0931851664 0.0736053890 0.2732647096
0.0843999747 0.0158823927 0.2056835385
0.0832087571 0.0170300720 0.2046657278
0.0979190216 0.0453929843 0.2426092642
0.0802814770 0.0943714205 0.2410831154
0.1065215594 0.0498687163 0.2123438284
0.1101543554 0.0603221730 0.2257276949
0.0978321463 0.0875222580 0.2596938345
0.1060939132 0.0687622680 0.2992618145
0.1118818482 0.0544950208 0.2987045652
0.0931057562 0.0707314109 0.4009109333
0.0965594995 0.0747330756 0.3614891933
0.1172256395 0.0422848212 0.2867418628
0.1013045698 0.0551871904 0.3825870479
0.0756077083 0.1143999167 0.3591216462
0.0100119474 0.1253829259 0.2531682693
0.0661090076 0.1183805950 0.2752843222
0.0817323901 0.1090295619 0.3105686307
0.0676286936 0.1212703930 0.2887311203
0.0798646272 0.0980824999 0.4037875896
0.0771323466 0.0995964495 0.4152504057
0.0125790224 0.1293048434 0.4559286700
0.0548438300 0.1348618539 0.3784508298
0.0495231889 0.1200642867 0.3317788667
0.0656517901 0.1281991092 0.3694720664
0.0618295847 0.1289008213 0.3197741678
0.0378202843 0.1298764159 0.4303238693
0.0559970268 0.1299055694 0.3981581379
0.0323390153 0.1370158286 0.2888476600
0.0308450524 0.1414734180 0.3001473040
0.0525244130 0.1416925543 0.3780501825
0.0626424687 0.1319325824 0.3526196319
0.1097429797 -0.0191999168 0.2204533631
0.1151442007 -0.0215015572 0.2363732252
0.0959677544 -0.0400936121 0.2016919225
0.0574174890 0.0845141632 0.1989912999
0.0294832064 0.0797979257 0.1317261809
0.0474264572 0.0779246691 0.1641654724
0.0736106642 0.0610561638 0.1804218646
0.0727170240 0.0456472957 0.1349159174
0.0687857114 0.0866631701 0.2163941729
0.0383975017 0.0856335117 0.1741675414
0.0274016005 0.1088056103 0.2193040540
0.0033206886 0.1103829808 0.2143860758
0.0812574102 0.0325119103 0.1727061967
0.0783040114 0.0340024731 0.1471746054
0.0205367785 -0.0704070272 0.1038432988
0.0821832491 -0.0023345439 0.1402028512
0.0361066916 -0.1233785808 0.3056888898
0.0481185829 -0.1191727884 0.2813078251
0.0865123567 -0.0870488219 0.2923043288
0.0653101372 -0.1180305453 0.3794741833
0.0901404872 -0.0822201022 0.2930942544
0.0917013365 -0.0814339198 0.3363193627
0.1025084276 -0.0660178106 0.3043675966
0.0854678276 -0.0889625315 0.3094657203
0.0051411458 -0.1208328096 0.2425312304
0.0381329102 -0.1304259231 0.3581656148
0.0276837732 -0.1355286348 0.3537168050
0.0283605760 -0.1250369185 0.2895665530
0.0829472051 -0.0879516301 0.3801659580
0.0949973256 -0.0724164584 0.3444772483
0.0766270905 -0.0988841368 0.3889560141
0.1190947571 -0.0417166118 0.2718000700
0.0961381522 -0.0574705700 0.3891435616
0.0806204951 -0.0950101388 0.3725851351
0.1019382254 -0.0518653227 0.3652899886
0.1069032163 -0.0582361559 0.2476296336
0.0887538280 -0.0828125718 0.2562152798
0.0973861744 -0.0509071198 0.2148670743
0.0620497540 -0.0950075261 0.2246545472
0.0402994606 -0.1106931396 0.2363101727
0.0079884879 -0.0898264098 0.1546826807
0.0524304817 -0.0808408256 0.1928924048
0.0653431596 -0.0664428348 0.1853721895
0.0607763494 -0.0582818221 0.1418023500
0.0503427863 -0.0795973716 0.1816508965
0.0283815316 -0.0952536186 0.1769126712
0.0142824491 -0.1021711555 0.2009393901
0.0494526437 -0.0729788467 0.1573856607
0.0527769250 -0.0685892693 0.1518943391
0.0360748459 -0.0775962646 0.1419271850
0.0791736322 -0.0223481748 0.1430773264
0.0918529599 -0.0320938340 0.1893278019
0.0800112992 -0.0204308815 0.1459327895
0.1053833485 0.0725106336 0.2862552311
0.0932145228 0.0937843706 0.2854324834
0.0735974806 0.1085152531 0.2610886622
0.0597050370 0.0760988646 0.2109139352
0.0723910737 0.0954948134 0.2424795024
0.0886543216 -0.0820757388 0.2374123681
0.0370931241 -0.1129384765 0.2387327311
0.0295092029 -0.1230265662 0.2690088574
0.0374799627 -0.1225726254 0.2769957861
0.0555864439 -0.1038804057 0.2362610647
0.0764760340 -0.0841904374 0.2294568222
0.0697719097 -0.0426280090 0.2031997990
0.0719834222 -0.0699618668 0.2153432373
0.0595944834 -0.1160734976 0.2700293038
0.0521525345 -0.1252175938 0.3658144827
0.0471828213 -0.1179205121 0.2733773248
0.0902734690 -0.0774075533 0.2298225604
0.0764110782 -0.0090390134 0.1863932146
0.0589999701 -0.0931618040 0.2188344351
0.0735896501 0.0921965566 0.2409338567
0.0407104840 -0.0976819786 0.2211167814
0.0646855425 0.0233521400 0.4557872087
0.0686917575 0.0233779012 0.4549298125
0.0212960636 0.0579985030 0.1128427253
0.0559911560 0.0262966488 0.1505422943
0.0329941470 0.0644220674 0.0967422080
0.0575028823 0.0412659705 0.1110340415
0.0706034432 -0.0143151431 0.1158612794
0.0707445826 -0.0200761373 0.1376372786
0.0737502103 0.0035000839 0.1732713404
0.0263562422 -0.0591448053 0.1722550023
0.0398373396 -0.0469211426 0.1739799165
0.0311364403 -0.0403049025 0.1791238500
0.0254684004 -0.0601646002 0.1734418363
0.0160521122 -0.1117420823 0.4557463470
-0.0042323174 -0.1199626753 0.4508271584
0.0531651917 -0.1079942684 0.3047117256
0.0301497911 -0.1068910037 0.3009883755
-0.0036295353 -0.1252681054 0.2804839140
0.0089664294 -0.1225893432 0.2825483555
-0.0052537050 -0.1302476631 0.2823694572
0.0160436367 -0.1129373041 0.3008972825
-0.0042820628 -0.1155895612 0.2877481007
0.0476763103 -0.1283772475 0.4341006767
0.0197289314 0.0820854472 0.1617203300
0.0253232135 0.0838020148 0.1597423801
-0.0001224355 0.0907873406 0.1729307121
0.0329748770 0.1170692625 0.4391913132
0.0364509676 0.1103406144 0.4033813269
0.0105810477 0.1166232097 0.4368174121
0.0089363820 0.1255329394 0.2809323637
0.0559578826 0.1114834015 0.3142304830
0.0407788542 0.1181572199 0.2904031311
0.0393560102 0.1133562500 0.3928579777
0.0131629613 0.1300807083 0.4416184156
0.0104544918 -0.1378225131 0.4481500701
0.0041379743 0.1026233496 0.1994011208
0.0068741454 0.1235422848 0.2544479220
0.0046789106 -0.1097425589 0.2180964271
0.0182947397 0.0851292493 0.1469370264
0.0931923517 -0.0158814461 0.1879049391
0.0901880134 0.0456286492 0.1900436793
0.1094698870 0.0297284925 0.2099736200
0.0315061615 0.1126173245 0.2374532593
0.0575020365 0.0939140438 0.2237956765
0.0424449498 0.1098190127 0.2445611694
0.0643651148 0.0869571850 0.2219295197
0.0344264482 0.1132413832 0.2411557723
-0.0806344410 -0.0256970500 0.4536358896
-0.0723990317 0.0538714437 0.4471525379
-0.0969105938 0.0217768155 0.4207407876
-0.0582920688 0.0445362099 0.1865458948
-0.0611647419 0.0232320770 0.1654004687
-0.0700149409 0.0832709238 0.3329497856
-0.0960137023 0.0289623347 0.3815896663
-0.0783838817 0.0664381519 0.3494933678
-0.0821558944 0.0689299010 0.4005004570
-0.0650290810 0.0971005370 0.3442932769
-0.0780604699 0.0743570744 0.3767190182
-0.0707123127 0.0851531427 0.3424105157
-0.0556747891 0.1208048001 0.3793016876
-0.0684631335 0.0894323561 0.4159231393
-0.0813002787 0.0687797646 0.4088578410
-0.0843983926 0.0076326739 0.2771486199
-0.0636994567 0.0730162377 0.2787331054
-0.0798833011 0.0061525953 0.2471391141
-0.0696646773 0.0268510730 0.2255921814
-0.0573234033 0.0866968934 0.2667647709
-0.0547827726 0.1012827878 0.2796097090
-0.1028423995 -0.0048607753 0.3639876178
-0.0654343984 0.0081034973 0.1639995499
-0.0708806002 0.0276541306 0.2344537191
-0.0981346215 -0.0035686030 0.3381648205
-0.0613381594 0.0837723819 0.2852718989
-0.0792938940 0.0125283804 0.2558883131
-0.0756380304 0.0074539352 0.2241156950
-0.0668233382 0.0648468563 0.2817687270
-0.0623209678 0.0892109965 0.3016699203
-0.0917633396 -0.0098579189 0.4280731742
-0.0770897338 -0.0406652390 0.4393128133
-0.0586476521 -0.0663162997 0.4482958310
-0.0804448509 -0.0355822496 0.4414848856
-0.0961524279 -0.0158729391 0.3471376867
-0.0767784059 -0.0724870962 0.3628280111
-0.0744414616 -0.0257926593 0.2393832705
-0.0857158544 -0.0292812793 0.3155718543
-0.0635614377 -0.0194653819 0.1589265693
-0.0850741727 -0.0315368542 0.3169824939
-0.0866902399 -0.0374781279 0.3406452002
-0.0633466329 -0.0883791836 0.3190082041
-0.0756367331 -0.0229238290 0.2398763960
-0.0823902903 -0.0352209052 0.3094175053
-0.0706411336 -0.0660020422 0.3106151815
-0.0893833024 -0.0284472924 0.3357448438
-0.0755213227 -0.0315779587 0.2594457589
-0.0633270346 -0.1151981635 0.3816927953
-0.0563445229 -0.1260100122 0.3648852677
-0.0656854986 -0.0208846810 0.1750647892
-0.0710453713 0.0858972255 0.4331234944
-0.0912483823 0.0693331370 0.3714328708
-0.1003249893 0.0400144100 0.3916985587
-0.1017117059 0.0296818624 0.3847446076
-0.0897869621 0.0385535488 0.2858878650
-0.0988646449 0.0343388653 0.3447480909
-0.0978788223 0.0551689200 0.3433828998
-0.0911101954 0.0320625134 0.2930177004
-0.0941990029 -0.0039182313 0.3045212169
-0.0991841163 0.0458655978 0.3497004199
-0.0894716668 0.0053716332 0.2756196085
-0.0885976901 0.0007688445 0.2687168127
-0.0858466544 0.0007155804 0.2505506200
-0.0707554066 0.0099393626 0.4541894220
-0.0590113310 -0.0783990133 0.4559964838
-0.0586257447 -0.0897938243 0.4520485866
-0.0546592104 -0.1209930567 0.4179903751
-0.0776595222 -0.0527532621 0.2303553117
-0.0842911235 -0.0681919855 0.2989106606
-0.1021102343 -0.0175183699 0.3683018824
-0.0848336926 -0.0648823717 0.2988224824
-0.0864218296 -0.0214243506 0.2564903769
-0.0991776569 -0.0388847220 0.3731115768
-0.0951735773 -0.0592984321 0.3687654148
-0.0921634368 -0.0644151406 0.3527531792
-0.0777530545 -0.0346389563 0.2084827103
-0.0959927334 -0.0453920854 0.3575320314
-0.0695577892 -0.0758246555 0.4293601241
-0.0813648603 -0.0915752091 0.3772764785
-0.0813191403 -0.0799280615 0.3924269499
-0.0460242768 0.1162564318 0.4220905686
-0.0356646328 0.1014605937 0.4591243005
-0.0270951992 0.1203105725 0.4504478360
-0.0491188706 0.1132306713 0.4437411556
-0.0201378850 0.1121118009 0.4551330197
-0.0305241939 0.0690228881 0.1867400862
-0.0457730524 0.0417956698 0.1691997434
-0.0417070172 0.0421519770 0.1662653245
-0.0528334968 0.0313844925 0.1477103560
-0.0495891751 0.0649926113 0.1687125435
-0.0388616084 0.0819443863 0.1710020154
-0.0450794440 0.0781788457 0.1793893399
-0.0639492270 -0.0157837505 0.1388920408
-0.0616249850 -0.0454835669 0.1573885591
-0.0571437253 -0.0389733042 0.1544404545
-0.0461549141 -0.0463870462 0.1362378943
-0.0580216031 -0.0366021834 0.1105640646
-0.0673725482 -0.0534379929 0.2322039520
-0.0627222210 -0.0825908976 0.2716452845
-0.0724879048 -0.0883020381 0.3151889539
-0.0652031269 -0.0345694471 0.1893017244
-0.0661105632 -0.0621611590 0.2444400363
-0.0666740770 -0.0950808999 0.3084841057
-0.0628206907 -0.0199099127 0.1536316638
-0.0549028895 -0.0927879677 0.2796776336
-0.0682443502 -0.0567955210 0.2467457998
-0.0583981620 -0.0928419256 0.2901903578
-0.0806976105 -0.0760836123 0.3227424208
-0.0466456466 -0.1041681121 0.2780680581
-0.0580581125 -0.0983353805 0.3002655779
-0.0658122939 -0.0671441627 0.2603932566
-0.0760103410 -0.0465555449 0.2491943353
-0.0590717493 -0.1070365379 0.3208441780
-0.0443981320 -0.1215472078 0.3005614524
-0.0512529994 -0.0766480290 0.2191094665
-0.0507171958 -0.0777706352 0.2191012731
-0.0427168281 -0.0805161112 0.1907767972
-0.0662373306 -0.0529083602 0.4132743359
-0.0400853479 -0.1174650894 0.4329387112
-0.0377941993 -0.1249415107 0.4300172235
-0.0306606721 -0.0992315153 0.4355774235
-0.0858037558 -0.0494991311 0.3874692747
-0.0889073497 -0.0484324245 0.3839958304
-0.0462608882 -0.1077193895 0.4119958647
-0.0526557278 -0.1277622940 0.3950073450
-0.0633330656 0.1128472203 0.3793735331
-0.0721888789 0.1001960988 0.3695875451
-0.0760367978 0.0946089742 0.3622880451
-0.0513666984 0.1000304432 0.2507006598
-0.0505811691 0.0949598371 0.2368492601
-0.0556387058 0.1111031052 0.2963019030
-0.0593106890 0.0870895722 0.2506047932
-0.0568768163 0.1082596477 0.2941847995
-0.0153136391 0.0569449488 0.1439267052
-0.0073121439 0.0655622047 0.1440667722
-0.0353166544 0.0579187620 0.1542858876
0.0078304506 0.0854358015 0.1524773953
-0.0391779517 0.0871812626 0.1904425949
-0.0340068134 0.1035047949 0.2254939024
-0.0258403414 0.1135657902 0.2436591471
-0.0108446139 0.1112663167 0.2301181499
-0.0000824775 0.0900228506 0.1646321711
-0.0523634398 0.1236968803 0.3564828052
-0.0485671535 0.1240040267 0.4095783504
-0.0414284083 0.1324844391 0.4241054464
-0.0382232261 0.1248279155 0.2993486807
-0.0279471738 0.1357088914 0.4484780048
-0.0177071095 -0.1086654802 0.4648846709
-0.0616225812 0.0388838424 0.4582480306
-0.0569863485 0.0559354373 0.4593424091
0.0018118489 0.1044271990 0.2079105923
-0.0039895056 0.1112686543 0.2327920941
-0.0580880585 0.1189859944 0.3442378918
-0.0395117034 0.1356575023 0.3073435825
-0.0482788421 0.1028867008 0.2494668778
-0.0595805010 0.0361346398 0.4612110024
-0.0062013079 -0.1396826018 0.3088126383
-0.0543476527 -0.1048973347 0.3109962611
-0.0614124100 -0.0362528706 0.1875920888
-0.0515123159 -0.0893228532 0.2671074368
-0.0424279166 -0.1002950304 0.2583507202
-0.0588255988 -0.0749045196 0.2620579773
-0.0287925848 -0.1373330958 0.3374096628
-0.0205771900 -0.1341034431 0.3044481998
-0.0223053272 -0.1304907262 0.4370499434
-0.0158701913 -0.1286302740 0.4472188314
-0.0465688924 0.0177797712 0.1288735478
-0.0162512049 0.0570878432 0.1154942791
-0.0482492683 0.0934447183 0.2278725325
-0.0078590123 0.1389607132 0.2903003041
-0.0009406443 0.1172468794 0.2336865394
-0.0656383872 0.1084157112 0.3927202747
-0.0740123249 0.0978431327 0.3784448703
-0.0616285765 0.1026018874 0.4336796881
-0.0342596255 -0.1266481352 0.4386636952
-0.0124001229 -0.1368035389 0.4417240498
-0.0333947168 -0.1332417890 0.3280199665
-0.0325664824 -0.1204958389 0.2845406257
-0.0208544730 -0.1105210997 0.2298548487
-0.0177055277 -0.1221054681 0.2620860751
-0.0305379836 -0.1097840099 0.2455120495
-0.0669002878 -0.1181055689 0.3716336023
-0.0690864124 -0.1088213767 0.3454942341
-0.0705475704 -0.1054803254 0.3402544024
-0.0216408894 0.0472029821 0.1102486040
0.0034735834 -0.1388274672 0.2920497213
-0.0147746220 -0.1212636431 0.2616983841
-0.0488584305 -0.1099045979 0.2761363075
-0.0363189653 -0.0518127461 0.1066713066
-0.0290365918 -0.0571090362 0.1067136154
-0.0182285176 -0.0771504942 0.1325681097
-0.0437340379 0.0284658960 0.1304305965
-0.0436391598 0.0475515489 0.1483692089
-0.0248340168 0.0486779864 0.1185599528
-0.0049716359 0.0948704541 0.1729950554
-0.0030205454 0.0821795144 0.1199132352
-0.0449231676 0.0575202131 0.1592302469
-0.0685203609 0.0322878299 0.1866169625
-0.0587796759 0.0669808707 0.1767582339
-0.0804782849 0.0555278489 0.2623600488
-0.0702306444 0.0598529489 0.2208849436
-0.0645030506 0.0186656484 0.1555496009
-0.0610484093 0.0610478678 0.1811304864
-0.0857046571 0.0302279659 0.2589184382
-0.0658304280 -0.0137847592 0.1263889813
-0.0609760733 0.0704243496 0.2029448155
-0.0597187000 0.0782044577 0.2234206283
-0.0284651316 0.0907111065 0.1795555946
-0.0188406060 0.1051857561 0.2102696789
-0.0068065048 0.1103987062 0.2169684194
-0.0371022676 0.1169442218 0.2538984309
-0.0472871024 0.0832310415 0.1914469599
-0.0093819265 -0.1133171952 0.2280718062
-0.0431593501 -0.1060813040 0.2451814748
-0.0232968427 -0.1041768145 0.2277814784
-0.0027891739 -0.1038409478 0.2124198799
-0.0078444218 -0.1043375309 0.2171408698
-0.0050356660 -0.0875192382 0.1772504278
-0.0177952290 -0.0860473096 0.1637316525
-0.0040018763 -0.0814065733 0.1444655541
0.0043352813 -0.0830645621 0.1256398573
-0.0072693027 -0.0784007581 0.1146109000
-0.0151139685 -0.0901320843 0.1642827160
-0.0140538950 -0.0844379693 0.1429577739
-0.0348218083 -0.0711968206 0.1469876856
-0.0556322871 -0.0663030241 0.1631895841
-0.0814907357 -0.0678012156 0.2820131427
-0.0716599615 -0.0556760402 0.2009745719
-0.0732359120 -0.0895210745 0.3004330374
-0.0657482112 -0.0741558065 0.2198057296
-0.0596798066 -0.1023798478 0.2708879296
-0.0779510674 -0.0766903024 0.2867865421
-0.0442714950 -0.0956616838 0.2199497817
-0.0498463007 -0.0796949540 0.1927196358
0.0123005600 -0.0899490293 0.1713984637
-0.0758766400 0.0141156256 0.4176671551
-0.0805129009 -0.0290971106 0.4123986657
-0.0844839977 -0.0442950988 0.3896438738
-0.0759706526 0.0039473502 0.4253305040
-0.0824662174 -0.0357997038 0.4005595261
-0.0782088804 0.0050220583 0.4044434390
-0.1017892233 0.0018965312 0.3865961371
-0.0882256759 0.0259559158 0.4036815601
-0.0940211050 0.0007924542 0.4267381519
-0.0889035102 0.0239012596 0.4219748818
-0.0760581480 0.0667877656 0.4279636415
-0.0881608377 0.0210470054 0.4378031705
-0.0945222728 0.0363086975 0.4175866690
-0.0027524790 -0.0755225603 0.1706859531
-0.0117355015 -0.0696665827 0.1703735883
0.0101011144 -0.1268071621 0.2852127576
0.0108328040 -0.1127294273 0.2869368217
0.0002335983 -0.1240746104 0.4492790710
0.0149803225 0.1404722606 0.3062551196
-0.0299249382 0.1385801056 0.3413890205
0.0074864583 0.1400055217 0.3026318085
0.0155797962 0.1398112578 0.3222528722
0.0410863973 0.1338871039 0.4150563108
0.0269743666 0.1404777107 0.3196358258
-0.0048189737 0.1283545102 0.4358762653
-0.0419182407 0.1356552234 0.4048198166
-0.0002121931 0.1394977138 0.3114713325
-0.0344256933 0.1208331209 0.4170584950
0.0216270500 0.1283356089 0.4299310977
0.0321460741 0.1365201737 0.3741701300
-0.0298601776 0.1278363012 0.4283870355
0.0213815098 0.1274179508 0.3598783128
0.0063123456 0.1316408896 0.3488016625
0.0002066236 0.1190826799 0.4351399229
0.0391315452 0.1361940520 0.3343182403
0.0409805124 0.1335192503 0.3900669982
-0.0460122946 0.1353376773 0.3836933482
-0.0278493845 0.1166750774 0.3825792663
0.0399864934 0.1061491342 0.3906435627
-0.0400553694 0.1244798051 0.3803365027
-0.0377885164 0.1318532854 0.3570075991
0.0394361193 0.1251427947 0.4125427591
0.0192396224 -0.1023500702 0.3325083965
0.0185337344 -0.1024044499 0.3078060536
-0.0328040058 -0.1007058254 0.3623217434
-0.0324593064 -0.0990867845 0.2790488843
0.0392963274 -0.1024499983 0.4382049660
-0.0185642943 -0.0996486201 0.4442345562
-0.0345471878 -0.1024499983 0.3840145721
-0.0196278306 -0.1006401596 0.3413246851
-0.0047938424 -0.1024499983 0.3520242472
-0.0224941234 -0.1017619162 0.3208325094
0.0080898469 -0.0964636748 0.3032324573
0.0123167430 -0.1001400735 0.3129576147
0.0170712613 -0.1024499983 0.2753321190
0.0269951720 -0.0944499969 0.3226279330
-0.0047377026 -0.0944499969 0.2951115750
0.0352301528 -0.0939831980 0.2734469333
-0.0337114953 -0.0946115776 0.4203592606
-0.0442397054 -0.0945139649 0.3046747393
0.0363111634 -0.0944499969 0.4148165693
0.0293084179 -0.0975763908 0.2813839411
0.0032145002 -0.0962608932 0.2806282257
-0.0229391828 -0.0871557110 0.2442515698
0.0208836447 -0.0952532770 0.3086170078
-0.0294763506 -0.0944499969 0.3168944216
0.0291791958 -0.0944499969 0.4375160845
-0.0087705456 -0.1004900723 0.3369985991
0.0449542468 -0.0946274464 0.3964359538
0.0442351329 -0.0601534688 0.1865038001
-0.0449956539 -0.1007225569 0.3558391776
0.0190175415 -0.0995197596 0.4487003923
0.0059023985 -0.0886670315 0.4541672163
-0.0032234902 -0.0624098655 0.4652587478
-0.0177425697 -0.0815104515 0.4570033674
-0.0110222774 -0.0760163144 0.4544501787
0.0007921492 -0.0850257949 0.4496437765
0.0083312975 -0.0706761071 0.4570453895
0.0360913602 -0.0695879672 0.1899947824
0.0133399042 -0.1011328993 0.2636751347
-0.0241019083 -0.0870548369 0.2315249821
-0.0199429423 -0.0951289878 0.2533254137
-0.0339729424 -0.0731661343 0.1991582150
-0.0099154164 -0.0654840311 0.1876261705
0.0200094992 -0.0789751606 0.2117026659
0.0148663467 -0.0793901400 0.2126623044
-0.0270164542 -0.0352505435 0.1734882444
-0.0087687868 -0.0414436817 0.1734882444
-0.0329612779 -0.0324499980 0.1801053403
-0.0221906594 -0.0458795534 0.1814882308
-0.0395541945 -0.0336904587 0.1812825725
-0.0007830296 -0.0731177267 0.2183129873
0.0050338268 -0.0750223630 0.2227174595
-0.0191200750 -0.0851726534 0.2439484620
0.0273970551 -0.0688509185 0.2084459969
-0.0024016737 -0.0967814102 0.4301776408
0.0205868084 -0.0994034218 0.3628630408
0.0321820960 -0.0949979311 0.4222107243
-0.0353654329 -0.0945242272 0.4307638752
0.0065570075 -0.0934520909 0.2491202248
0.0214044384 -0.0641877263 0.4625447328
-0.0287294717 -0.0763796810 0.4552873131
0.0152549363 -0.0962471320 0.3404526199
0.0017123549 -0.1019512827 0.2681134832
-0.0039214453 -0.0949501566 0.2490273191
0.0085766083 -0.0658958477 0.1828223211
-0.0027833228 -0.0905810869 0.2440735371
-0.0133702614 -0.0617273122 0.1832776667
-0.0244644950 -0.0683463201 0.2006738038
-0.0255624923 -0.0653803609 0.1924821562
0.0396607382 -0.1010545257 0.3760959016
-0.0398084050 -0.0993029016 0.3445129691
0.0061153897 -0.0950360237 0.3456249611
0.0228701306 -0.0945367018 0.3536428674
0.0793628822 -0.0221771527 0.4402626116
0.0813644789 0.0087539714 0.4386600265
0.0793009256 -0.0397120952 0.4412052231
0.0823692454 0.0507602338 0.4392195376
0.0263068907 -0.1401773212 0.3293331659
-0.0253001221 -0.1340990159 0.3498151686
0.0004193575 -0.1321394451 0.3463366801
-0.0087005610 -0.1405059590 0.3110937503
0.0298976013 -0.1393708356 0.3341336628
-0.0146312029 -0.1242194803 0.3601789062
0.0345536946 -0.1338218056 0.3571787427
0.0455652471 -0.1369836524 0.3934728926
-0.0332246808 -0.1349519220 0.4062092905
-0.0048486799 -0.1388636473 0.3094396121
0.0445490882 -0.1373381065 0.4067397319
-0.0046072834 -0.1242176903 0.4280203526
-0.0022496644 -0.1345000572 0.3061940102
0.0201467538 -0.1380891691 0.3102116992
0.0073381104 -0.1230244079 0.4305998317
-0.0268672705 -0.1387256564 0.4150842319
-0.0064696174 -0.1211127503 0.4317400489
0.0339255032 -0.1306243785 0.3655972565
0.0238487279 -0.1328645626 0.4302066617
-0.0350011386 -0.1042456467 0.4064677706
-0.0395868314 -0.1062251906 0.3922060334
0.0387981485 -0.1240772881 0.4143505482
-0.0349016655 -0.1226870852 0.3922656046
-0.0254457623 -0.1227070771 0.3857511107
0.0206960325 -0.1086019970 0.4199740372
-0.0220570624 -0.1241232595 0.3790137453
-0.0330609450 0.1073214761 0.3713259653
0.0283544818 0.1025500000 0.3701697380
-0.0314717866 0.1028495833 0.3835877795
-0.0062275128 0.1030999854 0.3586166579
0.0322932043 0.1107083783 0.3838716009
-0.0236092907 0.1044469335 0.4216938203
0.0272863038 0.1119661581 0.4199053430
0.0020509720 0.1074842647 0.4312562790
0.0271346172 0.1054460323 0.4182221835
-0.0217130262 0.1034862315 0.4278640417
0.0252605088 0.1173133645 0.2396589447
0.0171560277 0.1045231473 0.2030910470
0.1119589167 0.0279857555 0.2143450327
0.0610123022 0.0628182468 0.1443506801
0.0624938886 0.0653889812 0.1575908224
0.0451240943 0.0700496573 0.1217417985
0.0842429426 0.0186627651 0.1495909708
0.0318463340 0.0860069762 0.1535988248
0.0523808435 0.0747902150 0.1603493943
0.0388779841 0.0727529530 0.1158813614
0.0870923731 0.1009525626 0.3183062711
0.0184056841 0.1226715330 0.2486776793
0.0459549454 0.1279298503 0.2785584697
0.0584159890 0.1209293311 0.2721152664
0.0862852207 0.0982043956 0.3497596829
0.0906926495 0.0960502786 0.3090609821
0.0759331957 0.1026394620 0.2522264652
0.0810070709 0.0916629887 0.2375289136
0.0901823375 0.0558649932 0.1941723449
0.0780337760 0.0629826279 0.1885780707
0.0822456781 0.0834658047 0.2231878968
0.0927995439 0.0463372710 0.1907688972
0.0194283157 0.0756988528 0.0996184083
0.0581229199 0.0638504242 0.1357398463
0.0219518686 0.0847781397 0.1364901075
0.0700351098 0.0391436255 0.1074310014
0.0661505869 0.0499830229 0.1225452649
0.0687214287 0.0898837226 0.2247523266
0.0700494208 0.1198562484 0.3846456355
0.0241395259 0.1365320031 0.4539783331
0.0475307316 0.1302643508 0.4429781383
0.0571197765 0.1382019273 0.3968594235
0.0206973492 0.1370368176 0.2833104479
0.0080649709 0.1409610449 0.2907930571
0.0125818196 0.1326096461 0.2701998856
0.0604575742 0.1342245196 0.3781241012
0.0953464722 0.0748820221 0.3689384141
0.1086490158 0.0657710853 0.2859689575
0.1096242702 0.0446474142 0.3421476966
0.0972356845 0.0607920006 0.3980996367
0.1046842417 0.0618951888 0.3371866407
0.1188824094 0.0263007272 0.2342550693
0.1161519570 0.0540177890 0.2527817730
0.0707100162 0.1019142758 0.4328489969
0.1038389592 0.0394525843 0.3955816653
0.0888715320 0.0724665259 0.4222531482
0.0946675210 0.0559594769 0.4240121580
0.0617344738 0.1231778589 0.4247953043
0.0342605579 0.1025641006 0.4678521708
0.0996275586 0.0141864219 0.4256820850
0.0858256473 0.0005119982 0.4437108316
0.0544603180 0.0749066391 0.4671003504
0.0738636900 0.0456199946 0.4561160592
