-0.0107647978 -0.0116153347 0.0168999985
0.0209641470 -0.0119299284 0.0173175056
-0.0170498807 -0.0119300000 0.0063405619
0.0018935043 -0.0119300000 0.0109565468
-0.0212692657 -0.0119208060 0.0131271881
0.0026606541 -0.0119300000 0.0157738175
-0.0252041023 -0.0119300000 0.0182421228
-0.0068355448 -0.0119300000 0.0187416653
0.0000745467 -0.0119300000 0.0073642581
-0.0006255625 -0.0119300000 0.0142698890
-0.0019111710 -0.0119300000 0.0135057312
-0.0301750227 -0.0119300000 0.0178552291
-0.0161017159 -0.0119240390 0.0084372283
-0.0382368244 -0.0119300796 0.0099772657
0.0030028856 -0.0118274751 0.0056724766
-0.0184462272 -0.0117615154 0.0193898815
-0.0282545214 -0.0121799996 0.0111781435
0.0232584989 -0.0121799996 0.0145912302
0.0019217628 -0.0121799989 0.0098462267
-0.0213053535 -0.0121795363 0.0065285293
-0.0020078602 -0.0121799374 0.0177730053
-0.0018027389 -0.0121799996 0.0175697070
-0.0075916623 -0.0121799996 0.0078663075
0.0140052044 -0.0121797678 0.0073589552
-0.0052297597 -0.0121799988 0.0153588064
-0.0064156991 -0.0121799993 0.0169473713
-0.0199065940 -0.0121799996 0.0154134160
-0.0379431369 -0.0121794347 0.0187548908
-0.0285768396 -0.0121796761 0.0071057654
-0.0188726021 -0.0121317407 0.0192629786
-0.0139820629 -0.0110443491 0.0198185071
-0.0036977545 -0.0103816352 0.0196343597
-0.0177991405 -0.0114650398 0.0195460020
0.0155749902 -0.0119917554 0.0054881999
0.0118001058 -0.0115246217 0.0052071526
-0.0338031969 -0.0109651944 0.0054275432
-0.0233839202 -0.0105267381 0.0054045629
0.0171907218 -0.0121643876 0.0168048908
0.0355719044 -0.0085170632 0.0165358628
0.0367885623 -0.0085169491 0.0120486820
0.0383305974 -0.0079170321 0.0160469266
0.0379604819 -0.0079170098 0.0101385334
0.0078413068 -0.0057899999 0.0090014137
-0.0028094780 -0.0058490157 0.0068950001
0.0052204916 -0.0062899999 0.0077279129
0.0300012522 -0.0081615962 0.0097161404
0.0416372157 -0.0079049122 0.0111326807
0.0426347875 -0.0066115220 0.0139723027
0.0298997397 -0.0080866966 0.0142101215
0.0402075275 -0.0080871581 0.0114397416
-0.0000929187 -0.0055900002 0.0096876883
0.0072390681 -0.0055889794 0.0076263186
0.0019813508 -0.0057922270 0.0076999470
0.0119998168 -0.0033642205 0.0017480771
0.0101287033 -0.0047023144 0.0027639389
0.0079470680 -0.0032133828 0.0019032778
0.0159709480 -0.0009974294 0.0018829822
0.0230210680 0.0046088578 0.0026395142
0.0190842457 0.0042574658 0.0021138932
0.0255446340 0.0051699190 0.0067114407
0.0235160768 0.0053692673 0.0057668097
0.0085043959 -0.0013651972 0.0016883537
0.0175787615 0.0019553687 0.0016588451
-0.0014583482 0.0027603547 0.0065151325
-0.0025237108 -0.0025480650 0.0002325682
0.0264717469 -0.0077673566 0.0185194925
0.0313979399 -0.0077668859 0.0033287541
0.0357461882 -0.0077669850 0.0054804862
0.0417786503 -0.0077669998 0.0161176011
0.0368806045 -0.0004919892 0.0211920571
0.0356037028 -0.0005531833 0.0217864119
-0.0044600332 0.0036700000 0.0041967685
0.0238649337 0.0036700000 0.0045592664
0.0251873945 0.0036700041 0.0022768868
0.0358890540 0.0036700526 0.0195269399
0.0311091624 0.0036699490 0.0033825688
0.0155205150 0.0036700000 0.0144230247
0.0316345321 0.0036700000 0.0081424364
0.0139976412 0.0036700000 0.0136688201
0.0102366302 0.0036700000 0.0049514339
0.0172466257 0.0036700000 0.0108335391
-0.0324241020 0.0036700000 0.0207886329
-0.0330875836 0.0036700000 0.0219039024
-0.0338549003 0.0036700000 0.0058433472
-0.0260296149 0.0036700000 0.0082540233
-0.0218180740 0.0036700000 0.0075273680
-0.0159060116 0.0036700000 0.0049780173
-0.0157795969 0.0036700000 0.0143874054
-0.0247239245 0.0036700000 0.0136854399
0.0083466503 0.0036700000 0.0210939446
-0.0009573302 0.0036700000 0.0050790835
0.0346720848 0.0036700000 0.0091042144
0.0277358191 0.0036700000 0.0154209248
0.0367052066 0.0036700000 0.0103907670
0.0046554168 0.0036700000 0.0119203625
-0.0049397337 0.0036700000 0.0194438757
-0.0080669153 0.0036700000 0.0167750319
-0.0086721218 0.0036700000 0.0103658336
0.0087758104 0.0036700000 0.0197286087
0.0214457608 0.0036700000 0.0227250700
0.0132446720 0.0036700000 0.0218700112
-0.0345999611 0.0023483111 0.0066738323
-0.0390776172 -0.0024985049 0.0206683638
-0.0406348943 0.0005700177 0.0156890087
-0.0351750382 0.0005700258 0.0138648008
-0.0401577890 0.0005700181 0.0106720250
-0.0424855030 -0.0027148542 0.0094725407
0.0186876191 -0.0034300055 0.0141450768
-0.0276881010 -0.0034300000 0.0153513041
-0.0139949337 -0.0034300000 0.0148855882
-0.0392750060 -0.0034300129 0.0200123191
-0.0354671941 -0.0034300034 0.0085834947
-0.0344900862 -0.0034300049 0.0144427845
-0.0379403812 -0.0034300001 0.0181297703
-0.0110514465 -0.0034300000 0.0115837629
-0.0066960064 -0.0034300000 0.0118216145
-0.0108916131 -0.0034300000 0.0106056796
-0.0184007696 -0.0034300000 0.0070061058
0.0108118003 -0.0034300000 0.0062101569
-0.0168659035 -0.0034300000 0.0074429555
0.0076064484 -0.0034300000 0.0090862793
-0.0349405882 -0.0034300010 0.0109345812
0.0074830834 -0.0034300000 0.0168160576
0.0080802156 -0.0034300000 0.0148492478
-0.0188130912 -0.0034300000 0.0174883531
0.0022918698 -0.0034300000 0.0141784109
0.0038462634 -0.0034300000 0.0144583506
0.0184697353 -0.0034300306 0.0116980176
0.0280739697 -0.0071396863 0.0068384239
0.0263937510 -0.0063529034 0.0178434709
0.0200704773 -0.0068728658 0.0200601195
0.0223908048 -0.0065673153 0.0200547847
-0.0242919216 -0.0036863595 0.0200044835
-0.0204296950 -0.0063347660 0.0200507244
-0.0276716367 -0.0014067207 0.0079983136
-0.0015375404 0.0009761499 0.0228894941
-0.0318167271 0.0008606725 0.0228886308
-0.0129953266 -0.0033279166 0.0229648645
-0.0060780727 -0.0024913741 0.0229500210
0.0045824300 -0.0024198399 0.0229488450
0.0170035563 -0.0000687509 0.0229077775
-0.0268800191 0.0034891683 0.0026228434
-0.0278514638 -0.0017040306 0.0020635911
-0.0071191176 -0.0030207602 0.0020405692
-0.0069579871 0.0029107089 0.0021442194
-0.0170235008 -0.0051437450 0.0049699793
-0.0256472278 -0.0058855748 0.0049568372
0.0056473258 -0.0041542851 0.0049852249
0.0133310700 -0.0036395915 0.0029427736
0.0334118177 -0.0045562124 0.0031724068
0.0304721684 0.0011238207 0.0027552300
0.0149655084 -0.0026935368 0.0020464401
0.0281868129 -0.0014122943 0.0020687707
-0.0027973560 -0.0025117081 0.0014695903
0.0031177112 -0.0044288064 0.0037561742
-0.0187863300 -0.0077629520 0.0048367503
-0.0166206097 -0.0058835449 0.0035429402
-0.0280032405 -0.0059151632 0.0035434140
-0.0033729109 0.0065371882 0.0019250047
0.0143203855 -0.0036181116 0.0024078723
0.0021460864 -0.0034471832 0.0012466804
0.0030572162 -0.0007005819 0.0063208220
-0.0030189447 -0.0005205658 0.0065873433
0.0013979835 0.0053376478 0.0044428883
0.0277224686 0.0031785537 0.0115830080
0.0261015766 0.0000002896 0.0216210940
0.0261007602 0.0021453528 0.0056065392
0.0262528055 -0.0013031074 0.0037292117
0.0278994320 0.0027860254 0.0141049186
0.0309602175 -0.0040369877 0.0218276199
0.0304712225 0.0010167484 0.0225638793
-0.0293400409 -0.0036328044 0.0205123650
-0.0118222077 -0.0064780052 0.0214468112
-0.0051200708 -0.0073498372 0.0214315602
0.0043869475 -0.0058714032 0.0214574130
0.0067604207 -0.0045111883 0.0214811711
-0.0226418691 -0.0038135031 0.0216322883
0.0032133937 -0.0077664994 0.0203230240
-0.0233795360 -0.0014446531 0.0173916067
-0.0248993300 0.0014545166 0.0216033285
-0.0248996318 0.0004092666 0.0064135576
-0.0232690506 0.0031101666 0.0027101199
-0.0231004458 0.0019575620 0.0168738586
0.0011808111 -0.0014307522 0.0229491803
0.0234539276 0.0033117307 0.0157303682
0.0231006932 -0.0001489477 0.0115322910
0.0231005954 -0.0004736131 0.0045771523
0.0236881449 -0.0017153718 0.0048351842
0.0248995405 -0.0005867546 0.0136413612
0.0209261808 0.0035298526 0.0081650074
0.0201021275 -0.0001559414 0.0213911731
0.0201009961 0.0021281267 0.0162215901
0.0209955640 -0.0017699539 0.0147123894
0.0218994826 -0.0009990177 0.0081517333
0.0218996148 -0.0001304040 0.0063165533
0.0186772107 0.0031974898 0.0138837757
0.0171008882 0.0023540868 0.0152471295
0.0188715742 -0.0011514788 0.0113728193
0.0188994227 -0.0000719311 0.0159484788
0.0188995244 0.0004345090 0.0077083059
0.0153237840 0.0034651644 0.0180017360
0.0141006401 -0.0002532800 0.0213082776
0.0141003711 0.0001127876 0.0024471287
0.0158989176 -0.0009012895 0.0082017694
0.0158988898 0.0009543208 0.0038446916
0.0113710324 0.0032436369 0.0117820640
0.0111019824 -0.0001761623 0.0224098410
0.0111003673 0.0018961581 0.0142927012
0.0114704305 -0.0015257034 0.0166485173
0.0128992663 -0.0001540240 0.0227169881
0.0087275228 0.0034758561 0.0101834405
0.0081004219 0.0006118604 0.0132403656
0.0081004696 0.0024306987 0.0140460216
0.0088024680 -0.0017351515 0.0147261008
0.0098979401 -0.0009842158 0.0207434288
0.0098995372 0.0015701680 0.0057079631
0.0066876838 0.0031941854 0.0033566760
0.0051000621 0.0024634895 0.0116628443
0.0067619823 -0.0013640022 0.0092837447
0.0068985412 0.0004148552 0.0199638390
0.0068998843 0.0014375734 0.0024430720
0.0360417529 -0.0016991985 0.0034066737
0.0408560507 -0.0027382076 0.0065421976
0.0418031998 -0.0021306393 0.0159456253
0.0418031998 0.0026870891 0.0084708983
-0.0063406209 0.0034452342 0.0038884871
-0.0068991801 0.0010165640 0.0180122108
-0.0068991338 0.0026927105 0.0091428259
-0.0057071878 -0.0016892280 0.0031427558
-0.0051002737 -0.0002703784 0.0090958445
-0.0051001030 0.0022528087 0.0152981903
-0.0081802410 0.0029975895 0.0059196925
-0.0098994999 0.0024143134 0.0114462459
-0.0082441368 -0.0013208605 0.0115724417
-0.0081005312 0.0007292434 0.0144126413
-0.0081003063 0.0022689792 0.0074091962
-0.0116905203 0.0034577166 0.0174784432
-0.0128979100 0.0003842198 0.0225966359
-0.0114538451 -0.0015788801 0.0101165869
-0.0111003737 0.0012318277 0.0195774692
-0.0111003803 0.0007736392 0.0066197377
-0.0157316415 0.0030921315 0.0160027518
-0.0158979828 0.0002937770 0.0216184720
-0.0158999040 0.0027039985 0.0036110657
-0.0158420251 -0.0013364068 0.0200898809
-0.0141003076 0.0024457043 0.0148687146
-0.0184717574 0.0034025820 0.0077248077
-0.0188983261 -0.0011379646 0.0173030036
-0.0188992100 0.0028190135 0.0026628845
-0.0183853271 -0.0016581423 0.0032676868
-0.0171004164 0.0007778722 0.0130310802
-0.0171004292 0.0024840127 0.0194759713
-0.0218995444 0.0007684644 0.0113214933
-0.0218995803 0.0007102553 0.0097711016
-0.0210009608 -0.0017683211 0.0127254978
-0.0201012396 0.0002678531 0.0169758892
-0.0201007688 0.0015546261 0.0099507404
-0.0261003365 0.0023699275 0.0222804822
-0.0278996461 -0.0004006691 0.0119485115
-0.0278994313 0.0018203924 0.0063080669
0.0383187284 0.0044821136 0.0139371819
-0.0200386687 -0.0148000000 0.0166576381
-0.0373727436 -0.0148000000 0.0172683942
-0.0195545404 -0.0148000000 0.0070806015
-0.0179836260 -0.0148000000 0.0077436085
-0.0103486067 -0.0148000000 0.0048353127
0.0364886360 -0.0148000000 0.0058110389
-0.0208616585 -0.0148000000 0.0087848586
0.0190974908 -0.0148000000 0.0081261329
-0.0025510033 -0.0148000000 0.0083855712
-0.0019711872 -0.0148000000 0.0106780977
0.0386436475 -0.0148000000 0.0139529350
0.0362335895 -0.0148000000 0.0127894246
0.0129676649 -0.0148000000 0.0119833331
0.0240164306 -0.0148000000 0.0089699180
0.0016230844 -0.0148000000 0.0128736445
-0.0094452068 -0.0148000000 0.0119127739
-0.0068062371 -0.0148000000 0.0127199043
-0.0007434758 -0.0148000000 0.0130427242
0.0262305491 -0.0148000000 0.0145895688
-0.0026856984 -0.0148000000 0.0178609891
0.0177145804 -0.0148000000 0.0180188782
0.0166160536 -0.0148000000 0.0186929578
0.0270173602 -0.0148000000 0.0192175603
-0.0006637000 -0.0148000000 0.0203707199
0.0301428445 -0.0146125974 0.0204949994
-0.0049478730 -0.0145594149 0.0045050001
0.0141687410 -0.0142500000 0.0091579790
-0.0035134251 -0.0142500000 0.0110398556
-0.0170623393 -0.0142500000 0.0103284203
-0.0292883015 -0.0142500000 0.0107615437
-0.0168748264 -0.0142500000 0.0126188704
0.0266573826 -0.0142500000 0.0094474575
-0.0126778203 -0.0142500000 0.0059955782
-0.0131573312 -0.0142500000 0.0050601310
-0.0112103810 -0.0142500000 0.0050454734
0.0017650152 -0.0142500000 0.0070550636
0.0353576228 -0.0142500000 0.0062473056
-0.0019994871 -0.0142500000 0.0076056695
-0.0337044737 -0.0142500000 0.0159369515
0.0247962246 -0.0142500000 0.0143731500
-0.0041248676 -0.0142500000 0.0131720911
0.0044216293 -0.0142500000 0.0145807416
0.0232851837 -0.0142500000 0.0107999227
0.0124224851 -0.0142500000 0.0115990891
-0.0189348520 -0.0142500000 0.0177391834
-0.0193785309 -0.0142500000 0.0175022255
-0.0208205952 -0.0142500000 0.0185401758
0.0124970619 -0.0142500000 0.0181288934
0.0201160188 -0.0142500000 0.0204819812
-0.0080120170 -0.0142500000 0.0203125358
-0.0395461751 0.0021618078 0.0086842691
-0.0165113703 -0.0118799884 0.0096118220
0.0057621105 -0.0118800001 0.0130365508
-0.0173587700 -0.0118826580 0.0108656469
0.0205507409 -0.0118800001 0.0162299282
0.0188220858 -0.0118800001 0.0080076659
-0.0256509850 -0.0119027854 0.0141104230
0.0117425022 -0.0118800001 0.0178237339
0.0127963297 -0.0118800001 0.0087142702
-0.0191053051 -0.0118853669 0.0104454611
-0.0344063130 -0.0118800001 0.0166001861
-0.0229294733 -0.0118800001 0.0077566549
-0.0169173684 -0.0119300062 0.0149670316
-0.0144220817 -0.0119300000 0.0077742932
0.0119801537 -0.0119299836 0.0139965500
0.0236016169 -0.0119295545 0.0084783187
-0.0021843799 -0.0119300000 0.0169209116
0.0224252009 -0.0119295196 0.0144384453
-0.0190520799 -0.0119300000 0.0182715716
0.0000235826 -0.0119300000 0.0101767447
0.0002759786 -0.0119300000 0.0077153024
-0.0199349090 -0.0119300000 0.0107461239
-0.0199431665 -0.0119300422 0.0171699370
-0.0237944339 -0.0119300000 0.0083234523
-0.0157798506 -0.0034300000 0.0160555880
-0.0153129796 -0.0034300000 0.0125692933
-0.0059515687 -0.0035300001 0.0139898071
-0.0123429391 -0.0035300001 0.0116141128
0.0349763741 -0.0119494792 0.0146018200
0.0340445396 -0.0079172333 0.0049555527
0.0357365743 -0.0101279750 0.0112981032
0.0355773100 -0.0092162817 0.0084248351
0.0305499400 -0.0117650942 0.0063810606
0.0371773915 -0.0121267724 0.0170413002
0.0282673114 -0.0102430921 0.0135682452
0.0283880190 -0.0079195861 0.0177592588
0.0377748620 -0.0101308883 0.0176945816
0.0304542799 -0.0090210800 0.0189105931
0.0333756064 -0.0101074737 0.0048527461
0.0332434439 -0.0112247834 0.0153134926
0.0323910964 -0.0129448794 0.0065394742
-0.0188762904 -0.0129450006 0.0179486208
0.0254086853 -0.0129450001 0.0072162357
0.0222070465 -0.0129450001 0.0191090213
0.0241148519 -0.0129450001 0.0151400871
0.0120869768 -0.0129661026 0.0127960879
-0.0370026109 -0.0129450873 0.0166269342
-0.0209260050 -0.0129440998 0.0082142104
-0.0195114512 -0.0129450001 0.0201685460
-0.0025088616 -0.0129451058 0.0179320639
-0.0356827829 -0.0129466870 0.0177881733
-0.0353007813 -0.0129747270 0.0063334848
0.0314348057 -0.0129450001 0.0178292368
0.0263604711 -0.0129450001 0.0094978011
0.0200047947 -0.0126901147 0.0170778047
0.0174238877 -0.0126949996 0.0051402253
0.0246172256 -0.0126774347 0.0067358676
-0.0175971784 -0.0126949929 0.0060605064
-0.0202830651 -0.0126949996 0.0048240478
-0.0232553668 -0.0126944208 0.0190552476
-0.0026625454 -0.0126957769 0.0149212949
-0.0280398760 -0.0126918534 0.0182438487
-0.0263197158 -0.0126851212 0.0084576036
0.0245002894 -0.0126814988 0.0147036350
0.0350062902 -0.0126945752 0.0173574649
0.0336344298 -0.0126790181 0.0075555687
0.0266097061 -0.0127219592 0.0067191141
-0.0404186277 -0.0127789224 0.0118041010
-0.0033672675 -0.0126986657 0.0124704685
-0.0050600607 0.0021349868 -0.0145693005
-0.0049444800 -0.0021484512 -0.0167200596
-0.0004617469 0.0055056606 -0.0171611974
-0.0007990069 -0.0031400442 -0.0047376269
-0.0014935537 0.0028512538 -0.0101175290
0.0115563003 0.0139592189 -0.0148841845
0.0115563003 0.0069500857 -0.0077333033
0.0115563003 0.0182490748 -0.0100488698
0.0115563003 0.0249980138 -0.0130825583
0.0115563003 0.0120399912 -0.0075824286
0.0115563003 0.0077977186 -0.0074307488
0.0115563023 -0.0037078044 -0.0069351684
0.0115563004 0.0002589727 -0.0132573989
0.0115563003 -0.0026088145 -0.0149822183
-0.0070548061 0.0020558401 -0.0093483972
-0.0070560366 -0.0045213253 -0.0089739263
-0.0069573135 -0.0028458850 -0.0050311214
0.0073308848 0.0270562278 -0.0166490412
0.0052387314 0.0270570490 -0.0048896719
-0.0052083122 0.0270561806 -0.0131517192
0.0108051808 0.0285561975 -0.0177736495
0.0065918076 0.0285561997 -0.0109004943
0.0042087656 0.0285564516 -0.0072055488
-0.0041107548 0.0285562333 -0.0133806799
0.0106511935 0.0070563001 -0.0054043766
0.0036198536 0.0070559210 -0.0094817863
0.0099075757 0.0070562370 -0.0084999438
0.0096554520 0.0070562149 -0.0084230849
-0.0017952825 0.0055716813 -0.0006419286
0.0026437015 -0.0030388932 -0.0036158520
0.0030418329 0.0011066790 -0.0068183613
0.0030265950 -0.0011465359 -0.0007390162
0.0023003936 -0.0022883237 0.0000008541
0.0012378756 -0.0085557927 -0.0116273356
0.0090312907 -0.0085557119 -0.0146344401
-0.0017122341 -0.0085562496 -0.0134746351
-0.0070562498 0.0271696453 -0.0093522474
0.0114870932 -0.0025111354 -0.0050013152
0.0094587929 0.0058462608 -0.0049999978
-0.0065342707 0.0266300360 -0.0179999992
0.0033181489 0.0237902634 -0.0179999992
-0.0070544205 0.0058795654 -0.0180000009
0.0100778104 0.0228051382 -0.0179999992
0.0033954984 0.0173501822 -0.0179999992
0.0015254100 0.0174508387 -0.0179999992
0.0100127459 0.0083864182 -0.0180000025
-0.0089523129 0.0079095877 -0.0180000002
0.0082727699 0.0096054596 -0.0179999997
0.0080184671 0.0038549811 -0.0180000246
0.0106694468 -0.0052263251 -0.0180000088
0.0044098897 -0.0076487680 -0.0179999877
-0.0091324478 0.0040487444 -0.0179999992
-0.0183407842 0.0037013412 -0.0179999992
0.0159811073 0.0070777541 -0.0180001124
0.0049416993 0.0022489531 -0.0124085349
0.0053410383 -0.0009987233 -0.0151951057
0.0017432094 -0.0052491260 -0.0136563892
-0.0037401280 0.0028778880 -0.0109995020
-0.0050711793 0.0082250163 -0.0169999602
0.0078457463 0.0262360052 -0.0170000009
0.0050138234 0.0127733624 -0.0170000009
0.0062385491 0.0173603520 -0.0170000009
-0.0020159046 0.0089166865 -0.0169999844
-0.0067705895 0.0156708734 -0.0170000009
-0.0070362227 0.0222722231 -0.0170000009
-0.0103094036 0.0035601981 -0.0170000345
-0.0216825926 0.0075882365 -0.0170000011
0.0016959736 0.0283585379 -0.0074313963
0.0093451920 0.0229227362 -0.0055000000
0.0085562181 0.0268348062 -0.0098693713
0.0085562496 0.0134128551 -0.0073971607
0.0085562496 0.0216320677 -0.0135952941
0.0085562496 0.0236029506 -0.0132367873
0.0085562496 0.0181813962 -0.0096614068
-0.0016916551 -0.0077777746 -0.0073468514
-0.0045447697 -0.0070039798 -0.0064540933
-0.0015542537 -0.0047340131 -0.0051326292
-0.0068959608 0.0032823669 -0.0152489047
0.0011871834 0.0070474577 -0.0049871919
-0.0210298624 0.0028554402 -0.0177159403
0.0167417423 0.0088562700 -0.0175732324
0.0172155568 0.0082497041 -0.0169921275
0.0119913415 0.0075594905 -0.0133269399
-0.0002401445 -0.0081140424 0.0011454662
0.0144380734 -0.0070568937 0.0009005779
-0.0121103167 -0.0090923703 0.0013720957
0.0141169924 -0.0076198739 0.0011182368
0.0147943375 -0.0087764831 0.0013861665
-0.0186221759 -0.0101096667 0.0016949999
0.0182454885 -0.0129499396 0.0083527056
0.0354728474 -0.0129485384 0.0125397455
0.0148133337 -0.0129949561 0.0192256266
0.0100957350 -0.0129950000 0.0046898646
-0.0036937667 -0.0129949948 0.0057595297
-0.0270699190 -0.0129727177 0.0068686956
-0.0299089967 -0.0129603511 0.0113608760
0.0123743247 -0.0129935252 0.0171342824
-0.0223353624 -0.0129833441 0.0097847745
-0.0005613900 -0.0129950000 0.0192432330
-0.0010332769 -0.0129950000 0.0199096595
-0.0268801060 -0.0129832623 0.0168523510
-0.0356920946 -0.0129745432 0.0067133499
0.0306711875 -0.0129768874 0.0202195361
0.0224714905 -0.0129937323 0.0142862341
0.0343640509 -0.0129830884 0.0067138681
0.0305249977 -0.0129943995 0.0079630148
0.0301614658 -0.0129450001 0.0122436629
0.0168018700 -0.0129477829 0.0178035458
0.0072271467 -0.0129450001 0.0063576735
0.0120956885 -0.0129585536 0.0081501786
-0.0163692391 -0.0129450001 0.0056967087
-0.0037388593 -0.0129575649 0.0078773716
-0.0224187654 -0.0129525532 0.0137354472
0.0012177877 -0.0129450001 0.0199607160
0.0001438831 -0.0129516102 0.0131975308
-0.0296911952 -0.0129542826 0.0183417331
-0.0263427751 -0.0129468783 0.0091898016
0.0301499294 -0.0129450001 0.0134301636
0.0365860352 -0.0129476246 0.0131532187
0.0247653797 -0.0129450001 0.0110714720
-0.0342851903 -0.0129493755 0.0138940359
0.0208808619 -0.0129713284 0.0140320752
0.0228422623 0.0053699999 0.0059494776
0.0247518187 0.0055401921 0.0087500000
0.0224640922 0.0058700000 0.0058364585
-0.0008087991 0.0061770410 0.0248746648
0.0041003700 0.0071302137 0.0205999694
-0.0075579922 0.0043435289 0.0226005262
0.0078012117 0.0042224813 0.0244700096
0.0027119399 0.0071699260 0.0215620438
0.0213754500 -0.0142500000 0.0139049158
0.0083793473 -0.0142500000 0.0112252457
0.0192987247 -0.0142500000 0.0064273454
0.0028646956 -0.0142500000 0.0083348430
-0.0233335080 -0.0142500000 0.0184159255
-0.0195471751 -0.0142500000 0.0190600362
-0.0189716876 -0.0142500000 0.0159981212
-0.0208946573 -0.0142500000 0.0168094289
-0.0211200260 -0.0142500000 0.0069390900
-0.0306077420 -0.0142500000 0.0055280944
-0.0050449656 -0.0142500000 0.0064506161
0.0053907878 -0.0142500000 0.0064466962
0.0326285631 -0.0142500000 0.0155468871
0.0299865369 -0.0142500000 0.0161952000
0.0052550199 -0.0142500000 0.0119935177
-0.0098761740 -0.0142500000 0.0101754137
-0.0130750204 -0.0142500000 0.0148520516
0.0028472638 -0.0142500000 0.0130902282
0.0111063383 -0.0142500000 0.0144235881
0.0034545481 -0.0142500000 0.0161969577
-0.0035617357 -0.0142500000 0.0192393317
0.0099237053 -0.0142500000 0.0181238447
0.0143658188 -0.0142500000 0.0147589704
0.0278502552 -0.0142500000 0.0081536846
0.0219051667 -0.0142500000 0.0132495411
-0.0319386621 -0.0142496246 0.0196788081
-0.0287741594 -0.0142419936 0.0123452688
0.0358228365 -0.0142291023 0.0084776621
0.0065579764 -0.0142249996 0.0087004231
0.0218347514 -0.0142249996 0.0069120488
0.0103468507 -0.0142249996 0.0094886060
-0.0004663530 -0.0142249996 0.0048110613
0.0161913336 -0.0142249996 0.0053664445
0.0059911404 -0.0142249996 0.0050828376
-0.0201161379 -0.0142249996 0.0072960109
0.0263387911 -0.0142249996 0.0199994519
-0.0104683127 -0.0142249996 0.0167669253
-0.0173548966 -0.0142249996 0.0169025353
0.0100238110 -0.0142249996 0.0130181100
0.0033858578 -0.0142249996 0.0181310322
0.0048096746 -0.0142249996 0.0161993505
0.0014438221 -0.0142249996 0.0164762883
0.0179886921 -0.0142249996 0.0114934398
-0.0030889505 -0.0142249996 0.0115532472
-0.0279568361 -0.0142288134 0.0142714497
-0.0332938076 -0.0142271597 0.0184992241
-0.0298321357 -0.0142292365 0.0088878232
-0.0155376720 -0.0142288450 0.0115384146
-0.0059433659 -0.0142415300 0.0105214189
-0.0285800620 -0.0122889646 0.0093172425
0.0310500742 -0.0126641223 0.0072226059
0.0278405095 -0.0126475863 0.0158532460
0.0088689973 -0.0126449638 0.0061042773
0.0240942264 -0.0126676894 0.0124045724
0.0108669574 -0.0126565463 0.0135914609
0.0136271062 -0.0126450099 0.0167506424
-0.0230866936 -0.0126450093 0.0113802753
-0.0229108962 -0.0126449592 0.0197246936
-0.0007452580 -0.0126447390 0.0088364366
-0.0278342126 -0.0126592348 0.0127642102
0.0229367129 -0.0126450010 0.0160750214
0.0321001822 -0.0126576183 0.0084495166
0.0240843044 -0.0121141804 0.0065673313
0.0284916063 -0.0121151891 0.0162817042
0.0037367254 -0.0121149998 0.0049559269
0.0247830421 -0.0121144374 0.0053404759
-0.0271317549 -0.0121150196 0.0195236687
0.0119024134 -0.0121150048 0.0184325418
-0.0224498194 -0.0121150397 0.0073350978
0.0002105440 -0.0121150698 0.0185349505
0.0004581206 -0.0121149332 0.0075235823
-0.0372213794 -0.0121155065 0.0174278596
-0.0260032466 -0.0121147321 0.0069325630
0.0347327820 -0.0121147011 0.0164575214
0.0265618248 -0.0121150801 0.0104176352
0.0369469152 -0.0122727385 0.0063200834
-0.0398039522 -0.0125383359 0.0114807777
-0.0211756968 -0.0125298320 0.0136998486
0.0007571672 -0.0124922717 0.0155941871
0.0364546483 -0.0086150655 0.0117790097
0.0321550352 -0.0091667795 0.0096723862
-0.0312604817 -0.0141913601 0.0081175101
-0.0293949114 -0.0142249996 0.0096882043
-0.0052737841 -0.0142249996 0.0178889889
-0.0224834435 -0.0142249996 0.0117905634
-0.0345483888 -0.0141890578 0.0176466934
-0.0303099246 -0.0142249996 0.0201175638
0.0114610347 -0.0142249996 0.0182309362
0.0104699027 -0.0142249996 0.0136955874
0.0335353453 -0.0142249996 0.0099525833
0.0265810499 -0.0142249996 0.0117708771
0.0044303350 -0.0142249996 0.0118612759
0.0234203820 -0.0142249996 0.0170183447
0.0131919873 -0.0142249996 0.0083478997
0.0008673804 -0.0142249996 0.0067390371
0.0316213067 -0.0142249996 0.0102897786
0.0327660881 -0.0142249996 0.0049801592
-0.0320627794 -0.0142214967 0.0195136499
-0.0379312588 -0.0142187665 0.0086560844
0.0317457363 -0.0141942412 0.0048050000
0.0277411095 -0.0140950000 0.0194357072
-0.0272841416 -0.0140950000 0.0098945684
-0.0287862185 -0.0140950000 0.0054451691
-0.0374162989 -0.0141343223 0.0139240561
-0.0099933929 -0.0140950000 0.0190555484
-0.0038010652 -0.0140950000 0.0183482727
0.0181162037 -0.0140950000 0.0055757045
0.0184485077 -0.0140950000 0.0181352192
0.0126124691 -0.0140950000 0.0191982005
0.0369612510 -0.0141195148 0.0145645236
0.0273149828 -0.0140950000 0.0084031932
0.0245028115 -0.0140950000 0.0070378655
0.0054868788 -0.0140950000 0.0102428744
0.0130039399 -0.0140950000 0.0090520938
-0.0260485908 -0.0141288063 0.0179171931
-0.0324695538 -0.0141281701 0.0188373880
0.0345420499 -0.0141441773 0.0141556376
-0.0038293878 -0.0142009423 0.0165017456
0.0327506153 -0.0126708948 0.0154439568
-0.0377899529 -0.0126729415 0.0114152765
0.0157081514 -0.0126949996 0.0059618627
-0.0003479054 -0.0126949996 0.0061861879
-0.0274070597 -0.0126902867 0.0058045585
0.0139995417 -0.0126801618 0.0180154882
0.0163140309 -0.0126936382 0.0060085097
-0.0007849385 -0.0126738141 0.0169369442
-0.0195011789 -0.0126946003 0.0200842718
-0.0236604992 -0.0126946636 0.0190344228
-0.0004676947 -0.0126794258 0.0132330828
-0.0269896633 -0.0126949424 0.0144816836
0.0262810306 -0.0126699992 0.0154449094
0.0243133514 -0.0126719290 0.0074742963
0.0316381056 -0.0126740593 0.0190599670
-0.0355772668 -0.0126782815 0.0087559340
0.0364156476 -0.0126597822 0.0122374689
0.0107463848 -0.0126553736 0.0131016755
-0.0211625529 -0.0126449997 0.0060307724
0.0122889533 -0.0126451717 0.0063867887
-0.0159639144 -0.0126493167 0.0065322893
-0.0171235429 -0.0126449943 0.0190483390
-0.0035498874 -0.0126658315 0.0156752815
-0.0269088038 -0.0126471517 0.0183027857
-0.0381331586 -0.0126595818 0.0134592291
0.0292633759 -0.0126531422 0.0164722384
0.0215135157 -0.0126678642 0.0082235105
0.0351363473 -0.0126687973 0.0161024608
0.0269833022 -0.0126758184 0.0197434553
0.0054387217 -0.0126486065 0.0184459464
-0.0001681317 -0.0117899999 0.0065476340
0.0048478994 -0.0111900171 0.0126269037
0.0001794622 -0.0066159275 0.0055000000
-0.0049353212 -0.0069947096 0.0055561213
-0.0000655797 -0.0107566793 0.0134961718
0.0018764916 -0.0062899999 0.0080296657
0.0051778407 -0.0062899999 0.0090087359
0.0103684468 -0.0065263819 0.0117158030
0.0073446631 -0.0096129627 0.0114867682
0.0091020467 -0.0106857825 0.0087717139
-0.0048185889 -0.0086520517 0.0106070642
-0.0033730269 -0.0105999544 0.0122185507
0.0059584832 -0.0091254345 0.0124160038
0.0002262297 -0.0072368184 0.0104690580
0.0012733394 -0.0090558339 0.0125000002
-0.0335150229 -0.0135978524 0.0074768117
-0.0271368800 -0.0130237962 0.0130866097
-0.0032832670 -0.0133756788 0.0162059486
-0.0174426133 -0.0135006123 0.0185351927
0.0344964646 -0.0091208973 0.0194006909
-0.0235211427 -0.0129950000 0.0196714833
-0.0342621907 -0.0068078035 0.0054968799
-0.0234116567 -0.0129950760 0.0129178274
-0.0240135156 -0.0129949413 0.0087952592
0.0234964036 -0.0129950000 0.0053250445
0.0346607064 -0.0129952303 0.0180687405
0.0048566456 -0.0129949745 0.0159875334
0.0274929558 -0.0129949824 0.0165131582
0.0123529208 -0.0129949930 0.0161926565
0.0216381784 -0.0129950096 0.0082327630
-0.0009582199 -0.0129950040 0.0111246562
0.0115525262 -0.0129950518 0.0089862486
-0.0315924280 -0.0129948243 0.0179216816
-0.0363048586 -0.0129948184 0.0072572260
0.0274287774 -0.0140950773 0.0142893292
0.0366572239 -0.0140950072 0.0089299923
0.0046313807 -0.0140950000 0.0200763782
0.0009562589 -0.0140949993 0.0194378431
-0.0246065880 -0.0140949204 0.0123279349
0.0310423014 -0.0140950275 0.0052197242
0.0075249395 -0.0140950000 0.0050342399
-0.0208160630 -0.0140950633 0.0186201653
0.0396551407 -0.0140949534 0.0142865557
-0.0016619724 -0.0140949982 0.0174532217
0.0054784246 -0.0140950000 0.0074502591
0.0103531992 -0.0140950000 0.0110522317
-0.0048092592 -0.0140950000 0.0066547661
0.0088502652 -0.0140950000 0.0070100806
-0.0005413251 -0.0140950000 0.0120934322
-0.0222016605 -0.0140950408 0.0168718311
-0.0195761277 -0.0140949828 0.0071174721
0.0062512559 -0.0038858199 0.0241252986
0.0421364074 -0.0077509562 0.0097642835
0.0233553449 -0.0123129496 0.0197448991
-0.0172183249 -0.0128136206 0.0197448991
0.0061444815 -0.0095673946 0.0197448991
-0.0089130591 -0.0115222347 0.0197448991
-0.0230753054 -0.0072432173 0.0197448991
-0.0296236777 -0.0112131268 0.0197448991
-0.0110586108 -0.0099505203 0.0197448991
0.0294562284 -0.0057912444 0.0197448991
0.0008562445 -0.0080738523 0.0197448991
0.0072218021 -0.0080196243 0.0197448991
0.0053924374 -0.0047772117 0.0197448991
0.0036214718 -0.0062324732 0.0197448991
-0.0018891368 -0.0068167332 0.0197448991
-0.0385459889 -0.0104173279 0.0084956827
-0.0337312531 -0.0058373366 0.0054135446
-0.0382205299 -0.0120274595 0.0169153973
-0.0160786062 -0.0039413937 0.0052551199
0.0308331483 -0.0103229530 0.0052551199
-0.0118044606 -0.0057181600 0.0052551199
-0.0036758685 -0.0077178898 0.0052551199
0.0288656929 -0.0054553552 0.0052551199
0.0032723402 -0.0054203241 0.0052551199
0.0177999629 -0.0128546605 0.0052551199
0.0016807386 -0.0117280449 0.0052551199
-0.0093863896 -0.0093064619 0.0052551199
-0.0315265096 -0.0073138686 0.0052551199
-0.0262214453 -0.0094803779 0.0052551199
-0.0203106463 -0.0072595953 0.0052551199
0.0396668579 -0.0098263062 0.0129365136
0.0380011360 -0.0074565792 0.0171211047
0.0333528804 -0.0072745879 0.0196591141
0.0379321472 -0.0110946155 0.0077951162
-0.0156842436 -0.0045885448 0.0019126875
0.0317081852 0.0039073162 0.0015652987
-0.0330301164 -0.0000677035 0.0232353972
0.0357537828 -0.0030656166 0.0026514464
0.0408985754 0.0005467311 0.0191830485
0.0408227276 0.0035376351 0.0053615904
0.0395109772 -0.0013492318 0.0204714350
0.0382559019 0.0007250689 0.0215169847
0.0057705843 -0.0018350540 0.0236356858
-0.0104797342 -0.0143586874 0.0043950002
-0.0375446102 -0.0141834184 0.0185896022
0.0128043409 -0.0146341566 0.0206049997
-0.0232017831 -0.0004891716 0.0242171562
-0.0157643777 0.0025863984 0.0248183483
-0.0060557591 0.0022766805 0.0244792852
0.0067959140 0.0004306670 0.0245458960
0.0142566505 -0.0003331692 0.0236269838
0.0231716286 0.0017979566 0.0236824381
-0.0293658318 0.0028816334 0.0244837057
-0.0433308089 -0.0002909496 0.0112508849
-0.0050301098 -0.0043129502 0.0018276273
-0.0377071478 -0.0035794060 0.0189940200
-0.0410042810 -0.0035811671 0.0166969304
-0.0174776571 -0.0035800000 0.0024463357
-0.0059545918 -0.0035800000 0.0026763875
-0.0169946389 -0.0035800000 0.0032203953
0.0057216519 -0.0035800000 0.0047341642
0.0191309517 -0.0035800000 0.0033611938
0.0312129633 -0.0035799821 0.0022936801
-0.0343831211 -0.0035801805 0.0205022042
-0.0209792169 -0.0035800000 0.0199455658
-0.0138447019 -0.0035800000 0.0201271659
-0.0012866154 -0.0035800000 0.0220092245
-0.0246375930 0.0003125050 0.0011225699
-0.0308430094 -0.0018204559 0.0018877099
-0.0202558842 0.0015176546 0.0008837021
-0.0112752083 0.0028553406 0.0010340372
-0.0067533407 -0.0011092346 0.0004106422
0.0114837893 0.0030833755 0.0013902384
0.0176990711 -0.0031242725 0.0006947789
0.0279015345 -0.0004981336 0.0000154607
0.0429232482 0.0045161924 0.0095544436
0.0264181097 0.0046453082 0.0239318538
0.0120340337 0.0044401595 0.0234870977
0.0256845021 0.0000492738 0.0234581624
0.0117692892 0.0039789157 0.0234769295
0.0195085797 0.0004491189 0.0233570749
0.0188235554 -0.0006185406 0.0231912845
0.0045707149 0.0025483162 0.0234605753
0.0027171632 0.0030612909 0.0234725315
0.0021131041 -0.0023675546 0.0230359414
-0.0080136049 -0.0012577171 0.0231577480
-0.0166417587 -0.0020783794 0.0230724412
-0.0092296033 -0.0002908670 0.0232640570
-0.0173194949 0.0003421386 0.0232812522
-0.0236380381 -0.0017358082 0.0231150153
0.0055265957 0.0041199262 0.0236201946
0.0012026773 -0.0148834289 0.0218919872
-0.0416840922 -0.0149003442 0.0119374294
-0.0150241978 -0.0148999998 0.0039081573
0.0146283374 -0.0148999982 0.0206680158
0.0401411917 -0.0149007738 0.0077212425
-0.0150085221 -0.0129055433 0.0226369647
-0.0061010574 -0.0136805688 0.0224341176
0.0297430338 -0.0138371259 0.0223920395
-0.0322152719 -0.0129519241 0.0226255649
0.0245375985 -0.0104952460 0.0232068138
0.0277578754 -0.0106164750 0.0231797760
0.0187619327 -0.0088018605 0.0235605608
0.0016124286 -0.0104170088 0.0232242631
-0.0046749767 -0.0082620370 0.0236690158
-0.0214466125 0.0027114183 0.0248902574
0.0022231239 -0.0021536996 0.0241324192
0.0256849598 0.0026682822 0.0249335317
-0.0437775286 0.0000440398 0.0116655286
0.0065845113 -0.0045905021 0.0014999997
0.0251756939 0.0031017920 0.0014997823
0.0204493275 -0.0017688913 0.0014919849
0.0177806588 -0.0030860531 0.0014999876
0.0051043578 -0.0008018761 0.0014272284
-0.0137395104 -0.0012849734 0.0012761983
-0.0212111660 0.0041391154 0.0015000018
-0.0045877097 0.0046454999 0.0009718824
0.0067437972 0.0020194376 0.0001023839
0.0259501650 0.0048650325 0.0007001103
0.0241841153 0.0047683648 0.0243000360
0.0419706096 -0.0146493563 0.0143374104
0.0360569033 -0.0113445633 0.0026420955
0.0373446628 -0.0141655356 0.0210453621
0.0417941164 -0.0115423571 0.0169735622
-0.0130876641 -0.0148984599 0.0032728633
-0.0368390447 -0.0126249076 0.0217473908
-0.0344349551 -0.0086719058 0.0016296021
-0.0434726870 -0.0083436903 0.0146787154
-0.0353604776 -0.0120382393 0.0224223817
-0.0173628285 -0.0066180482 0.0239527842
0.0180448002 -0.0056498873 0.0241175304
-0.0041415146 -0.0071862105 0.0238561673
0.0193535952 -0.0059712607 0.0240628449
-0.0198269920 0.0055071589 0.0249984854
-0.0256508795 0.0034468741 0.0249650641
0.0338618663 0.0004365188 0.0247102724
0.0229079105 -0.0042009822 0.0242360513
0.0203167016 -0.0049623448 0.0242237610
0.0035339637 0.0031246841 0.0249693376
-0.0020764577 0.0002883934 0.0247072366
-0.0106034435 0.0001825757 0.0247256833
-0.0171710758 0.0005001634 0.0247818257
-0.0219850472 0.0030589525 0.0249520142
-0.0068261074 0.0047462741 0.0007000854
-0.0278442139 -0.0001145128 0.0000040901
0.0229915286 0.0028312639 0.0000175302
0.0207583356 0.0045444002 0.0000001596
0.0163635549 -0.0051524221 0.0000009708
-0.0046385585 -0.0041176018 0.0000007760
-0.0020145358 -0.0050971346 0.0000000683
-0.0164941346 0.0007801357 0.0000741805
-0.0148766838 0.0045950993 0.0000001477
-0.0302980250 0.0055589282 0.0000002870
0.0303638399 0.0003118405 0.0002003666
0.0187240295 0.0056455094 0.0006846008
0.0441136755 -0.0022517852 0.0154999533
0.0343683110 0.0033559182 0.0247381218
0.0398230255 -0.0021097175 0.0029661673
0.0436943254 -0.0041494967 0.0092047667
0.0405909506 -0.0008111997 0.0216142024
0.0432463891 -0.0002847916 0.0182133448
0.0412387760 0.0056029827 0.0035809820
0.0445413425 0.0052525791 0.0094338835
0.0393632180 0.0052117437 0.0228837814
-0.0203889539 -0.0087603424 0.0014302415
0.0104459547 -0.0138950206 0.0026235258
-0.0264758773 -0.0111860424 0.0019472554
0.0318053310 -0.0093499644 0.0015484318
-0.0007754537 -0.0110049715 0.0019068715
0.0081077423 -0.0109570061 0.0018961738
0.0217892868 -0.0124601182 0.0022535560
-0.0070407581 -0.0122964814 0.0022133360
0.0212640735 -0.0133633756 0.0024806319
-0.0436286291 -0.0072810165 0.0108632101
-0.0362050871 -0.0002498031 0.0242117657
-0.0381601712 -0.0019654599 0.0231034225
-0.0446747371 -0.0004933077 0.0120272820
-0.0378814007 -0.0026584404 0.0018340816
-0.0431964831 -0.0011138765 0.0181478312
-0.0254183915 0.0056447911 0.0002519871
-0.0018649323 -0.0063106061 0.0009261052
-0.0274013196 -0.0076671518 0.0012190240
-0.0084067256 -0.0075074365 0.0011936072
-0.0309271201 0.0003942862 0.0002343667
-0.0390706096 0.0016642399 0.0163125049
-0.0154621809 0.0094021979 0.0224867494
-0.0281586895 0.0100403139 0.0209387198
0.0278599118 0.0093297508 0.0225896336
-0.0221733804 0.0090984395 0.0229343147
-0.0319522433 0.0071361081 0.0244769159
0.0200176835 0.0099074382 0.0214204205
-0.0075823663 0.0101033477 0.0201795733
0.0198648728 0.0099803187 0.0211339370
0.0067609947 0.0085189920 0.0235460692
0.0172190983 0.0078785604 0.0240354681
0.0393498610 0.0100732792 0.0157859410
0.0177801018 0.0101455490 0.0052529270
0.0335725763 0.0089113165 0.0230259506
0.0435861358 0.0079914423 0.0154339363
0.0380266638 0.0071547236 0.0229705590
0.0189640722 0.0087620364 0.0017076701
0.0200350922 0.0074361642 0.0006832227
0.0041328961 0.0062215818 0.0001486495
-0.0167824487 0.0091315514 0.0021160829
-0.0078039803 0.0094081567 0.0025140153
-0.0065333353 0.0100298832 0.0040196341
-0.0104054781 0.0082085670 0.0012061190
0.0237350294 0.0070362055 0.0004731926
-0.0020763473 0.0099162461 0.0036021540
-0.0349809397 0.0096386796 0.0032056686
-0.0190840313 0.0101453178 0.0055612255
-0.0138616066 0.0101500005 0.0128885990
0.0215591166 0.0101500005 0.0190041393
-0.0076440494 0.0101500005 0.0175063283
-0.0129392248 0.0101500005 0.0155506755
-0.0337526108 0.0101500005 0.0165975603
-0.0292827203 0.0101500005 0.0129607041
0.0283856365 0.0101502210 0.0106874162
-0.0101952185 0.0101498940 0.0099936996
0.0084557957 0.0101499645 0.0112917761
0.0062722318 0.0101497561 0.0082006315
0.0000765810 0.0101497040 0.0062745314
0.0018945054 0.0101496791 0.0058214905
0.0050215919 0.0101496530 0.0058047032
0.0319876381 0.0101508539 0.0150648391
0.0091209652 0.0101500005 0.0164973820
0.0005786386 0.0101500005 0.0163780717
-0.0045627755 0.0101500005 0.0155695117
0.0250513614 0.0101500311 0.0074891816
0.0092450446 0.0101500005 0.0118972071
-0.0357989446 0.0062243654 0.0197127200
-0.0357995873 0.0068255234 0.0013829669
-0.0357998776 0.0030563989 0.0196682312
-0.0142469535 0.0059455175 0.0241211445
0.0059754033 0.0044484068 0.0240000002
0.0071213704 0.0056466453 0.0240026992
-0.0330688792 0.0043182253 0.0240000002
0.0322825895 0.0059453782 0.0242248811
0.0135637189 0.0059455262 0.0000867260
-0.0434122768 0.0012782117 0.0176393336
-0.0406368122 0.0005661436 0.0041634413
-0.0346606492 0.0017569059 0.0176465867
-0.0008519265 0.0036655001 0.0036216386
-0.0329101904 0.0036655001 0.0047178582
0.0007272526 0.0036655001 0.0033174559
-0.0106459913 0.0036655001 0.0019659530
0.0079289904 0.0036655001 0.0070027805
0.0330799596 0.0036655001 0.0074874304
0.0024724759 0.0036655001 0.0064077373
0.0324667500 0.0036655001 0.0028024149
-0.0085554764 0.0036655001 0.0062827941
0.0369396871 0.0036655001 0.0062314986
0.0314156714 0.0036655001 0.0079836214
0.0083802156 0.0036655001 0.0084360740
-0.0051275424 0.0036655001 0.0131756447
-0.0108096168 0.0036655001 0.0135843357
0.0233529248 0.0036655001 0.0105787218
0.0000709458 0.0036655001 0.0129874016
-0.0112230599 0.0036655001 0.0098819640
-0.0324685741 0.0036655001 0.0149968057
-0.0311359925 0.0036655001 0.0115760448
0.0281710889 0.0036655001 0.0142522601
0.0129950885 0.0036655001 0.0136690027
-0.0074670680 0.0036655001 0.0151219078
0.0025340877 0.0036655001 0.0164869568
0.0040477449 0.0036655001 0.0149417875
-0.0321224843 0.0036655001 0.0182384624
0.0304443727 0.0036655001 0.0184141477
0.0228081918 0.0036655001 0.0213140079
0.0246615167 0.0036655001 0.0217647125
0.0134732379 0.0036655001 0.0185162411
0.0318136145 0.0036655001 0.0196124015
0.0282055681 0.0036655001 0.0199792483
-0.0120248582 0.0036655001 0.0211325603
-0.0266666422 0.0036655001 0.0201276066
-0.0227188354 0.0036655001 0.0206214856
0.0391732034 0.0039172518 0.0032071303
0.0302771133 0.0054593720 0.0240992081
-0.0254207153 0.0058778444 0.0009000022
0.0293831723 0.0046564407 0.0009000000
0.0000754673 0.0043681902 0.0010000000
-0.0341001958 0.0034780714 0.0016923214
-0.0349027144 0.0007200816 0.0121293572
-0.0407197679 0.0007200935 0.0101480611
-0.0346803649 0.0015489791 0.0133928492
-0.0342001263 0.0015081236 0.0228496606
-0.0411527395 0.0022201923 0.0149551967
-0.0359429394 0.0022200006 0.0034654160
-0.0440404105 0.0022199968 0.0095002232
0.0017467532 0.0057243376 0.0009605699
0.0228516486 0.0098845715 0.0128630013
