0.0274606345 -0.0284016503 0.0984137084
0.0410292791 -0.0168438623 0.0943687622
-0.0566080574 0.1239992096 0.0416832815
-0.0514219982 0.1239994534 0.0322548157
-0.0457926643 0.1239994767 0.0292095086
-0.0251013909 0.1148766388 -0.0193575904
-0.0016952926 0.0895331146 -0.0083646436
0.0007642565 0.0852977062 -0.0099968090
0.0004491822 0.0876961168 -0.0064976857
0.0172865640 0.0662561241 -0.0042785592
-0.0065117148 0.0952086086 -0.0098105441
-0.0097959593 0.0982785351 -0.0122149084
-0.0202479563 0.1100473984 -0.0163230222
-0.0101603613 0.0993512378 -0.0111838525
0.0198032709 0.0617129755 -0.0063197245
0.0125227955 0.0715217423 -0.0063252868
0.0074743072 0.0746317262 -0.0128737737
-0.0008851565 0.0842330398 -0.0158250308
-0.0670676589 0.1239823570 -0.0373515411
-0.0505130289 0.1239966893 -0.0228899778
-0.0732633736 0.1239902266 -0.0500748172
-0.0819495520 0.1239768580 -0.0544317520
-0.0553395259 0.1110072229 0.0592543896
-0.0216249260 0.0817427293 0.0718505561
-0.0438787672 0.1001628149 0.0643536402
-0.0437836681 0.1123044026 0.0532425834
-0.0117227170 0.0638718670 0.0840081729
0.0066060033 0.0493954001 0.0895493297
-0.0376221770 0.0942692370 0.0671131947
-0.0253786606 0.0835925266 0.0717324308
-0.0266327705 0.0871006787 0.0690575879
-0.0219100768 0.0827665474 0.0710361458
-0.0110232883 0.0632741846 0.0842608923
-0.0469909891 0.1171741055 0.0501424189
0.0065364713 0.0489645117 0.0899712918
-0.0260684232 0.0790785326 0.0761367585
-0.0183045505 0.1120380392 0.0037016097
-0.0219745364 0.1167119488 0.0046877981
0.0183579202 0.0654604608 -0.0029702560
-0.0121831738 0.1040644220 -0.0029055064
-0.0225123420 0.1169157343 -0.0086002490
-0.0130617574 0.1053050821 0.0007293753
0.0053770043 0.0818290079 -0.0040410000
-0.0226119528 0.1170297236 -0.0089327917
-0.0125552724 0.1047730371 0.0037477406
-0.0266265808 0.1225918502 0.0046896880
-0.0394242543 0.1240004062 -0.0322658732
-0.0429471832 0.1240039587 -0.0330583398
0.0310054461 -0.0393443804 0.0774346332
0.0316363065 -0.0419118657 0.0597349937
0.0333188725 -0.0423326359 0.0309879199
0.0335546315 -0.0409536102 0.0503390878
0.0305655550 -0.0437857712 0.0432090513
0.0316640588 -0.0439477590 0.0262735024
0.0324545469 -0.0362757009 0.0835975177
-0.0555353529 0.1240009882 0.0207848896
-0.0866069114 0.1240019770 0.0378711974
-0.0703771695 0.1240010737 0.0313331634
-0.0906705093 0.1240014999 0.0438479576
-0.0552240249 0.1240000504 0.0263392049
-0.0674959029 0.1240005619 0.0323412164
-0.0888724919 0.1240015589 0.0421419371
0.0351949789 -0.0175562308 0.0982912083
0.0279057025 -0.0124523908 0.1032567511
0.0395590775 -0.0230785274 0.0915592518
-0.0362460082 0.1240007872 -0.0075357616
-0.0596867499 0.1240049470 -0.0482846993
-0.0511043191 0.1240025760 -0.0319680577
-0.0501331698 0.1240073251 -0.0383882454
-0.0395252142 0.1240038990 -0.0194050734
-0.0446604911 0.1240056155 -0.0282414640
-0.0472037993 0.0175551848 -0.0330767346
-0.0137632580 -0.0116718624 -0.0179911131
0.0035925602 -0.0312149033 -0.0088113479
0.0184081444 -0.0366721411 -0.0044403922
-0.0677726654 0.0324343652 -0.0413993722
-0.0349499038 0.0039980982 -0.0266698752
0.0195282243 -0.0344597996 -0.0049202407
-0.0310827763 -0.0000251192 -0.0247267475
0.0243216394 -0.0489086023 0.0004091675
-0.0096033038 -0.0166937285 -0.0156866125
0.0325896593 -0.0289541606 -0.0032411836
0.0393361669 -0.0323653041 -0.0008398182
-0.0560564262 0.0265457372 -0.0372937422
0.0028631787 -0.0177365978 -0.0129296443
0.0107771519 -0.0207986910 -0.0103326052
0.0317165090 -0.0317675957 -0.0027900789
-0.0286674607 0.0092772359 -0.0267442745
-0.0310432006 0.0059873046 -0.0265386334
-0.0306669861 0.0091838460 -0.0271974807
0.0330040617 -0.0376903801 -0.0010977910
0.0062625000 0.0454036630 0.0933240904
-0.0269587411 0.0766544361 0.0784934549
0.0106198412 0.0383447502 0.0976333555
0.0114809368 0.0350066341 0.1000368626
-0.0360512997 0.0834189924 0.0758629139
-0.0323004751 0.0815620177 0.0762024921
-0.0094321059 0.0609093907 0.0857250731
-0.0095879531 0.0522333512 0.0927018200
-0.0233942002 0.1128506365 0.0283420099
-0.0265005492 0.1219702786 0.0086541093
-0.0040256802 0.0910487634 0.0319420805
-0.0117561330 0.1022975072 0.0218486564
-0.0139311845 0.1035267551 0.0255875088
-0.0135389754 0.1036284414 0.0238143818
-0.0036562003 0.0898405907 0.0347033898
0.0287530036 0.0487221798 0.0564884267
-0.0265839387 0.1188039045 0.0197189148
-0.0047061181 0.0931285494 0.0273502942
-0.0111150065 0.0989191470 0.0309968808
-0.0326746084 0.1235298264 0.0258256965
-0.0244031930 0.1171455823 0.0174175960
0.0512791188 0.0116738791 0.0539801265
0.0527179591 0.0071705130 0.0454471585
0.0534071352 0.0073513840 0.0314775273
0.0534264711 0.0060364833 0.0366652518
0.0525183552 0.0081946098 0.0449427440
0.0533350477 0.0089922418 0.0259227061
0.0220116540 -0.0435992394 0.0828370863
0.0397203311 -0.0360553987 0.0373088151
0.0403311292 -0.0367756930 0.0093093416
0.0368272654 -0.0393087078 0.0312036633
0.0385166451 -0.0385542123 0.0109315559
0.0362381929 -0.0411259392 0.0059243670
0.0406737806 -0.0326766630 0.0662926321
0.0392585741 -0.0349426229 0.0636115058
0.0394702244 -0.0349257303 0.0601032988
0.0440314546 -0.0302422645 0.0427256438
0.0392941882 -0.0349591660 0.0627598623
0.0263042440 -0.0380995764 0.0907935081
0.0368096492 -0.0315058020 0.0850108949
-0.0458806639 0.0213490333 -0.0336533348
-0.0632585355 0.0600621968 -0.0460245343
-0.0566706757 0.0325104698 -0.0386958595
-0.0410427736 0.0312941986 -0.0344562668
-0.0613350934 0.0475260070 -0.0429641924
-0.0117404327 0.0070483288 -0.0220053447
-0.0676025835 0.0489230661 -0.0448508112
-0.0567276498 0.0407138522 -0.0403916449
-0.0562019564 0.0406480969 -0.0402439416
-0.0662561238 0.0391773973 -0.0425096941
-0.0593743002 0.0563820960 -0.0442785431
-0.0657142559 0.0560776514 -0.0458349510
-0.0733376072 0.0614530043 -0.0488830958
0.0362843432 -0.0283740254 -0.0024834017
-0.0324326446 0.0215969097 -0.0302704079
-0.0211672356 0.0129858351 -0.0256291810
0.0031111544 0.0020387452 -0.0171865527
-0.0317454567 0.0239669056 -0.0305806635
-0.0252797348 0.0231735168 -0.0287671484
-0.0326520960 0.0203445141 -0.0300697696
-0.0478476512 0.0602572281 -0.0413329891
0.0278438353 -0.0045842238 -0.0088958934
-0.0060202611 0.0198085987 -0.0227730411
-0.0654067587 0.0647103743 -0.0474012717
-0.0128165867 0.0257196696 -0.0256978003
-0.0307278077 0.0412377649 -0.0333975230
-0.0229767986 0.0432804172 -0.0312702095
0.0163220659 0.0058568698 -0.0139120055
-0.0635992750 0.0745698639 -0.0481958939
-0.0354242480 0.0457458029 -0.0354768401
-0.0301536157 0.0451029234 -0.0337507885
-0.0280145153 0.0428027325 -0.0327697537
-0.0028042362 0.0190010918 -0.0216627244
-0.0055179274 0.0213820439 -0.0228333975
-0.0628962565 0.0761887077 -0.0482001410
-0.0516536743 0.0106091728 0.0888758315
-0.0431864908 0.0057824990 0.0957707196
-0.0854028057 0.0505306455 0.0639187455
-0.1137880332 0.0862415251 0.0431887701
-0.0909107476 0.0604399527 0.0602600458
-0.0397029129 0.0022293748 0.0984160751
-0.0617497958 0.0250259549 0.0817119294
-0.0411721764 0.0012421924 0.0969968717
-0.0667077103 0.0830840984 0.0730049733
-0.0775167905 0.0883178936 0.0680430271
-0.0746976797 0.0948113707 0.0674137839
-0.0485974346 0.0526819572 0.0866132495
-0.0758456407 0.0934762932 0.0673496116
-0.0457655448 0.0531611270 0.0874603582
-0.0464450367 0.0504404156 0.0878948541
-0.0432931398 0.0440072211 0.0905427389
-0.0412987246 0.0422038192 0.0916633088
-0.0888499175 0.1167107364 0.0572344489
-0.0707613952 0.0841246702 0.0713698322
-0.0413584687 0.0382840256 0.0926469228
-0.0945774934 0.1054672148 0.0580449187
-0.0419574357 0.0305912588 0.0944600717
-0.0644463134 0.0637502578 0.0785949072
-0.0430789048 0.0427556189 0.0909287991
-0.0507279247 0.0437953354 0.0882017867
-0.1266915373 0.1179554743 0.0324348113
-0.1249051638 0.1068233213 0.0341072311
-0.0881027562 0.0890542770 0.0637535044
-0.0484059577 0.0385720100 0.0902097955
-0.0374223354 0.0129969773 0.0991879240
-0.0448278812 0.0298559825 0.0931894877
-0.0689586188 0.0577919703 0.0775002938
-0.0599850439 0.0470462164 0.0833856947
-0.0538467545 0.0446197467 0.0867081858
-0.0541547963 0.0425158167 0.0868593740
-0.0525479011 0.0304888652 0.0893563608
-0.0872962184 0.0874670768 0.0643712387
-0.0318107617 0.0051964648 0.1026028818
0.0390676783 -0.0253228823 0.0900441448
0.0408323045 -0.0011280037 0.0969281592
0.0440692677 -0.0086624150 0.0934616493
0.0322655642 0.0005965247 0.1026330492
0.0245876636 -0.0059979489 0.1053751527
0.0416725807 -0.0096443006 0.0956448889
0.0208259884 -0.0143075161 0.1054592195
0.0209429208 -0.0301868821 0.1002791341
-0.0662037255 0.0008144554 0.0710879618
-0.0714335119 0.0094410535 0.0686393302
-0.1056097597 0.0336629944 0.0400468305
-0.0803188598 0.0136139712 0.0603737394
-0.0449571171 -0.0153771320 0.0884194569
-0.0772888668 0.0096658354 0.0622035425
-0.0484538689 -0.0103839934 0.0864788347
-0.0776781225 0.0109405760 0.0622690401
-0.0903061339 0.0196203420 0.0515984094
-0.0290865309 -0.0157569089 0.1022368593
-0.0319846485 -0.0155872876 0.1012421287
-0.0622172505 0.1239995060 0.0393046673
-0.0834219413 0.1239998332 0.0501920309
-0.0622591811 0.1239993470 0.0417346935
-0.0661295401 0.1239994766 0.0426673650
-0.0520186142 0.1239999423 0.0251107186
-0.0310575821 0.0748753415 0.0808387507
-0.0590051674 0.1056165834 0.0643494392
-0.0667598298 0.1122240900 0.0607845404
-0.0471683998 0.0905555626 0.0724060555
-0.0477171469 0.0851942533 0.0752175957
-0.0377226072 0.0823672110 0.0768219118
-0.0428631342 0.0861841318 0.0747547703
-0.0730253672 0.1110341343 0.0613358165
-0.0508038789 0.0907726171 0.0722489161
-0.0827429564 0.1227442629 0.0550656076
-0.0299303063 0.0655901900 0.0855891704
-0.0256950860 0.0471946654 0.0937695743
-0.0262557709 0.0495986649 0.0926997418
-0.0207616573 0.0461612783 0.0947404194
-0.0506305698 0.0842590604 0.0755011555
-0.0842171221 0.1147583648 0.0590455826
0.0007181200 0.0352623374 0.1016528599
-0.0256653231 0.0603865954 0.0882371508
-0.0184451625 0.0492658543 0.0936899088
-0.0677755712 0.0944191171 0.0693707908
-0.0886551057 0.1200418362 0.0563452456
-0.0290627126 0.0483847205 0.0929034904
-0.0068614949 0.0332756882 0.1016611497
-0.0044961705 0.0409461628 0.0986999908
-0.1359534597 0.1236219835 0.0116174405
-0.0695812394 0.1180488833 -0.0531726794
-0.0676604222 0.1157891696 -0.0525862080
-0.0681453404 0.1002111605 -0.0522750465
-0.0814737743 0.1239927636 -0.0306492901
-0.0387678501 0.1239980601 -0.0008807894
-0.0666405017 0.1239938876 -0.0194079645
-0.0936274794 0.1239892885 -0.0366418851
-0.0791044774 0.1239953694 -0.0319104951
-0.0784344725 0.1239807059 -0.0417608297
-0.0676377864 0.1239787218 -0.0354140404
-0.0760603114 0.1239831079 -0.0385739824
-0.0710355606 0.1239801415 -0.0369095373
-0.0761223957 0.1239944941 -0.0314320066
-0.0346493992 0.1239993699 0.0008345216
-0.0777181268 0.1239755481 -0.0445116798
-0.0792219000 0.1186929470 -0.0546618953
-0.0255642849 0.0655904143 -0.0343224017
-0.0409585219 0.0719220725 -0.0403677477
0.0330043383 0.0096694011 -0.0087241066
0.0111884203 0.0310120492 -0.0183009485
-0.0119431132 0.0471908541 -0.0279287640
-0.0620260188 0.1013520945 -0.0503359476
-0.0027063291 0.0451301663 -0.0244433601
-0.0188650646 0.0623819917 -0.0316546264
-0.0155244923 0.0565979094 -0.0299827995
-0.0064931016 0.0477362895 -0.0260160273
0.0335907850 0.0079901544 -0.0083764267
-0.0386938324 0.0720115134 -0.0395617323
-0.0110832315 0.0481518362 -0.0276983962
-0.0264325280 0.0606669525 -0.0342323320
-0.0392776490 0.0670423720 -0.0393657881
-0.0634740375 0.0961643150 -0.0504325171
-0.0449459845 0.1239990358 0.0381992541
0.0066940461 0.0582515716 -0.0206265757
0.0276083793 0.0297939496 -0.0115424105
0.0286823264 0.0314527061 -0.0109712621
-0.0013459327 0.0648288806 -0.0242651124
-0.0130397338 0.0789176453 -0.0294054807
0.0317429564 0.0303656057 -0.0095386257
0.0500391773 0.0044905236 -0.0016245153
0.0173729387 0.0446360866 -0.0159574869
0.0391992352 0.0287792549 -0.0055542911
0.0394435913 0.0287761292 -0.0053934721
0.0054164634 0.0626055541 -0.0208662742
0.0523720227 0.0161127443 0.0005247059
-0.0013627486 0.0702785777 -0.0237554906
0.0482126851 0.0212885091 0.0655719878
0.0449406741 0.0297487564 0.0286421877
0.0455547568 0.0257459321 0.0637813797
0.0459089195 0.0268329028 0.0443863726
0.0431883078 0.0298591355 0.0604981668
-0.0212325389 0.0490961956 -0.0313992662
0.0115804584 0.0168139126 -0.0168055762
0.0186580778 0.0102050446 -0.0136976031
-0.0120256057 0.0382180870 -0.0270998701
0.0071604183 0.0188841678 -0.0185153182
0.0305513242 0.0077420214 -0.0094463989
-0.0233247245 0.0508724179 -0.0322980614
0.0249601950 0.0035794047 -0.0108468936
-0.0344856212 0.0600607640 -0.0370604786
0.0418655998 -0.0049553150 -0.0042383087
-0.0838636715 0.0782848921 -0.0521257009
0.0328630055 -0.0440127909 0.0088211484
0.0284549886 -0.0467731659 0.0048373742
0.0301240282 -0.0453626767 0.0161884104
0.0284302184 -0.0463725129 0.0160278554
0.0231707324 -0.0499252686 0.0042914841
0.0233447537 -0.0464603980 0.0676445148
0.0120737395 -0.0501299771 0.0699184956
0.0470228492 -0.0260921356 0.0356074872
0.0473153174 -0.0255036914 0.0372415073
0.0453542650 -0.0272632257 0.0592857902
0.0461848148 -0.0288740364 0.0143837653
-0.0872283963 0.0868899345 0.0644735321
-0.0984011054 0.0928503005 0.0562981760
-0.0894163358 0.0839730367 0.0628467152
-0.0597130698 0.0403736342 0.0844057177
-0.1117580898 0.1224722765 0.0466668955
-0.0904428972 0.0853428880 0.0621007573
-0.1122965908 0.1205245541 0.0462587167
-0.0880652243 0.0874410856 0.0638618664
-0.0962094263 0.0947518428 0.0579213164
-0.1023488947 0.1240007778 0.0441075065
-0.0900746279 0.1239842810 0.0314280879
-0.0908190881 0.1239795777 0.0299552594
-0.0795305233 0.1239955306 0.0305275217
-0.1004539343 0.1239775970 0.0340399716
-0.1011185379 0.1239892947 0.0389731342
-0.0962343129 0.0748685295 0.0569080654
-0.1164150638 0.0974870848 0.0417978279
-0.1198020312 0.0985236012 0.0390727282
-0.0673072481 0.0374662954 0.0782257087
-0.1219951648 0.0970156650 0.0371588264
-0.0431239709 0.0103563887 0.0963324530
-0.0466022498 0.0164482042 0.0938784280
-0.0784037037 0.0601048219 0.0706164466
-0.0681024041 0.0403128277 0.0777643448
-0.1009908374 0.0786374767 0.0532395809
-0.1045712442 0.0844498373 0.0506820914
-0.1203609392 0.1211014114 0.0401586548
-0.1044552381 0.0950588460 0.0515049341
-0.1063926626 0.0943723972 0.0498584342
-0.1025967966 0.0974450880 0.0532027217
-0.0501989631 0.0188969280 0.0910769546
-0.0864347549 0.0694518655 0.0646269393
-0.0993951927 0.0141898677 -0.0172587593
-0.1079495735 0.0206153226 -0.0172258590
-0.1075468964 0.0213736282 -0.0195185269
-0.1112539753 0.0245855057 -0.0204273493
-0.0202074070 -0.0098158827 0.1064766992
0.0468735397 0.0043464907 0.0898001848
0.0467840410 -0.0210105023 0.0709583816
0.0461223525 -0.0229871088 0.0699342642
0.0406350786 -0.0270854588 0.0832719704
0.0473440824 -0.0130833870 0.0818326895
0.0464071432 -0.0101336210 0.0882692795
0.0497604352 -0.0103935327 0.0735722115
-0.0573921366 0.0765253083 0.0774852456
-0.0469068518 0.0640140571 0.0839111063
-0.0357696456 0.0428100305 0.0931992634
-0.0578939886 0.0817380161 0.0757420466
-0.0495588829 0.0629859553 0.0835903623
-0.0394137328 0.0576128160 0.0877129879
-0.0613251383 0.0788540664 0.0758105520
-0.0095949388 0.0198058950 0.1066801074
-0.0143298844 0.0215349964 0.1049982773
-0.0550763976 0.0783098082 0.0774893941
0.0132538899 0.0296772984 0.1023325875
0.0100048478 0.0312172301 0.1021998550
-0.0047056944 0.0005398356 0.1107772434
0.0132003633 0.0067072793 0.1091307651
-0.0315337261 -0.0217912357 0.0989650281
-0.0342356369 -0.0281434225 0.0923468226
-0.0494597220 -0.0167735514 0.0816168615
-0.0498736175 -0.0178356524 0.0796711657
-0.0832686767 0.0072220140 0.0520674954
-0.0594989313 -0.0106001419 0.0717305550
-0.0365921261 -0.0291622059 0.0890595238
-0.0984569996 0.0200861283 0.0412277417
-0.0135889998 -0.0532765135 0.0013846326
-0.0226979127 -0.0488677715 0.0335778831
-0.0159067152 -0.0515386719 0.0243161127
-0.0207218640 -0.0499715498 0.0230681174
0.0161134161 -0.0461901482 0.0821694516
0.0084224699 -0.0512091841 0.0700258108
-0.1273097816 0.1239758078 0.0253102455
-0.0783106409 0.1239908911 0.0119656920
-0.0364971081 0.1239976348 0.0080948223
-0.1134806491 0.1239788964 0.0229773296
-0.1079688185 0.1239815967 0.0202450876
-0.0976381610 0.1239835282 0.0189631549
-0.1125243287 0.1239819171 0.0193724622
-0.1073329296 0.1239756155 0.0294085912
-0.0566800928 0.1239915595 0.0137430500
-0.0558232363 0.1239916435 0.0138426775
-0.1044738358 0.1239769560 0.0276597770
-0.1090769310 0.1239738254 0.0323836754
-0.0657110378 0.1239890918 0.0158003282
-0.1296822528 0.1239949602 0.0062210127
-0.1302970895 0.1239889558 0.0114235259
-0.0760238137 0.1239953396 0.0081465936
-0.1219283661 0.1239938371 0.0075249532
-0.0745900513 0.1239942491 0.0091564373
-0.0800493634 0.1239920249 0.0108636534
-0.1361502332 0.1239954473 0.0055248600
-0.1211224388 0.1239959704 0.0057011765
-0.1320473596 0.1239837596 0.0158745289
-0.0744291056 0.1239991142 -0.0057264146
-0.0871137347 0.1239988925 -0.0058852024
-0.0606320623 0.1239993748 -0.0022836032
-0.1006138072 0.1239986399 -0.0088517678
-0.1031777763 0.1239985992 -0.0082002871
-0.0428211385 0.1239997192 0.0035017581
-0.1043853814 0.1239985419 -0.0142814601
-0.1151484341 0.1239983275 -0.0188262409
-0.0819212407 0.1239998366 -0.0154414406
-0.1164879874 0.1239987147 -0.0223066916
-0.1111681610 0.1239989781 -0.0218626680
-0.0537876761 0.1239996643 -0.0025241546
-0.0994910033 0.1239993802 -0.0196999153
-0.0894155342 0.1239990068 -0.0129685190
-0.1080442034 0.1239995959 -0.0247305398
-0.0263467559 -0.0167383581 -0.0177802714
-0.0131777187 -0.0326703468 -0.0101069513
-0.0391399057 -0.0028941427 -0.0245465506
-0.0310069488 -0.0084670474 -0.0216051531
0.0134506452 -0.0522086097 0.0000678438
-0.0391714690 -0.0011266893 -0.0252935109
-0.0497616766 0.0020406016 -0.0273094340
-0.0652319990 0.0228138065 -0.0372278724
-0.0762195925 0.0378187697 -0.0443817802
-0.0824713880 0.0382701355 -0.0449265910
-0.0144326858 -0.0352732802 -0.0090736887
-0.0582808515 0.0104858410 -0.0314658476
-0.0486581245 0.0131445444 -0.0319058346
0.0135600810 -0.0493300990 -0.0010042539
-0.0250177733 -0.0118888521 -0.0196904142
0.0032707321 -0.0365810030 -0.0069991716
-0.0278253911 -0.0074013592 -0.0216953309
-0.0352948214 -0.0009045668 -0.0250379556
0.0258284895 0.0354560328 0.0932556878
0.0123462846 0.0444601794 0.0914375276
0.0162234027 0.0443245019 0.0894993119
-0.0286034222 0.0966424656 0.0610064767
0.0160567279 0.0456011868 0.0883079509
-0.0054145450 0.0740808826 0.0712297672
0.0112068858 0.0555416561 0.0809322329
0.0075944472 0.0552819854 0.0831253822
-0.0345859273 0.1028143701 0.0580166729
0.0025602282 0.0847682474 0.0180758300
0.0085317902 0.0759847566 0.0364821931
0.0297333973 0.0506814083 0.0112070138
0.0245625809 0.0569844667 0.0153393973
0.0082878969 0.0778057962 0.0131996328
0.0287601159 0.0519514786 0.0106956402
-0.0248292676 0.1202193055 0.0081609017
0.0277413543 0.0512857951 0.0409004717
0.0213812535 0.0615460928 0.0073476781
0.0169908598 0.0652663814 0.0359935381
0.0088546755 0.0776600421 0.0043474248
0.0258642203 0.0545932718 0.0266953111
-0.0010955382 0.0898507045 0.0113491375
0.0033973117 0.0827849634 0.0322431001
-0.0032598565 0.0928143634 0.0080647335
0.0338765060 0.0446045064 0.0237133588
-0.0003260362 0.0885564631 0.0162230899
0.0162636205 0.0673865506 0.0175663384
0.0230122035 0.0570132709 0.0452531559
0.0003913404 0.0871663650 0.0235946358
0.0169244654 0.0648221237 0.0441386165
0.0403571396 0.0365532038 0.0208703201
0.0085592220 0.0760985747 0.0341913742
0.0026994962 0.0837243409 0.0314331376
0.0260858018 0.0544811086 0.0240847642
0.0145139012 0.0700719727 0.0104507824
0.0257916255 0.0532041166 0.0495205679
0.0113987098 0.0740186380 0.0106392497
0.0407424127 0.0335271439 0.0599512414
0.0082562283 0.0778074380 0.0137944321
0.0225615178 0.0596615206 0.0132742771
0.0192602777 0.0636595017 0.0163150599
0.0243649861 0.0565627848 0.0257056348
0.0412368578 0.0332407136 0.0546828854
-0.0018269807 0.0909043683 0.0094367193
0.0390645832 0.0372596465 0.0352948433
0.0350639164 0.0411537680 0.0536311748
-0.0058941678 0.0954028263 0.0197640861
0.0194380756 0.0641336010 0.0055288243
0.0066829937 0.0803095524 0.0060475368
-0.0047913902 0.0870624717 -0.0195210916
0.0273552572 0.0497925449 -0.0077193367
0.0145851527 0.0587026519 -0.0152705121
-0.0156441778 0.0972444832 -0.0247978884
-0.0429455364 0.1130770099 -0.0422350873
-0.0368975382 0.1074462639 -0.0393606287
-0.0408337182 0.1239007548 -0.0352782413
0.0038733470 0.0716595988 -0.0189725608
-0.0275470864 0.1101434808 -0.0296091710
0.0011016749 0.0713960917 -0.0216136114
-0.0396683154 0.1204638457 -0.0358190706
-0.0442692460 0.1175614170 -0.0413505320
0.0147677302 0.0593271767 -0.0148139279
-0.0019403731 0.0738476453 -0.0232365831
-0.0305432483 0.1041156341 -0.0351372585
0.0538459015 -0.0022262099 0.0313003789
0.0534692603 -0.0040088457 0.0345171789
0.0530654956 0.0010097555 0.0582806026
0.0508405005 0.0188220939 0.0221609866
0.0517422247 0.0172010426 0.0117595312
0.0520690549 0.0166898616 0.0073129117
0.0510977538 0.0186794616 0.0163598884
0.0467989472 0.0103345440 0.0857733379
0.0454736659 0.0183960961 0.0834087415
0.0503973372 0.0087737712 0.0698596730
0.0489259375 0.0087071884 0.0772514922
-0.0190591682 -0.0434563733 -0.0048027280
-0.0109574598 -0.0487061295 -0.0023077367
-0.0277132768 -0.0245888574 -0.0143003793
-0.0366933659 -0.0178641632 -0.0175325993
-0.0135632677 -0.0492709473 -0.0019491160
-0.0566230095 0.0025741477 -0.0275472279
-0.0095602977 -0.0522389379 -0.0005235789
-0.0120128365 -0.0518762485 -0.0006468609
-0.0747566122 -0.0006963764 -0.0199574628
-0.0931811582 0.0190020280 -0.0292629695
-0.0616007078 -0.0088601876 -0.0189970694
-0.0851446285 0.0175023483 -0.0320350803
-0.0767683606 0.0047931894 -0.0241891703
-0.0663130910 -0.0092864377 -0.0161140960
-0.0455847180 -0.0277710679 -0.0091863647
-0.0583679227 -0.0162426590 -0.0135828721
-0.1050623563 0.0234403674 -0.0256102760
-0.0428327201 -0.0350532925 -0.0027445803
-0.1108329797 0.0271340937 -0.0253363945
-0.0880977043 0.0071520141 -0.0189033373
-0.0478064870 -0.0305141044 -0.0043840074
-0.1028019044 0.0199398360 -0.0228761684
-0.0677414827 -0.0091802498 -0.0152263515
-0.0766498722 -0.0005293517 -0.0189202320
-0.0285398341 -0.0346392949 -0.0089318303
-0.0436238516 -0.0143891281 -0.0191217639
-0.0642001321 0.0052663945 -0.0282865301
-0.0716186015 0.0190763581 -0.0355865680
-0.0599334556 -0.0010761807 -0.0250389363
-0.0838092379 0.0321719287 -0.0418783464
-0.0614138912 0.0073868175 -0.0298875066
-0.0804577259 0.0211460761 -0.0357354995
-0.0770436169 0.1116542716 -0.0543066775
-0.0828933816 0.1064840835 -0.0544159784
0.0508871697 -0.0158105468 0.0484715885
0.0513283636 -0.0192079610 0.0066920602
0.0521491671 -0.0143085483 0.0264758369
0.0516822583 -0.0175217687 0.0115177558
0.0159895796 -0.0497024496 0.0627620469
0.0200837883 -0.0499019648 0.0289318880
0.0165259873 -0.0502442400 0.0480981661
0.0178462966 -0.0508168591 0.0271032291
0.0251323666 -0.0468714950 0.0522282680
0.0195003748 -0.0498238899 0.0347376435
-0.0211533068 0.0293872380 -0.0287610435
-0.0134196482 0.0230420019 -0.0254687261
0.0266683730 -0.0152415648 -0.0075066357
0.0005929246 0.0127834224 -0.0197091722
0.0242587352 -0.0075196768 -0.0094871012
0.0411787976 -0.0278171946 -0.0012179817
0.0439038086 -0.0317211584 0.0002192995
-0.0644563755 0.0627012711 -0.0468276624
0.0431971492 -0.0192350133 -0.0020600747
0.0203497677 -0.0047080059 -0.0110854730
-0.0507946634 0.0523485042 -0.0411539858
-0.0974783878 0.0097813396 0.0230341234
-0.0455383558 -0.0279503421 0.0678701506
-0.0419481860 -0.0297129579 0.0738125753
-0.0836649937 -0.0003759168 0.0345460494
-0.1013912388 0.0122206031 0.0183004138
-0.0731838375 -0.0076678486 0.0446768100
-0.0874333301 0.0027408740 0.0325687035
-0.0694338450 -0.0120134419 0.0424609880
-0.0978924110 0.0106072085 0.0244426725
-0.1014700709 0.0128631506 0.0202006873
-0.0685577728 -0.0128361706 0.0425906729
-0.0567591565 -0.0184715555 0.0626483931
-0.0812410243 -0.0017903228 0.0378037104
-0.0327005963 -0.0347095439 0.0875841441
-0.0802065951 -0.0026234796 0.0384219004
-0.1287587970 0.0678439566 0.0209202198
-0.1310100110 0.0742810410 0.0177108740
-0.1230266415 0.0835793223 0.0338216326
-0.1277960789 0.0496356779 -0.0138242791
-0.1261523317 0.0452301240 -0.0156303575
-0.1052046200 0.0149143517 -0.0053851075
-0.1032170967 0.0129244748 -0.0012677217
-0.0474565793 -0.0322648769 -0.0007569197
-0.0402872733 -0.0382279099 0.0009617752
-0.1104327925 0.0184499121 0.0021506628
-0.1152807203 0.0232880485 -0.0077244567
-0.0526877898 -0.0279660546 -0.0014465326
-0.1188305118 0.0285674334 -0.0159917763
-0.0950247102 0.0081914135 -0.0107106124
-0.0958612456 0.0097770345 -0.0134559044
-0.1135058537 0.0238472437 -0.0143317035
-0.1153382016 0.0262822976 -0.0172893458
-0.0973519489 0.0106848212 -0.0127029611
-0.0875607387 0.0008017827 0.0195176625
-0.0503488533 -0.0300226282 0.0031916049
-0.0653343484 -0.0168569110 0.0245419204
-0.0676589737 -0.0148763686 0.0266406233
-0.0602819748 -0.0206218940 0.0305749469
-0.0512378244 -0.0288724898 0.0117059611
-0.0689993954 -0.0144690131 0.0134254259
-0.0326248934 -0.0436139725 0.0168234170
-0.0779713107 -0.0077256270 0.0038430070
-0.0341448644 -0.0416410857 0.0315064117
-0.0324001208 -0.0421023831 0.0500613178
-0.1042523716 0.0138921493 0.0123867776
-0.0360552159 -0.0393002395 0.0472361881
-0.0748016967 -0.0101250993 0.0068914159
-0.0816080732 -0.0034133553 0.0309599241
-0.0579650968 -0.0216018996 0.0479995358
-0.0486871985 -0.0289223728 0.0510931878
-0.0493457445 -0.0302625399 0.0143562439
-0.0708832164 -0.0118380376 0.0352718712
-0.0354052311 -0.0401234481 0.0413589730
-0.0928541017 0.0044703719 0.0077779655
-0.0832162626 -0.0027056967 0.0194035440
-0.0857594802 -0.0009493034 0.0136415144
-0.0545763990 -0.0261354382 0.0126120415
-0.0782963367 -0.0071285525 0.0104228561
-0.0365485475 -0.0394615025 0.0362621687
-0.0891294735 0.0014336364 0.0070972427
-0.0346435926 -0.0415825366 0.0247630770
-0.0680803061 -0.0148685715 0.0201256346
-0.0648650172 -0.0176852681 0.0157045535
-0.0669631225 -0.0149431004 0.0363429952
-0.0464949441 -0.0331784761 0.0022180920
-0.0338126594 -0.0407586317 0.0540912567
-0.0353306439 -0.0414649734 0.0161980671
-0.0470857715 -0.0300291822 0.0547050736
-0.0890319332 0.0020047090 0.0198541515
-0.0769240729 -0.0078200531 0.0185627017
-0.0760587650 -0.0082668729 0.0234837613
-0.0468836769 -0.0327957182 0.0035815217
-0.0309306595 -0.0014703363 0.1030496231
-0.0249911648 -0.0016725268 0.1054073713
0.0426856824 0.0262439568 0.0762974956
-0.0143673818 0.0029210697 0.1093018730
0.0106345750 0.0109007122 0.1088724015
0.0295182010 0.0034061313 0.1037782688
0.0306589821 0.0150807720 0.1019373959
0.0168875136 0.0227774476 0.1042640003
-0.0026009780 -0.0110532043 0.1096921847
-0.0092901090 -0.0317515909 0.1021995080
-0.0034775521 -0.0334780625 0.1020531002
-0.0126675524 -0.0355866980 0.0996186912
-0.0165185150 -0.0237085098 0.1038371553
-0.0196815554 -0.0210690425 0.1038580342
-0.0093512580 -0.0139489397 0.1085755926
-0.0138518103 -0.0502099131 0.0658090090
-0.0102749347 -0.0516302486 0.0587280655
-0.0127090413 -0.0519865049 0.0358831683
-0.0123715075 -0.0520463111 0.0367672060
-0.0077398914 -0.0520060563 0.0669019064
-0.0143714210 -0.0517569341 0.0301703192
-0.0198322963 0.0801879972 -0.0324554446
-0.0168517805 0.0742680633 -0.0311024802
-0.0470230480 0.1110751144 -0.0444480855
-0.0300567171 0.0780875297 -0.0367572241
-0.0264417384 0.0734401097 -0.0351546208
-0.0075859205 0.0654033208 -0.0270408761
0.0340137942 0.0199980030 -0.0087210956
0.0213065119 0.0330479986 -0.0143047402
-0.0004896073 0.0582715572 -0.0239250822
-0.0132963756 0.0722089421 -0.0295643365
0.0174676471 0.0378724009 -0.0160049181
0.0394815606 0.0134138016 -0.0063038526
-0.0565625306 0.1026897706 -0.0483643478
-0.0373245759 0.1026887373 -0.0402103663
-0.0526379366 0.1003080560 -0.0466648372
-0.0195448969 0.0742475537 -0.0322436411
-0.0923002163 0.1184598897 -0.0538083720
-0.1370748954 0.1108558747 0.0030066920
-0.1370888788 0.1118407328 0.0038190021
-0.1286646650 0.0447396273 -0.0060927059
-0.1145114307 0.1239917967 -0.0378592608
-0.0996484786 0.1239895944 -0.0337202631
-0.0782465228 0.1239985150 -0.0163908033
-0.0698892545 0.1239953742 -0.0158523097
-0.1091242668 0.1239905302 -0.0367993826
-0.1209356927 0.1239979807 -0.0347286553
-0.0732555815 0.1239917265 -0.0206886481
-0.1011794809 0.1239974410 -0.0269819544
-0.0766746475 0.0656069287 -0.0501781530
0.0130251138 -0.0528588822 0.0199022505
0.0073817465 -0.0536894069 0.0264369944
0.0083007689 -0.0530160051 0.0417634065
0.0144838493 -0.0530524699 0.0057784052
0.0007146940 0.0679555913 0.0738727890
0.0015897339 0.0752945816 0.0617461536
-0.0296203240 0.1174690495 0.0318161908
-0.0454729834 0.1222624734 0.0419147070
-0.0102199474 0.0911831094 0.0505273821
-0.0317274718 0.1098987463 0.0456465248
0.0020755350 0.0689314389 0.0708950118
-0.0348321094 0.1069393473 0.0535554901
-0.0184503279 0.0948511546 0.0539758189
-0.0343324862 0.1197780299 0.0334726755
-0.0102415216 0.0801168031 0.0673889729
-0.0164861720 0.0889442844 0.0608085343
-0.0083547427 0.0864074001 0.0557475404
-0.0094185578 0.0839515013 0.0606514206
-0.0050576969 0.0763096265 0.0674946059
0.0112524578 0.0585325049 0.0766494978
-0.0218552571 0.1023096308 0.0463629314
0.0161225062 0.0528678132 0.0799256737
-0.0152822803 0.1003510428 0.0410462389
0.0318035187 0.0351164090 0.0884236053
-0.0118243433 0.0949262827 0.0461295891
-0.0042878790 0.0840108021 0.0549123209
0.0330307544 0.0358558907 0.0834858577
0.0049433597 0.0729413633 0.0598493428
-0.0162852839 0.1032351016 0.0351410368
0.0018065523 0.0801997544 0.0475320641
0.0137008801 0.0639320634 0.0594245742
0.0384080373 0.0321703763 0.0773582775
0.0330281421 0.0402442328 0.0695918570
0.0255515157 0.0479685965 0.0704581126
0.0333389143 0.0385649801 0.0740853307
0.0148202803 0.0634980927 0.0568853035
0.0116827502 0.0679225889 0.0533035565
0.0137692376 0.0635089033 0.0605923517
-0.0101130040 0.0938061321 0.0446047629
0.0148247896 0.0618528021 0.0623562164
-0.0051051025 0.0196395505 0.1075632849
0.0489842160 0.0233641380 0.0241838185
0.0487759255 0.0231368571 0.0313893450
0.0496687558 0.0222891521 0.0230332191
0.0492449574 0.0233999182 0.0182396743
0.0545135193 0.0039995750 0.0076797858
0.0537516366 0.0002477106 0.0396579441
0.0548554633 0.0015575096 0.0013207748
0.0533576137 0.0027083877 0.0476699417
-0.0034344731 -0.0530395505 0.0468112225
0.0003739447 -0.0527381440 0.0526916938
0.0086927423 -0.0523480704 0.0598041102
0.0042253848 -0.0537938215 0.0295702153
0.0061036424 -0.0531015373 0.0440857514
-0.0021621828 -0.0523325367 0.0617304828
-0.1041116026 0.0770959066 -0.0475026928
-0.0364023337 -0.0290453547 -0.0112054608
-0.0570860536 -0.0115905273 -0.0186312287
-0.0296084619 -0.0410423745 -0.0042814518
-0.0263473539 -0.0415037769 -0.0047507782
-0.0737168570 0.0069990244 -0.0278633390
0.0496864245 -0.0182364829 0.0541539218
0.0499802892 -0.0173373350 0.0560348386
0.0486084523 -0.0196364698 0.0634368209
0.0488687698 -0.0228675276 0.0307693358
0.0490803398 -0.0201963323 0.0493761741
0.0524600339 -0.0119844160 0.0331115081
0.0525315172 -0.0080702534 0.0431487993
0.0535411872 -0.0108518569 0.0126626273
0.0532683056 -0.0103048478 0.0202946133
0.0531041177 -0.0081721833 0.0302368844
-0.1233943112 0.0351485653 0.0151907284
-0.1114518919 0.0260739701 0.0259301156
-0.0893773417 0.0115550664 0.0467221918
-0.0957691869 0.0127079343 0.0369892122
-0.0940827870 0.0129500515 0.0402218088
-0.1151762526 0.0268820341 0.0204248263
-0.0870963070 0.0077964924 0.0461229655
-0.1195062134 0.0330163848 0.0203451550
-0.1329523103 0.0710431372 0.0088049159
-0.1235007952 0.0518028275 0.0247884832
-0.1271949949 0.0787451310 0.0268069782
-0.0670533007 0.0253032692 0.0769765520
-0.1092041220 0.0784931512 0.0462573512
-0.0916027623 0.0466766128 0.0575634401
-0.0928012657 0.0483445980 0.0567146293
-0.1105750390 0.0722828214 0.0440003801
-0.1197587052 0.0744371824 0.0358128373
-0.1092723960 0.0725001874 0.0452445721
-0.0931479501 0.0504166156 0.0567209031
-0.1119004363 0.0683372842 0.0421444592
-0.0950751099 0.0563622721 0.0558730386
-0.1035259196 0.0605368244 0.0486861240
-0.1200354287 0.0827418413 0.0368714253
-0.1198198301 0.0742794689 0.0357310868
-0.1308553610 0.0873530956 0.0220902271
-0.1279262785 0.0744183043 0.0247478370
-0.1265464696 0.1056230458 0.0317910121
-0.1289958220 0.1023855892 0.0282143450
-0.1319169765 0.0757370014 0.0155619440
-0.1359360579 0.0992517797 0.0091284836
-0.1266503227 0.0546003059 -0.0199195558
-0.1252326974 0.0514981195 -0.0218313801
-0.0183477139 0.0014903450 0.1082205186
0.0464229120 0.0209828920 0.0737027304
0.0464868891 0.0202625036 0.0751431565
0.0507601067 -0.0000188936 0.0740341898
-0.0040127144 0.0095107769 0.1098590476
-0.0089980475 0.0068429824 0.1097987689
0.0303924514 0.0181785719 0.1013655443
0.0318386200 0.0216209071 0.0988168358
0.0141439128 -0.0424710920 0.0934929294
0.0176509051 -0.0425515554 0.0911438919
0.0069575503 -0.0462609276 0.0903595345
0.0170556922 -0.0179273618 0.1058204151
0.0124486489 -0.0311387716 0.1022682937
-0.0003014910 -0.0455086910 0.0924500538
0.0035226096 -0.0360878408 0.1008587156
-0.0168441601 -0.0485893943 0.0694719309
-0.0174275248 -0.0463870142 0.0783990872
-0.0316979752 -0.0439869575 0.0238637484
-0.0307356157 -0.0424293978 0.0654983116
-0.0296382530 -0.0455734686 0.0180235179
-0.0270525386 -0.0450948385 0.0583641708
-0.0231330744 -0.0475531325 0.0577602478
-0.0262218665 -0.0471383456 0.0277020173
-0.0237666784 -0.0495490140 0.0065932858
-0.0049585234 -0.0483084233 0.0832266968
0.0019158271 -0.0487381489 0.0829515479
-0.0308689371 -0.0304326301 0.0939153318
-0.0237995969 -0.0274109095 0.1006742090
-0.0813323962 0.0939053667 -0.0538629286
-0.0772468059 0.0837873856 -0.0523902393
-0.1345331531 0.1067891058 0.0155990947
-0.1359642625 0.1035994963 0.0101637065
-0.1295397670 0.0646121875 -0.0176239168
-0.1302366815 0.1098363839 -0.0269393011
-0.1301878555 0.1168412627 -0.0270323062
-0.0775315782 0.0457856412 -0.0465678317
0.0420701754 0.0154923009 0.0932360765
0.0363326347 0.0070901867 0.1003528316
0.0045692119 -0.0509593783 0.0717593908
0.0063432563 -0.0512376079 0.0701308068
-0.0059256518 -0.0544775163 0.0030781602
-0.0048163975 -0.0536980913 0.0268270734
-0.0067210413 -0.0539119363 0.0176781150
-0.0005966341 -0.0543778022 0.0146513038
-0.0101500890 -0.0541220684 0.0061253394
-0.1058688303 0.0320851804 -0.0348402836
-0.1052891224 0.1233123953 -0.0501206631
0.0169691468 -0.0517089401 0.0152543123
0.0144749916 -0.0515516825 0.0369990776
0.0170973893 -0.0520569131 0.0070811350
-0.1271913468 0.0381658115 -0.0011946002
-0.1118284617 0.0221050173 0.0167454631
-0.0843165120 0.0025475173 0.0420471770
-0.1198950701 0.0262035614 0.0041305286
-0.0436061903 -0.0262500708 0.0799389091
-0.1192445311 0.0276378684 0.0107541932
-0.1070747390 0.0175874087 0.0175012216
-0.0959709605 0.0110615014 0.0320569586
-0.0997568392 0.0139017368 0.0290484148
-0.1362903346 0.0971393942 0.0043599813
-0.0576172551 -0.0087564084 0.0767243557
-0.0729970701 0.0019672201 0.0633816137
-0.1041112074 0.0308334658 0.0405985947
-0.0572879055 -0.0085183020 0.0772846607
-0.1097405991 0.0349337362 0.0358176436
-0.1058861906 0.0288189417 0.0371496300
-0.1217070652 0.0629156099 0.0308511166
-0.1202878070 0.0482809478 0.0286493522
0.0324151693 0.0218850780 0.0982464446
0.0372443328 0.0286844665 0.0886870038
0.0031001946 -0.0002947419 0.1107709546
0.0041028008 0.0067051726 0.1103448477
-0.0003692988 -0.0131506827 0.1094397461
0.0037455964 -0.0219922483 0.1067059625
-0.0287463675 -0.0385181988 0.0854190857
-0.0193953077 -0.0429236484 0.0895132588
-0.0253387131 -0.0426829030 0.0782659047
-0.0277644335 -0.0430476373 0.0711152102
-0.0134700968 -0.0459620846 0.0853255082
-0.0121739922 -0.0413759864 0.0944466942
-0.1311183430 0.1157996910 0.0249762213
-0.1312372393 0.1214651899 0.0251341541
-0.0574580441 0.1239994530 0.0023391094
-0.0716516791 0.1239991911 -0.0008290794
-0.0662130495 0.1239992950 0.0028118281
-0.0638596514 0.1239993360 0.0016533890
-0.1099884584 0.1239984885 -0.0061272079
-0.0627434595 0.1239993573 0.0023759845
-0.0896263450 0.1239988716 0.0035824098
-0.0498211137 0.1239995957 0.0052631201
-0.1367911541 0.1009868433 -0.0041342267
-0.1369949429 0.1058558164 -0.0021808574
-0.1364137748 0.1077090055 -0.0081502884
-0.1357530472 0.0887891191 -0.0005884137
-0.1358946720 0.0901819471 0.0001216540
-0.1323232782 0.0642678434 -0.0056928041
-0.1278139788 0.0418971752 -0.0072731906
-0.1231471298 0.0418230503 -0.0216453534
-0.1231911299 0.0589820783 -0.0277950165
-0.1309018116 0.0860014684 -0.0219597679
-0.1291899905 0.0752471963 -0.0225885783
-0.1221478649 0.1194664164 -0.0376685565
-0.1210868608 0.1121867149 -0.0386750734
-0.1261049768 0.1058436650 -0.0325424173
-0.1251520124 0.0879329958 -0.0320893036
-0.0997631094 0.1008443531 -0.0511597388
-0.0961944333 0.1021769573 -0.0525423397
-0.1030340119 0.1098419195 -0.0505760946
-0.1057350852 0.0994834756 -0.0489695543
-0.1115531298 0.0458005856 -0.0365026596
-0.1118357649 0.0555051512 -0.0389921634
-0.1204999191 0.0902459047 -0.0374899822
-0.1284256459 0.0418876052 -0.0031043496
-0.1305507983 0.0512179121 -0.0007271188
-0.1295827071 0.0524160289 0.0093442485
-0.1236825074 0.0439142981 0.0209182550
-0.1229921291 0.0400248646 0.0204358377
-0.1016413971 0.0393540437 0.0456654647
-0.0911678936 0.0437100322 0.0574835735
-0.1141134991 0.0470111811 0.0348456106
-0.0661336049 0.0108322422 0.0747666549
-0.1059533929 0.0505679929 0.0440946064
-0.1010544523 0.0350707861 0.0451809926
-0.0988828253 0.0313490591 0.0464599384
-0.1044957993 0.0352905784 0.0417160504
-0.1088917913 0.0522507361 0.0415147590
-0.0917951087 0.0396234166 0.0558067835
-0.0756075133 0.0281936308 0.0694721129
-0.0666365989 0.0182371006 0.0761277035
-0.0868020362 0.0296956662 0.0584001966
-0.1168272358 0.0629304094 0.0361016591
-0.1090073351 0.0580897264 0.0428755526
-0.1179863373 0.0674071086 0.0360497935
-0.1147660294 0.0485819532 0.0345759220
-0.0524682739 0.0002809701 0.0860741469
-0.1323502590 0.1058559273 0.0213700934
-0.1308943510 0.1010802712 0.0242292321
-0.1311461048 0.1052764939 0.0241619264
0.0030019815 0.0133550017 0.1095305826
0.0021287752 -0.0242803945 0.1058368960
0.0054581526 -0.0459645272 0.0913718774
0.0431767952 0.0021941603 -0.0043743983
0.0455824011 0.0034880514 -0.0034857839
-0.0017091337 0.0499179998 -0.0243088580
0.0530988360 -0.0037717036 -0.0001817885
-0.0071023089 0.0548405956 -0.0266661670
0.0136014138 0.0308458466 -0.0173788596
-0.1342371191 0.1219966275 -0.0178633809
-0.1144687558 0.0417340605 -0.0329878447
-0.1291231578 0.0897432536 -0.0257426426
-0.1286196276 0.1001575439 -0.0285317921
-0.0977804141 0.0413205012 -0.0431192294
-0.1045973684 0.0649864078 -0.0452111693
-0.0959256959 0.0556311577 -0.0468687384
-0.1196753630 0.0647509803 -0.0336377568
-0.1153271799 0.0741102876 -0.0396892839
-0.1153172241 0.0723022714 -0.0393746763
-0.1160468195 0.0844764644 -0.0408629572
-0.1234224039 0.0622992267 -0.0283973960
-0.1327218661 0.0651653400 0.0024780095
-0.1249419203 0.0344169866 -0.0089230736
-0.1326684968 0.1169323089 -0.0223216953
-0.0910639269 0.0439913782 -0.0454949166
-0.1129847086 0.0756395358 -0.0419457330
-0.1142015481 0.1120603281 -0.0445445060
-0.1170383101 0.1125866962 -0.0423366901
-0.1109975243 0.1106894710 -0.0464906053
-0.1096892149 0.0963210087 -0.0464200366
-0.1332812000 0.0696552237 0.0053266384
-0.1317600201 0.0727738155 -0.0145227539
-0.1315727934 0.0707929375 -0.0143377654
-0.0852783179 0.0944280438 -0.0535860468
-0.0873037360 0.1047766099 -0.0539525150
-0.0876769569 0.1019864079 -0.0537536661
-0.1161067919 0.0297975897 -0.0226727732
-0.1109139332 0.0588443541 -0.0403604525
-0.0904042115 0.0762633103 -0.0512859924
-0.0902584290 0.0777428556 -0.0515294843
-0.1249086943 0.0348603225 0.0087822659
-0.1357409854 0.1042038759 -0.0117648186
-0.1343694393 0.0765337114 -0.0051310586
-0.1341965894 0.0775649137 -0.0065348179
-0.1350886012 0.0970698061 -0.0130079977
-0.1323821246 0.0965086212 -0.0206726914
-0.0955086813 0.0649142169 -0.0485426088
-0.0933281940 0.0922841423 -0.0524379637
-0.1348677451 0.0829545166 -0.0062211476
-0.0904707455 0.0507940315 -0.0470947326
-0.0923388079 0.0519665880 -0.0471579717
-0.1171688602 0.0369003154 -0.0280996701
-0.0909788414 0.0629005837 -0.0492077441
-0.0898272169 0.0582366811 -0.0485344343
