0.0547635331 -0.0215799367 0.0010303794
0.0661299435 -0.0067822175 0.0012461505
0.0560192932 -0.0161818265 0.0010541297
0.0363003687 0.0444496577 0.0006855113
0.0188338362 0.0239418897 0.0003542844
0.0327300922 -0.0276146014 0.0006132639
0.0064665268 -0.0133710670 0.0001182313
0.0138475956 0.0057847057 0.0002589044
0.0009321811 -0.0175131967 0.0000134383
0.0027361586 0.0287739954 0.0000506041
0.0089014766 -0.0214730009 0.0001636730
0.0157223789 -0.0180111596 0.0002927170
0.0245369349 -0.0294449970 0.0004584141
0.0117573955 -0.0258494456 0.0002173139
0.0116387900 0.0507258395 0.0002201989
0.0073879381 0.0246673090 0.0001381779
0.0282510726 0.0480610065 0.0005337425
0.0340843147 0.0367977137 0.0006431492
0.0200651225 0.0352338567 0.0003782929
0.0365949376 -0.0313027673 0.0006860044
0.0044558392 -0.0456560726 0.0000780989
-0.0000529402 0.0360096661 -0.0000015836
0.0473588578 0.0107513395 0.0008920949
0.0098467410 -0.0032313012 0.0001827451
0.0369791048 0.0013296521 0.0006954434
0.0045275018 0.0649546277 0.0000868549
0.0233731806 -0.0556466934 0.0004346831
-0.0008117924 -0.0557851593 -0.0000220579
0.0312424304 -0.0036755691 0.0005867716
0.0177501787 -0.0090099298 0.0003316143
0.0127432036 0.0041115709 0.0002379360
0.0081098600 0.0009300306 0.0001502227
0.0225700276 -0.0558876783 0.0004194995
0.0025771270 0.0771474771 0.0000508383
0.0005654291 -0.0583147589 0.0000037815
0.0320461778 -0.0353513377 0.0005998304
0.0086826193 0.0633430536 0.0001652162
0.0050896787 0.0760443058 0.0000982138
0.0446224195 -0.0273335817 0.0008378686
0.0146021525 -0.0143406212 0.0002718072
0.0043646454 -0.0750348158 0.0000744105
0.0137922435 0.0273979483 0.0002593055
0.0318466402 -0.0343157806 0.0005961315
0.0042618156 -0.0787811052 0.0000722179
0.0143347152 0.0615611817 0.0002718365
0.0005168492 0.0779326275 0.0000119826
0.0081384676 -0.0444527814 0.0001477256
0.0215209977 0.0292113567 0.0004053839
0.0438498336 0.0179219975 0.0008263071
0.0365836365 0.0330578858 0.0006900984
0.0151151657 -0.0251441133 0.0002807724
0.0211107636 0.0243753256 0.0003973130
0.0368359425 -0.0158018189 0.0006915932
0.0235255279 -0.0492793372 0.0004379863
0.0206568607 -0.0529215560 0.0003835680
0.0000457405 -0.0307118288 -0.0000041854
0.0049834300 0.0383312622 0.0000936833
0.0140877751 -0.0053338917 0.0002626960
0.0239478217 0.0354422603 0.0004516314
0.0280236713 -0.0496389966 0.0005229094
0.0397000896 -0.0455973292 0.0007448625
0.0575037017 -0.0219597543 0.0010827439
-0.1343062992 -0.0669956274 0.0016043440
0.0472548548 -0.0508418316 0.0009030074
0.0344656177 -0.0593583890 0.0006502600
-0.0289431121 0.0008998943 0.1400000006
0.0501046376 -0.0097062140 0.1400000006
0.0179037205 -0.0042963176 0.1400000006
0.0335426255 -0.0127171444 0.1400000006
0.0401326515 -0.0046829811 0.1400000006
0.0494651558 -0.0085650570 0.1400000006
0.0264751133 0.0040427942 0.1400000006
0.0182174263 -0.0014261602 0.1400000006
0.0411379659 -0.0098967774 0.1400000006
-0.0091177808 -0.0026732858 0.1400000006
0.0365108889 0.0358130046 0.1400000006
0.0324332934 0.0247118745 0.1400000006
-0.0308634874 0.0077835073 0.1400000006
0.0363052499 0.0232887029 0.1400000006
0.0351363268 0.0043988222 0.1400000006
0.0210867750 0.0163563695 0.1400000006
0.0435784965 0.0092800027 0.1400000006
0.0500244195 0.0078416087 0.1400000006
-0.0365971359 0.0053090370 0.1400000006
0.0135623940 0.0237832182 0.1400000006
0.0215214325 0.0200841654 0.1400000006
0.0413662955 0.0164370904 0.1400000006
-0.0118763858 0.0067944603 0.1400000006
-0.0160475821 0.0169194960 0.1400000006
-0.0142543594 0.0095859849 0.1400000006
0.0602021992 0.0054309952 0.0944515345
0.0713810886 0.0003554700 0.0022293237
0.0685595981 0.0043742470 0.0243472289
0.0676617072 0.0007405386 0.0334646467
0.0642421205 0.0014154438 0.0620465185
0.0653161772 0.0060253878 0.0510288501
0.0256188641 -0.0681763530 0.0420110319
0.0294478604 -0.0558722399 0.0941280434
0.0451463112 -0.0540758937 0.0121232602
0.0171252556 -0.0796088852 0.0228021608
0.0379423615 -0.0418861942 0.1288513214
0.0380711837 -0.0527798520 0.0618795488
0.0406624232 -0.0444515331 0.0971591154
0.0330688115 -0.0565754738 0.0684207380
0.0358283463 -0.0519726266 0.0800615342
0.0350643429 -0.0581893706 0.0467998410
0.0501739144 -0.0479563965 0.0195567250
0.0238346445 -0.0663681893 0.0635618391
0.0429843320 -0.0439028054 0.0867502739
0.0299332333 -0.0634190768 0.0453870066
0.0080901503 -0.0907237646 0.0087291519
0.0296171498 -0.0573952861 0.0838692436
0.0406121773 -0.0515012601 0.0546098490
0.0320490964 -0.0557442042 0.0795089285
0.0238515460 -0.0663614327 0.0635028603
0.0259341547 -0.0618122571 0.0788243265
0.0325373245 -0.0566221010 0.0712833361
0.0218010682 -0.0713457132 0.0453467327
0.0426544686 -0.0541363808 0.0265053967
0.0227316693 -0.0690622214 0.0537168595
0.0394046480 -0.0479887650 0.0831056497
0.0309174988 -0.0670735567 0.0173498010
0.0411137683 -0.0507419195 0.0562559260
0.0476856211 -0.0490296701 0.0277623596
0.0259385367 -0.0727212590 0.0124958850
0.0469580452 -0.0533587815 0.0057576587
0.0468349904 -0.0522582838 0.0131746288
0.0243283692 -0.0675339635 0.0535540556
0.0470264467 -0.0529986051 0.0075418474
0.0271324770 -0.0697800902 0.0233044641
0.0453266308 -0.0543205069 0.0095692034
0.0423809750 -0.0581233304 0.0038924663
0.0370028918 -0.0431825572 0.1265332414
-0.0289474046 -0.0398511965 0.1400006859
-0.0242860659 -0.0359123179 0.1400003004
-0.0162446145 -0.0455461321 0.1400003493
-0.0366742105 -0.0217520899 0.1400002548
-0.0172393975 -0.0474062504 0.1400004758
-0.0210779484 -0.0423943761 0.1400004346
0.0406693627 0.0465586514 0.0007687117
0.0580940607 0.0248478255 0.0010960541
0.0087794250 0.0855596983 0.0001697954
0.0181560146 0.0752086941 0.0003463265
0.0143380258 0.0812579540 0.0002774222
0.0578088335 0.0417740015 0.0011073739
0.0439269498 -0.0449601030 0.0008269247
0.0372842886 -0.0521268134 0.0007004087
0.0494621291 0.0162576908 0.1400000006
0.0608272047 0.0241497124 0.0515870684
0.0598244329 0.0223110918 0.0654256268
0.0624789296 0.0258145422 0.0332228862
0.0630270746 0.0261849979 0.0277198927
0.0538809590 0.0215849804 0.1144035429
0.0588794763 0.0211292109 0.0766771625
0.0672280193 0.0214868099 0.0100317069
0.0596832350 0.0215906856 0.0688735119
-0.0346738247 0.0337521813 0.1400000006
-0.0012697072 0.0282406478 0.1400000006
-0.0296698564 0.0142885100 0.1400000006
0.0294020794 0.0401562659 0.1400000006
-0.0461168077 0.0254209217 0.1400000006
-0.0226678028 0.0375676592 0.1400000006
-0.0239454871 0.0368124443 0.1400000006
-0.0303341961 0.0352748244 0.1400000006
-0.0301212623 0.0350371212 0.1400000006
0.0184640340 -0.0182271462 0.1400000006
0.0291295097 -0.0200974198 0.1400000006
0.0425754379 -0.0181738996 0.1400000006
-0.0115486614 -0.0094556855 0.1400000006
-0.0444288805 0.0013840094 0.1400000006
-0.0160680184 -0.0047145230 0.1400000006
-0.0259159990 -0.0099796358 0.1400008211
0.0049135144 -0.0274366323 0.1400011138
-0.0045310748 -0.0197874973 0.1400014402
0.0247358650 -0.0370494640 0.1400015933
-0.0151972771 -0.0186790123 0.1400004473
0.0252735451 -0.0358097237 0.1400018776
-0.1059654330 0.0035332086 0.0805449077
-0.1064839938 -0.0007182698 0.0799115652
-0.1184992142 0.0017076597 0.0659203754
-0.1085410123 0.0033977281 0.0775413208
-0.1039079480 0.0047132552 0.0829515625
-0.0588156962 0.0008478585 0.1354549792
-0.1124655975 -0.0054757435 0.0728906749
-0.0782049882 -0.0026022399 0.1128135315
-0.0694993467 -0.0034862325 0.1229157477
0.0066147344 -0.0461791145 0.1399991665
0.0253199872 -0.0479343886 0.1399998766
0.0110746364 -0.0435450277 0.1399995566
-0.0321123132 -0.0146936165 0.1399997106
0.0182948113 -0.0453670130 0.1399997479
-0.0357769146 -0.0150502351 0.1399998928
-0.0214043734 -0.0320106310 0.1399999976
0.0025275284 -0.0529858543 0.1399997370
-0.0998592420 -0.0531850709 0.0620089057
-0.0661595607 -0.0479368089 0.1023003789
-0.0874136295 -0.0514299234 0.0766283028
-0.0536518975 -0.0596215237 0.0978482241
-0.0648443750 -0.0565330851 0.0913442344
-0.0912890595 -0.0550023778 0.0677685056
-0.0814694441 -0.0548161682 0.0775969963
-0.0449251011 -0.0530692158 0.1156747099
-0.0602217753 -0.0668446395 0.0811674700
-0.0649345321 -0.0671550416 0.0761358060
-0.0720809922 -0.0494701173 0.0943507374
-0.0794696516 -0.0552530053 0.0789227646
-0.0423932109 -0.0542576372 0.1164487939
-0.0875275167 -0.0540393765 0.0728027645
-0.0703721624 -0.0580984133 0.0837323855
-0.0495791414 -0.0471140535 0.1196194199
-0.0480596423 -0.0579160325 0.1057223844
-0.0860201159 -0.0598712477 0.0659690205
-0.0807291435 -0.0500690936 0.0850755626
-0.0615282295 -0.0581986198 0.0922029292
0.0401869515 -0.0270485023 0.1400003137
0.0138590591 -0.0198734446 0.1400005194
-0.0297364594 -0.0069147091 0.1400006110
-0.0002375402 -0.0142932716 0.1400002280
-0.0103769681 -0.0146881075 0.1400010366
0.0070053828 -0.0173535047 0.1400004223
0.0447562084 -0.0319930717 0.1378235148
0.0463267446 -0.0398654863 0.0886589597
0.0447706107 -0.0408234776 0.0941667139
0.0493249985 -0.0393422667 0.0715224807
0.0426838581 -0.0389629692 0.1170682121
0.0512840158 -0.0412162209 0.0493946861
0.0492083690 -0.0403261742 0.0674356747
0.0451844219 -0.0325523997 0.1322481526
0.0568672952 -0.0418043393 0.0082802632
0.0585240805 -0.0373122137 0.0184282604
0.0576074608 -0.0356383531 0.0328204860
0.0563610385 -0.0387609622 0.0264216668
0.0521228422 -0.0373464742 0.0625424010
0.0573773993 -0.0407687537 0.0097332056
0.0563665664 -0.0395339418 0.0226651794
0.0547147564 -0.0282692813 0.0838094547
0.0582018607 -0.0301434313 0.0505923505
0.0558271473 -0.0266514421 0.0811850349
0.0604246873 -0.0262479097 0.0477324136
0.0592620853 -0.0321909407 0.0351763695
0.0594115639 -0.0314173134 0.0368249730
0.0607955563 -0.0305504931 0.0294364555
0.0560197864 -0.0271131012 0.0780615108
0.0489913984 -0.0274524095 0.1301533215
0.0546385519 -0.0175009142 0.1211212468
0.0526394858 -0.0204754629 0.1261712660
0.0556019927 -0.0208123475 0.1026521156
0.0529013785 -0.0268681812 0.1025891645
0.0480535483 -0.0276661179 0.1365162366
0.0610517516 -0.0249894251 0.0473650904
0.0551322656 0.0320538824 0.0666627480
0.0615157019 0.0331943314 0.0153458319
0.0538660635 0.0315051582 0.0782622495
0.0569670037 0.0322309589 0.0525769346
0.0544124623 0.0320057348 0.0720949737
0.0554982068 0.0348004345 0.0519123151
0.0603710547 -0.0000639552 0.0942881329
0.0693603849 -0.0014556534 0.0196752718
0.0636491964 -0.0012340391 0.0670924933
0.0582412459 -0.0015560301 0.1120028770
0.0603663876 0.0020771193 0.0942834071
-0.0402276394 0.0570331166 0.1083486372
-0.0150437844 0.0534154778 0.1377957019
-0.0446051673 0.0572940883 0.1042384059
-0.0257474314 0.0548499790 0.1255626276
-0.0844870803 0.0615488617 0.0616461870
-0.0314071364 0.0523042791 0.1281514689
-0.0209980938 0.0549222265 0.1290478115
-0.0497692996 0.0568194240 0.1015346127
-0.0126793196 0.0373923741 0.1399998518
-0.0001725065 0.0419566248 0.1399994780
-0.0441105178 0.0125699653 0.1399999866
-0.0326631435 0.0219360985 0.1399999571
-0.0101506334 0.0274716167 0.1399997919
0.0205393561 0.0490766883 0.1399992199
-0.0185055366 0.0262208205 0.1399995626
-0.0085280180 0.0331146689 0.1399993874
-0.0016194311 0.0565584165 0.1339998306
-0.0007453996 0.0563904258 0.1346567195
0.0034026023 0.0559679990 0.1365797646
0.0008712593 0.0626795491 0.1148405197
0.0159812055 -0.0813469666 0.0003274574
-0.1375787053 0.0636883095 0.0021340183
0.0042060790 0.0804818196 0.0558540755
0.0046015207 0.0841515849 0.0422563016
0.0210623788 0.0791139764 0.0004640391
0.0137710100 0.0858885966 0.0037693316
0.0381880121 0.0626359624 0.0013347367
0.0376695797 0.0558737648 0.0453182341
0.0266578828 0.0685759446 0.0331756717
0.0212006699 0.0726045007 0.0407952923
0.0363122077 0.0526317118 0.0727503473
0.0489553742 0.0495521436 0.0174683418
0.0328655221 0.0601419405 0.0476828676
0.0309354956 0.0564129079 0.0813883790
0.0299503475 0.0579390273 0.0779570018
0.0401621760 0.0513130149 0.0582085641
0.0253482584 0.0616275479 0.0826303473
0.0386484364 0.0557464982 0.0403693503
0.0105737057 0.0883507933 0.0080899948
0.0364382733 0.0509033414 0.0824140850
0.0271435983 0.0720108101 0.0096722044
0.0280263701 0.0643884827 0.0503825544
0.0421622420 0.0566197316 0.0146011251
0.0364595926 0.0629044874 0.0100779226
0.0362579625 0.0542272074 0.0634668320
0.0354731875 0.0536089225 0.0717686824
0.0402113255 0.0540306449 0.0415694634
0.0410521746 0.0473359215 0.0769431075
0.0160710198 0.0831454898 0.0073168272
0.0370627591 0.0624596592 0.0092331415
0.0363246689 0.0504371850 0.0858822124
0.0408809532 0.0590712593 0.0073304009
0.0192782757 0.0746130773 0.0399326678
0.0193954990 0.0785479814 0.0155717262
0.0122933475 0.0838883403 0.0249014452
0.0295499452 0.0690003363 0.0137379508
0.0232687618 0.0709648152 0.0385876785
0.0299349189 0.0647327111 0.0371690255
0.0503455053 0.0495745463 0.0092178295
0.0164623047 0.0807403192 0.0195045420
0.0472730516 0.0490724537 0.0301762229
0.0266918683 0.0707356459 0.0199821939
0.0264192087 0.0724495004 0.0112616283
0.0519941444 0.0219167458 0.1280671220
0.0556752447 0.0295011794 0.0725554162
0.0495681462 0.0236749942 0.1393501977
0.0584643755 0.0315847989 0.0442115052
0.0539197344 0.0282069153 0.0903310241
0.0480010465 0.0274488221 0.1367599999
0.0598796177 -0.0066489793 0.0961590569
0.0661446661 -0.0061528804 0.0435638389
0.0625602665 -0.0076657608 0.0727417279
0.0607048478 -0.0039260339 0.0912059163
0.0650753122 -0.0065083828 0.0523398562
0.0572672357 -0.0050314643 0.1194456325
0.0634942340 -0.0196178712 0.0435602884
0.0628897723 -0.0213931884 0.0448066591
0.0630578093 -0.0157623875 0.0553010133
0.0646372524 -0.0217251096 0.0296724805
0.0666810522 -0.0171974452 0.0223456301
0.0615709218 -0.0176019819 0.0637003597
0.0584537295 -0.0155625776 0.0937512034
0.0563236526 -0.0156711366 0.1111160201
-0.0921741765 0.0765788557 0.0004227618
-0.0078584739 0.0931881540 0.0004101506
-0.1262424183 0.0698842763 0.0002379225
-0.1304207414 0.0690122416 0.0008019286
-0.0126923704 0.0917965094 0.0049639543
-0.0327631520 0.0876380074 0.0071971491
-0.0716945891 0.0800914316 0.0061799742
-0.0691379155 0.0806434494 0.0056660270
-0.0122125623 0.0923059316 0.0006906156
-0.0046114789 0.0655618425 0.1034547626
-0.0030303811 0.0669065419 0.0995429484
-0.0069910635 0.0631587710 0.1106432636
-0.0012485151 0.0893604264 0.0233023319
-0.0033392682 0.0736664872 0.0762150406
-0.0004271649 0.0708431576 0.0871926207
-0.0056964712 0.0616942547 0.1162417461
-0.0691568847 0.0538384297 0.0900357421
-0.0727836560 0.0542800377 0.0858765732
-0.0323666005 0.0500074818 0.1311603924
-0.0849531955 0.0595955752 0.0656193692
-0.0526246670 0.0522110710 0.1083609518
-0.0499487199 0.0505175380 0.1136777050
-0.0570199277 0.0512139031 0.1058390897
0.0200461281 0.0551805732 0.1258324726
0.0176503835 0.0570734931 0.1236294111
0.0240573225 0.0516257794 0.1309778594
0.0189926055 -0.0811391024 0.0020240238
0.0182244076 -0.0817215710 0.0031198882
0.0352722878 -0.0653596846 0.0017790646
-0.0814410359 -0.0090601322 0.1086790474
-0.0913404622 -0.0068037638 0.0973671085
-0.0963513968 -0.0104813858 0.0912228124
0.0092151994 -0.0655708044 0.1043598630
0.0026348141 -0.0553224635 0.1383495299
0.0056136217 -0.0555757930 0.1363826569
0.0041605738 -0.0655601794 0.1064146202
-0.1118516907 -0.0650851519 0.0323291003
-0.1011099157 -0.0670630931 0.0403076993
-0.0819952771 -0.0713905876 0.0533079583
-0.0903034092 -0.0647233849 0.0547519778
-0.1062343705 -0.0538746773 0.0546516000
-0.1062845671 -0.0588444797 0.0472340155
-0.0905914779 -0.0700491361 0.0465651731
-0.1055048339 -0.0670990301 0.0357905022
-0.1160149087 -0.0564620542 0.0408822876
-0.1083914369 -0.0640603793 0.0373626801
-0.1159814272 -0.0685352984 0.0230204611
-0.1049883648 -0.0546376736 0.0547862028
-0.0852167571 -0.0738900470 0.0461731372
-0.0412361806 -0.0636735327 0.1012020797
-0.0170752702 -0.0551117920 0.1336817387
-0.0391879290 -0.0638956945 0.1018762583
-0.0219206525 -0.0591140572 0.1221556566
-0.0537707609 -0.0417188414 0.1223261885
-0.0459438512 -0.0337378316 0.1371786731
-0.0764960626 -0.0438799303 0.0974051285
-0.1055803602 -0.0460228071 0.0660503128
-0.0551411119 -0.0353585201 0.1264464240
-0.0580844741 -0.0375659464 0.1215488093
-0.0925327144 -0.0223455617 0.0932611581
-0.0991032946 -0.0249489281 0.0851039915
-0.0943704394 -0.0239040729 0.0907491875
-0.1153369653 -0.0246821106 0.0668098524
-0.0656031002 -0.0338508735 0.1171271231
-0.0988442982 -0.0409192055 0.0772666638
-0.1026245737 -0.0433677735 0.0713277774
-0.1527204614 -0.0200985648 0.0025923599
0.0526200250 0.0193022011 0.1306932737
0.0532707669 0.0165011564 0.1327756019
0.0613218372 0.0190381816 0.0631062348
0.0540248040 0.0187135560 0.1211834061
0.0616920129 0.0185167508 0.0615402167
0.0555465378 0.0082087239 0.1295131492
0.0682800663 0.0090709665 0.0235932340
0.0663120307 0.0084618689 0.0405738929
0.0558873913 0.0120114846 0.1218311576
0.0599614955 0.0067484556 0.0950445544
0.0641244709 0.0123250856 0.0528161065
0.0691158047 0.0116717584 0.0123445921
0.0628012434 0.0133529429 0.0621262057
0.0612374644 0.0128014931 0.0760613984
0.0688397532 0.0091654758 0.0188044314
0.0674019804 0.0164677676 0.0186499119
0.0687017360 0.0186268307 0.0042435609
0.0486382081 0.0395234599 0.0748326815
0.0430609143 0.0397955761 0.1091355614
0.0445513621 0.0402680365 0.0971051165
0.0456137126 0.0331473426 0.1276998866
0.0465968808 0.0403074638 0.0837929651
0.0433411513 0.0362561746 0.1259306233
0.0486551289 0.0431725257 0.0555578102
0.0540277493 0.0423034557 0.0253070865
0.0553845549 0.0413645386 0.0213642704
0.0541588172 0.0443385726 0.0138384789
0.0512107466 0.0408247889 0.0513730165
0.0468785710 0.0307483294 0.1321546745
0.0579946000 -0.0086141376 0.1085369832
0.0561864487 -0.0110838362 0.1194147165
0.0630097492 -0.0116666166 0.0632187166
0.0682289835 -0.0120058626 0.0203965956
0.0591828341 -0.0146037032 0.0897440901
0.0556497874 -0.0067418071 0.1304062896
0.0554947655 -0.0122951972 0.1231680184
-0.0537511747 0.0557034373 0.1013326368
-0.1288294324 0.0667761757 0.0119633974
-0.0839929849 0.0598614944 0.0660049354
-0.0615731062 0.0672569564 0.0589047188
-0.0316032504 0.0765572651 0.0471983038
-0.0185494801 0.0779303388 0.0514070666
-0.0483067494 0.0603418606 0.0920682357
-0.0933641650 0.0703830145 0.0261658253
-0.0601864453 0.0658888708 0.0646140510
-0.0255648558 0.0846208217 0.0233251274
-0.0511397899 0.0652499613 0.0730591680
-0.0063703788 0.0719827499 0.0804596049
-0.0121217919 0.0644740855 0.1026015074
-0.0462162546 0.0689142228 0.0637102547
-0.0276223556 0.0876513448 0.0113758446
-0.0326000935 0.0658605916 0.0836925500
-0.0073294773 0.0744861094 0.0710983990
-0.0867719513 0.0692172330 0.0347535474
-0.0711897343 0.0696974839 0.0438052784
-0.0504181124 0.0652102826 0.0736936206
-0.0862454169 0.0687970306 0.0365763817
-0.0094279770 0.0558082067 0.1345762812
-0.0283140811 0.0805321049 0.0356453741
-0.0812661283 0.0658208036 0.0503472138
-0.0211140750 0.0761843887 0.0557112237
-0.0678043392 0.0618310369 0.0734771690
-0.0519732682 0.0744862058 0.0403818501
-0.0395931884 0.0623788321 0.0909831959
-0.0074289525 0.0716588832 0.0808569898
-0.0424304154 0.0605939766 0.0952350036
-0.0697320265 0.0750970704 0.0260400352
-0.0316663322 0.0644813018 0.0891292180
-0.0544040546 0.0687234769 0.0587398181
-0.0129927438 0.0811983835 0.0438710065
-0.0189980879 0.0675613100 0.0871396684
-0.0058092450 0.0793954765 0.0550801067
-0.0849007167 0.0754204091 0.0144796606
-0.0116473178 0.0735849435 0.0712599238
-0.0078789573 0.0711820279 0.0822048543
-0.0571833649 0.0735018289 0.0402187066
-0.0650235101 0.0655139792 0.0625890803
-0.0092566358 0.0835101327 0.0384062480
-0.0599312168 0.0648919313 0.0682548742
-0.0125376316 0.0909849472 0.0101674453
-0.0492596547 0.0654387761 0.0736964622
-0.0719994486 0.0684320485 0.0476466437
-0.0612998388 0.0688980789 0.0533884285
-0.0515391840 0.0737589410 0.0432083805
-0.0231240835 0.0890089436 0.0097519666
-0.0420498916 0.0614578181 0.0924942257
-0.0560086335 0.0808443082 0.0155055505
-0.0156936501 0.0872118654 0.0211107048
-0.0165834043 0.0646384710 0.0989604091
-0.0817042419 0.0646658499 0.0540602321
-0.0613261458 0.0620187001 0.0772820623
-0.0819680770 0.0727900421 0.0256401795
-0.0350124320 0.0839485097 0.0191617828
-0.0371004594 0.0837089900 0.0185576961
-0.0185817462 0.0661637023 0.0922840072
-0.1118637923 0.0709742400 0.0113825338
-0.1035088918 0.0722199960 0.0128008770
-0.0348022033 0.0574869012 0.1112831814
-0.0345986517 0.0782542140 0.0392390305
-0.0244898835 0.0617337822 0.1036168053
-0.0549142806 0.0807790852 0.0164852029
-0.0468265414 0.0602871024 0.0932769930
-0.0948400919 0.0671616191 0.0363474534
-0.0322424016 0.0828817424 0.0247755738
-0.0613231773 0.0805668142 0.0128135207
-0.0797437404 0.0707146554 0.0343843336
-0.0639199777 0.0741208818 0.0334319836
-0.0720500181 0.0634969385 0.0647655846
-0.1162845281 0.0696388007 0.0129827358
-0.0551067621 0.0706230131 0.0516538195
-0.0538227513 0.0769291637 0.0306179813
-0.0550884182 0.0792695287 0.0216123930
-0.0619901685 0.0726511797 0.0398682215
-0.1170829727 0.0562608786 0.0400941261
-0.1225035882 0.0643882217 0.0221830469
-0.0843540328 0.0535789778 0.0758472637
-0.1071839681 0.0541233548 0.0529776178
-0.1015777116 0.0488431699 0.0666247569
-0.1122628342 0.0539916437 0.0482844374
-0.0966529074 0.0569776104 0.0586810639
-0.0852525597 0.0522022640 0.0771289730
-0.1077234072 0.0500187920 0.0588624918
-0.0626499970 0.0472739516 0.1066204518
-0.1128197247 0.0521779020 0.0505776479
-0.1089849293 0.0493582454 0.0586765010
0.0078253750 0.0846908756 0.0353915809
0.0111682915 0.0810732462 0.0420054107
0.0199655077 0.0619201614 0.0996691105
0.0125562144 0.0715673230 0.0784065429
0.0156990040 0.0708941491 0.0730293279
0.0193503576 0.0685758668 0.0732505220
0.0251545085 0.0561674469 0.1103343181
0.0215554647 0.0637129167 0.0879657429
0.0059373441 -0.0924750024 0.0049968371
0.0042626855 -0.0925355250 0.0101524868
0.0230120809 -0.0545952060 0.1229592799
0.0168032233 -0.0675042764 0.0845811454
0.0110262213 -0.0834469724 0.0322282617
0.0211335450 -0.0587376765 0.1103454668
0.0175382728 -0.0683456899 0.0790925324
0.0196956129 -0.0643637186 0.0902961582
-0.0333693110 -0.0506557062 0.1300709006
-0.0256192242 -0.0492410800 0.1387190936
-0.0393765351 -0.0577840185 0.1133645001
-0.0238071829 -0.0520271044 0.1355723179
-0.0434453375 -0.0589919541 0.1080526204
-0.0286601493 -0.0567068538 0.1236035812
-0.0367278272 -0.0598506938 0.1120723579
-0.1126765361 -0.0708526173 0.0191592997
-0.1114608825 -0.0706053634 0.0240053684
-0.0420872782 -0.0845278559 0.0227421571
-0.0264653728 -0.0887377938 0.0100003758
-0.0801523789 -0.0756701345 0.0378240175
-0.0717012605 -0.0799312404 0.0083168719
-0.0806238642 -0.0764219428 0.0281890970
-0.0515039097 -0.0844431812 0.0024573514
-0.0663227666 -0.0788824167 0.0324113450
-0.0485880697 -0.0838830705 0.0154229138
-0.0485789749 -0.0822558548 0.0339943974
-0.1154599968 -0.0709551436 0.0118996648
-0.0646787642 -0.0796585938 0.0272725463
-0.0354845493 -0.0860393739 0.0204103125
-0.0422578343 -0.0845617691 0.0219706453
-0.0994446488 -0.0741904060 0.0111574708
-0.0494606589 -0.0825072953 0.0291382069
-0.0738149241 -0.0775400667 0.0308074633
-0.1148971838 -0.0710809265 0.0117357631
-0.1241132717 -0.0697213033 0.0064384786
-0.0066264252 -0.0931990099 0.0039103441
-0.0747499806 -0.0758444076 0.0480286033
-0.0720106291 -0.0780880002 0.0286324653
-0.0150860979 -0.0910194228 0.0096679731
-0.1070725445 -0.0729637247 0.0079286001
-0.0526006043 -0.0821523696 0.0260987247
-0.0571348052 -0.0805400407 0.0342478197
-0.0913827084 -0.0757332282 0.0117616889
-0.1072179711 -0.0733433727 0.0032722716
-0.0835522580 -0.0767312714 0.0180542286
-0.0990580781 -0.0740583013 0.0135358800
-0.0637027784 -0.0817048959 0.0061462884
-0.1126614223 -0.0714946019 0.0120650379
-0.0161177120 -0.0905496281 0.0126169613
-0.0397799335 -0.0839029760 0.0345674061
-0.0440832804 -0.0449873886 0.1276910825
-0.0485866477 -0.0431954565 0.1255427631
-0.0378758828 -0.0467315107 0.1315618329
-0.0498733914 -0.0432851181 0.1241750127
-0.0464837939 -0.0154865544 0.1400001695
-0.0374545857 -0.0368838012 0.1400002649
-0.1194377702 -0.0412434840 0.0535189430
-0.1226895621 -0.0408725380 0.0487867954
-0.1479291708 -0.0427554883 0.0042320096
0.0322408437 0.0490182340 0.1172882262
0.0292432021 0.0521655486 0.1142559341
0.0128571403 0.0821934688 0.0317166874
0.0097770421 0.0868918174 0.0210679535
0.0293119930 0.0500453266 0.1248602007
-0.1525337897 -0.0237619187 0.0012591250
-0.0541271005 0.0129816584 0.1390898993
-0.1018084237 0.0174442237 0.0837843874
-0.0840406980 0.0134243620 0.1048555143
-0.1035276390 0.0143224630 0.0824342300
-0.0943057828 0.0164035202 0.0925530993
-0.1144728494 0.0174672424 0.0693229351
-0.0365871461 0.0381948401 0.1400000006
-0.1268417050 0.0582128974 0.0267961765
-0.1179822233 0.0489989152 0.0487304012
0.0060567524 0.0804388672 0.0552711812
0.0113264558 0.0576240272 0.1270446470
0.0101000405 0.0582995620 0.1258268472
0.0092000326 0.0657672217 0.1032430953
0.0118677466 0.0610043118 0.1161382838
0.0156509563 -0.0779410124 0.0415242676
0.0190060101 -0.0670529189 0.0805025908
0.0230340644 -0.0655535631 0.0728761501
0.0315882852 -0.0516140774 0.1072594896
0.0286773438 -0.0479657103 0.1350236113
0.0310032195 -0.0521510731 0.1068660254
0.0198012089 -0.0661112809 0.0820332832
0.0328169117 -0.0437874093 0.1395891286
0.0360075941 -0.0412957628 0.1396803647
0.0128733910 -0.0676477236 0.0936349266
0.0159546637 -0.0561935468 0.1278544702
0.0175215446 -0.0611745487 0.1088796755
0.0116503071 -0.0655585806 0.1023903926
-0.0456343807 -0.0821286721 0.0411857709
-0.0385246453 -0.0839389208 0.0362346231
-0.0404249995 -0.0834943924 0.0372143841
-0.1369610713 -0.0481410595 0.0211490175
-0.1289293228 -0.0460629243 0.0351500162
-0.1143839749 -0.0455025874 0.0569312063
-0.1269115226 -0.0589458422 0.0258810189
-0.0510298861 -0.0249488753 0.1374594329
-0.0770264920 -0.0286681073 0.1076961046
-0.0740696787 -0.0293689683 0.1105370759
-0.0776660096 -0.0250505059 0.1087601337
-0.0582817178 -0.0308128412 0.1268195393
-0.0531266726 -0.0185030727 0.1383256255
-0.0507688305 -0.0268673349 0.1368111720
-0.0653107234 -0.0186240510 0.1250806970
-0.1009687446 -0.0274379885 0.0822329441
-0.1509564873 0.0318036922 0.0018988274
-0.1379276055 0.0039158208 0.0345963919
-0.1477759302 0.0088840458 0.0172641929
-0.1451991315 0.0031512043 0.0219852531
-0.1532356804 0.0038797643 0.0065527832
-0.1436953745 0.0534531850 0.0030340975
-0.1065386087 0.0389804164 0.0706978641
-0.0972963593 0.0382736232 0.0808236605
-0.0810572704 0.0411884969 0.0953976441
-0.0561036572 0.0298885305 0.1296306256
-0.0606253611 0.0376561440 0.1190597508
-0.0699211414 0.0357501657 0.1109768726
-0.0661056096 0.0385022394 0.1127904896
-0.0911184853 0.0466527386 0.0796817244
-0.0438182654 0.0444587749 0.1287205203
-0.0608924434 0.0455262314 0.1107023900
-0.0632019286 0.0437251020 0.1104994289
-0.0732120104 0.0432522298 0.1011976574
-0.0816597587 0.0417948827 0.0943023751
-0.1005284748 0.0440312911 0.0731053191
-0.1351943226 -0.0219047191 0.0366319910
-0.1347581595 -0.0220603761 0.0373331460
0.0067005116 -0.0740518249 0.0790621785
-0.0104506476 -0.0769760039 0.0667991630
-0.0040511933 -0.0769747400 0.0675134614
-0.0058096856 -0.0789615232 0.0602436730
0.0031608611 -0.0767319691 0.0691778732
-0.0065775919 -0.0874915187 0.0297840030
-0.0077430641 -0.0879422555 0.0280497037
-0.0076330438 -0.0777597142 0.0643209611
-0.0179604945 -0.0767005575 0.0669470439
-0.0151189202 -0.0776581631 0.0638522761
-0.1266747617 -0.0513757514 0.0340641045
-0.1294277314 -0.0535031987 0.0280728078
-0.1414425041 -0.0382506134 0.0199821361
-0.1468055553 -0.0379392638 0.0113859988
-0.1439386065 -0.0472303617 0.0109152340
-0.1186295836 -0.0357516275 0.0586746097
-0.1429957146 -0.0366014949 0.0183602892
-0.1297159129 -0.0305384879 0.0430247987
-0.1290369790 -0.0293826899 0.0446171757
-0.1329452451 -0.0016512606 0.0432857813
-0.1345747233 -0.0023836811 0.0404690244
-0.1240717079 0.0028928784 0.0586260195
-0.1237899666 -0.0106937253 0.0584018953
-0.1277552599 -0.0128527997 0.0512540228
-0.1168481556 0.0434021762 0.0555947671
-0.1216178863 0.0406841945 0.0506048807
-0.1436394154 0.0530763383 0.0050111040
-0.1136890014 -0.0139070151 0.0707482628
-0.0884569758 -0.0144056919 0.0997082238
-0.1112918180 -0.0153611988 0.0732619098
-0.1180383142 -0.0172799108 0.0651719056
-0.0546721015 -0.0127155028 0.1385707512
-0.0862350352 -0.0154048932 0.1020430407
-0.0724924432 -0.0113382370 0.1185609194
-0.0530398283 -0.0147732306 0.1399942641
-0.0492351594 -0.0767124435 0.0614494066
-0.0364643414 -0.0840822630 0.0368827973
-0.0070957480 -0.0912793505 0.0160069696
-0.0187057251 -0.0801600378 0.0544839566
-0.0254631518 -0.0867433835 0.0291901753
-0.0217322736 -0.0825087507 0.0453464890
-0.0460253203 -0.0788996516 0.0540515776
-0.0302247318 -0.0768674535 0.0643877674
-0.0296093299 -0.0820183968 0.0456855403
-0.0091363060 -0.0887597601 0.0248345028
-0.0431434042 -0.0768896453 0.0619251342
-0.0366465971 -0.0786753311 0.0565999660
-0.0328297531 -0.0675224712 0.0940383277
-0.0244112280 -0.0668487145 0.0977897718
-0.0161396178 -0.0649931795 0.1052784737
-0.0113037258 -0.0608703559 0.1193360485
-0.0397012064 -0.0712446959 0.0808690708
-0.0089982633 -0.0595463380 0.1239939826
-0.0072201286 -0.0603817132 0.1216713518
-0.0531535308 -0.0758487358 0.0636357792
-0.0168374658 -0.0618639469 0.1151154948
-0.0288592644 -0.0645985975 0.1041109595
-0.0303221888 -0.0749190269 0.0709501662
-0.0209255881 -0.0666913414 0.0989556306
-0.0318002515 -0.0757826134 0.0679169363
-0.0234162694 -0.0622655343 0.1124874155
-0.0200829384 -0.0601974168 0.1195314572
-0.0306238671 -0.0627999147 0.1090816539
0.0022767766 -0.0915266752 0.0153676353
0.0008708741 -0.0937427808 0.0066075537
-0.0110779574 -0.0733945781 0.0789816163
-0.0026707130 -0.0677262081 0.0985338730
-0.0003034698 -0.0666644187 0.1023045823
-0.0088074121 -0.0681159560 0.0964303921
-0.0067127354 -0.0617468280 0.1173958210
-0.0103930690 -0.0685580721 0.0947783823
0.0006736369 -0.0565709891 0.1352095082
-0.0104140418 -0.0680748159 0.0963445612
-0.0833474896 -0.0342547863 0.0981184149
-0.0926360845 -0.0343652755 0.0881426193
-0.1312731576 -0.0572986505 0.0217828579
-0.1398004596 -0.0153980880 0.0301153077
-0.1403951122 -0.0208513571 0.0280542934
-0.1321798311 -0.0145428061 0.0433845149
-0.1482271175 -0.0039630966 0.0167826718
-0.1522030800 -0.0057120772 0.0097349614
-0.1432055551 -0.0058105544 0.0253645511
-0.1494191543 -0.0360932782 0.0078919597
-0.1468618443 -0.0285746692 0.0147832199
-0.1476260588 -0.0319609963 0.0123363002
-0.1504651980 0.0312325463 0.0073595200
-0.1433621536 0.0469553473 0.0119558263
-0.1425349899 0.0483977711 0.0121970790
-0.0874144656 0.0220441279 0.0991601035
-0.0745965560 0.0177795887 0.1147431075
-0.0969401642 0.0186936518 0.0890540982
-0.1011806200 0.0249827797 0.0827955344
-0.0765741868 0.0183394081 0.1123610570
-0.1109082092 0.0144516986 0.0738512763
-0.1190395645 0.0127742828 0.0645722469
-0.0860522211 0.0063154631 0.1035759630
-0.1046611948 0.0108551890 0.0814810864
-0.0883770353 0.0052907207 0.1009789377
-0.1307415268 0.0551765961 0.0244774734
-0.1338575909 0.0616179973 0.0139132894
-0.1328210977 0.0599117094 0.0170178580
-0.0860906996 0.0307574129 0.0969414362
-0.0838534811 0.0286058863 0.1003753670
-0.0574121706 0.0245922697 0.1308973464
-0.0755836852 0.0244942119 0.1112636719
-0.0679283835 0.0302056853 0.1168704891
-0.0703766816 0.0276812911 0.1154052187
-0.1123938978 0.0346511978 0.0667543143
-0.0917512811 0.0291552895 0.0916106050
-0.1166623973 0.0322471621 0.0629290595
-0.1064774778 0.0310811175 0.0746899094
-0.0885497436 0.0247014128 0.0969839881
-0.1475334376 0.0139065290 0.0169928416
-0.1335452641 0.0103186567 0.0416259481
-0.1476916474 0.0188021534 0.0160047470
-0.1321050472 0.0179768012 0.0428400343
-0.1317151448 0.0176409302 0.0435636640
-0.1258742556 0.0131386196 0.0543155278
-0.1221254057 0.0308335046 0.0556067464
-0.1327665885 0.0390144890 0.0338060518
-0.1406710749 0.0271502512 0.0256586298
-0.1477785245 0.0251600808 0.0142424645
-0.1409178748 0.0296679004 0.0244599329
-0.1445805951 0.0261832276 0.0193394571
-0.1210352414 0.0234155738 0.0600931927
-0.1204018029 0.0276222906 0.0598355092
-0.1449860964 0.0393104886 0.0135584367
-0.1276320615 0.0341220835 0.0448253767
-0.1369354101 0.0369240563 0.0280526806
-0.0076883725 -0.0455873360 -0.0000250446
-0.1008002199 0.0133418191 -0.0000071454
-0.0201287077 -0.0523308218 -0.0000246718
-0.0414471812 -0.0006251694 -0.0000152961
-0.0073705424 -0.0177844380 -0.0000212381
-0.0018104551 -0.0730736651 -0.0000294568
-0.0433709736 0.0520998040 -0.0000078128
-0.0619246495 0.0530523445 -0.0000057363
-0.0893983588 0.0182224223 -0.0000076666
-0.0548345724 0.0477275225 -0.0000072149
-0.0760921997 -0.0187128013 -0.0000141624
-0.0088924515 0.0699165018 -0.0000089665
-0.1101052557 0.0360073098 -0.0000030397
-0.0039304251 0.0088488653 -0.0000179205
-0.0642081060 -0.0011537170 -0.0000129832
-0.0928832363 0.0472124845 -0.0000032975
-0.0424691528 0.0729738311 -0.0000050245
-0.0158910192 0.0714058891 -0.0000080272
-0.0690925732 -0.0353153229 -0.0000171891
-0.0493792172 0.0705599263 -0.0000046335
-0.0838566292 0.0334838115 -0.0000061398
-0.0517509064 -0.0212492631 -0.0000170644
-0.0996914706 -0.0144937865 -0.0000111059
-0.0039859135 -0.0677974446 -0.0000285001
-0.1126013014 0.0357865183 -0.0000028085
-0.0194820156 0.0163827549 -0.0000152498
-0.1329491125 0.0251206492 -0.0000021486
-0.0632014505 0.0289254987 -0.0000089346
-0.0149573231 -0.0754915782 -0.0000284126
-0.0832132510 0.0283439021 -0.0000069171
-0.0164910398 -0.0454883044 -0.0000241081
-0.0878313823 -0.0118319232 -0.0000119815
-0.0899185665 -0.0192139216 -0.0000127823
-0.1358855552 0.0311651987 -0.0000010060
-0.0670692643 -0.0207798540 -0.0000153937
-0.0675441713 0.0024307292 -0.0000121384
-0.0136290680 0.0628957207 -0.0000094396
-0.0137136962 -0.0181859178 -0.0000206286
-0.0008073045 0.0563165788 -0.0000116923
-0.0228432715 -0.0009464185 -0.0000172907
-0.1051439511 0.0365383281 -0.0000034865
-0.0136607407 0.0676263208 -0.0000087829
-0.0114992229 -0.0517058357 -0.0000254901
-0.0447250072 -0.0186274473 -0.0000174388
-0.0338861691 -0.0448256933 -0.0000221931
-0.0064535938 0.0326830064 -0.0000143643
-0.0607872037 0.0091457954 -0.0000119193
-0.0397988030 0.0371636824 -0.0000102500
-0.0331160838 -0.0402115994 -0.0000216366
-0.0132562950 0.0856782009 -0.0000063322
-0.0536154649 -0.0374088488 -0.0000191007
-0.1222810880 0.0077806947 -0.0000056616
-0.0518652966 0.0286237983 -0.0000101646
-0.0122001421 -0.0167106045 -0.0000205835
-0.0828896296 0.0383627387 -0.0000055673
-0.0675561933 0.0107665252 -0.0000109859
-0.0168871551 -0.0061780542 -0.0000186376
-0.0640354622 0.0019346291 -0.0000125748
-0.0025944787 -0.0893130004 -0.0000316174
-0.1338430955 0.0209632087 -0.0000026290
-0.0042527074 0.0045186932 -0.0000184847
-0.0247076966 -0.0609731001 -0.0000253854
-0.0441284233 0.0098108631 -0.0000135738
-0.0376830870 0.0160482427 -0.0000133880
-0.0452126973 0.0243613650 -0.0000114506
-0.0185319020 0.0710439440 -0.0000078003
-0.0585135387 0.0666410140 -0.0000042172
-0.0020493470 -0.0566525482 -0.0000271639
-0.0087177896 0.0636779409 -0.0000098464
-0.0133291215 -0.0610577963 -0.0000265898
-0.0689461041 -0.0052909673 -0.0000130579
-0.0186998048 -0.0162789169 -0.0000198426
-0.0146572428 0.0715942282 -0.0000081305
-0.0026421603 -0.0398276014 -0.0000247781
-0.0448804647 -0.0221720974 -0.0000179120
-0.0491609221 0.0017122564 -0.0000141647
-0.0650339642 -0.0124976236 -0.0000144633
-0.0190201924 -0.0060780494 -0.0000184002
-0.0065508434 0.0666594572 -0.0000096618
-0.0318510731 -0.0300728300 -0.0000203690
-0.1178778998 0.0317631589 -0.0000028111
-0.0601352470 0.0460020933 -0.0000068976
-0.0500267366 -0.0196723168 -0.0000170273
-0.0366486719 -0.0361008741 -0.0000206986
-0.0340344300 0.0174950341 -0.0000135707
-0.0553289655 0.0147591734 -0.0000117163
-0.0810378216 0.0412671577 -0.0000053604
-0.1110044419 0.0316515127 -0.0000035470
-0.0910409297 0.0518886788 -0.0000028448
-0.0990717848 0.0130672307 -0.0000073645
-0.1021172897 0.0312652868 -0.0000045320
-0.0376319268 0.0648294479 -0.0000066564
-0.1037616221 0.0236132523 -0.0000054164
-0.0670830117 -0.0303137417 -0.0000167090
-0.1219374777 0.0051539416 -0.0000060604
-0.0029935953 -0.0803435468 -0.0000303368
-0.0386825488 -0.0597249408 -0.0000237480
-0.0558817679 -0.0119396137 -0.0000153456
-0.0697783141 0.0013530731 -0.0000120531
-0.0743715144 -0.0132245625 -0.0000135848
-0.0679948771 0.0063646601 -0.0000115479
-0.0491408116 0.0446811644 -0.0000082325
-0.1400432769 0.0175903779 -0.0000024449
-0.0725057832 0.0599947753 -0.0000036683
-0.1343168563 0.0282863902 -0.0000015680
-0.0707322285 -0.0368249795 -0.0000172257
-0.0329487041 -0.0297829576 -0.0000202139
-0.0318065356 0.0328796193 -0.0000116795
-0.0654026094 0.0513192173 -0.0000056111
-0.0112588037 0.0573235006 -0.0000104576
-0.0070978473 0.0198937662 -0.0000160631
-0.0932952334 0.0330298734 -0.0000052131
-0.0274611598 -0.0091812938 -0.0000179439
-0.1319800693 0.0210886233 -0.0000028070
-0.0717839821 0.0164256153 -0.0000097612
-0.0134930851 0.0579271208 -0.0000101400
-0.0486611385 0.0145199946 -0.0000124483
-0.1139217575 0.0101216862 -0.0000062146
-0.0029100631 0.0778041074 -0.0000085043
-0.0872599168 0.0659190484 -0.0000022470
-0.1165163758 0.0458749342 -0.0000013424
-0.1118035029 0.0692017388 -0.0000005076
-0.0670497416 0.0730940123 -0.0000031974
-0.1383028275 0.0537487638 0.0000004436
-0.0419897844 0.0838071676 -0.0000042872
-0.1071037478 0.0490434886 -0.0000017935
-0.0982630788 0.0685785446 -0.0000014093
-0.0499681009 0.0763537157 -0.0000041375
-0.0432132521 0.0767799999 -0.0000045513
-0.0342416652 0.0811259772 -0.0000049166
-0.0917945477 0.0712188838 -0.0000016967
-0.1162270465 0.0585779262 -0.0000007413
-0.1418093511 0.0461043609 0.0000002963
-0.1391249143 0.0426671736 -0.0000000442
-0.0943158162 0.0608731251 -0.0000020392
-0.1028849756 0.0724628624 -0.0000009224
-0.1184124410 0.0657839196 -0.0000002491
-0.1180823050 0.0698460548 -0.0000000722
-0.0461257010 0.0832449530 -0.0000040485
-0.1244992523 0.0393793175 -0.0000011457
-0.0922613634 0.0598450210 -0.0000022215
-0.0451843250 -0.0769023632 -0.0000221729
-0.0449693657 -0.0858369925 -0.0000217758
-0.1271495171 -0.0563106269 -0.0000023010
-0.0931083484 -0.0729214189 -0.0000101464
-0.1328830493 -0.0068874979 -0.0000033383
-0.1327422492 -0.0099973386 -0.0000032169
-0.1271755891 -0.0448629621 -0.0000028735
-0.0697710007 -0.0790521530 -0.0000157908
-0.1360213950 -0.0406279741 -0.0000008307
-0.0640888764 -0.0792229976 -0.0000172320
-0.0977358107 -0.0275249361 -0.0000112622
-0.0841137330 -0.0382743298 -0.0000141941
-0.1330632919 0.0060549774 -0.0000039470
-0.0734706867 -0.0534766352 -0.0000161406
-0.1316464711 -0.0483022224 -0.0000015587
-0.0520119457 -0.0719154826 -0.0000206831
-0.1405116202 -0.0023081935 -0.0000016235
-0.0295821893 -0.0754509015 -0.0000262272
-0.0981877579 -0.0348792604 -0.0000107748
-0.1208277709 -0.0287480320 -0.0000053083
-0.1210884375 -0.0228884866 -0.0000055382
-0.1106440447 -0.0651901089 -0.0000060632
-0.1235945868 -0.0317146955 -0.0000044523
-0.0606970875 -0.0705884310 -0.0000185342
-0.1197288297 -0.0024277522 -0.0000069202
-0.0658485167 -0.0466773809 -0.0000184294
-0.1144118510 -0.0359943496 -0.0000065788
-0.0825126434 -0.0700440517 -0.0000129955
-0.0474647800 -0.0813437079 -0.0000213664
-0.0719738024 -0.0437475300 -0.0000170147
-0.0694542710 -0.0651322177 -0.0000165758
-0.1367475327 -0.0258177646 -0.0000013946
-0.1148189926 -0.0144077980 -0.0000075669
-0.0547053693 -0.0657679560 -0.0000203069
-0.0457615708 -0.0703545923 -0.0000223569
-0.1105092771 -0.0348727095 -0.0000076313
-0.0905735575 -0.0305763339 -0.0000129353
-0.0826219343 -0.0400248383 -0.0000144862
-0.0997639327 -0.0262861983 -0.0000108074
-0.1324201232 -0.0025371475 -0.0000036765
-0.1227067020 -0.0135415070 -0.0000055982
-0.1301628726 -0.0090372163 -0.0000039236
-0.0854469465 -0.0667508791 -0.0000124134
-0.1349100337 -0.0452988320 -0.0000008780
-0.1324420839 -0.0594797527 -0.0000007903
-0.1238064896 -0.0529369797 -0.0000033247
-0.1214038748 -0.0651143802 -0.0000033217
-0.1307188655 -0.0337256838 -0.0000025328
-0.1394660854 -0.0113407634 -0.0000014333
-0.1477531226 -0.0261653582 -0.0000000416
-0.1528734028 0.0123607371 -0.0000000905
-0.1378189243 -0.0530199153 0.0000001229
-0.1368371614 -0.0609013141 0.0000002348
-0.1518897025 0.0147809309 -0.0000000157
-0.1465511838 -0.0255821228 -0.0000000215
-0.1433534960 -0.0440193872 0.0000000438
