0.1012204644 -0.0073788308 -0.0615928921
0.1125736127 -0.0027253463 -0.0492817181
0.0756509903 -0.0099225951 -0.0932599661
0.0532988817 -0.0177282460 -0.1181714483
0.0693268067 -0.0163676590 -0.0982051819
0.0861959852 -0.0063182712 -0.0814687586
0.0906225200 -0.0116660833 -0.0731132744
0.0792715363 -0.0139614510 -0.0865922669
0.0946728975 -0.0116213618 -0.0679191658
0.0737411905 -0.0190061398 -0.0912103011
0.0931716637 -0.0100580494 -0.0706285940
0.0888968305 -0.0098436632 -0.0762403946
0.0903148967 -0.0069575934 -0.0758468181
0.0939243389 -0.0090127660 -0.0701781507
0.1235377868 0.0932292170 -0.0174149745
0.0024069772 0.0589428251 -0.1114416481
0.0230801606 0.0723232500 -0.0871291790
0.0313997482 0.0763160904 -0.0802531366
0.0154891095 0.0671248315 -0.0966524637
0.0440024500 0.0789289363 -0.0770152267
0.0090630953 0.0580101604 -0.1145633951
-0.0077740024 0.0538923332 -0.1201994038
0.0503915641 0.0854083490 -0.0646036962
0.0092159134 0.0609532011 -0.1084413678
0.0397900878 0.0787200202 -0.0767093104
-0.0066312141 0.0564933330 -0.1149664877
0.0322587219 0.0705838366 -0.0923810530
0.0044456967 0.0546915041 -0.1206833431
0.0682882746 0.0901167273 -0.0555995170
0.0655728771 0.0867213130 -0.0613815008
0.0574314904 0.0817635167 -0.0705789436
0.0571365861 0.0809279973 -0.0719342620
0.0895879969 0.0998796956 -0.0365356509
0.0189848706 0.0603368710 -0.1109179782
0.0821962054 0.0928061000 -0.0488947147
0.0835636798 0.0981531609 -0.0403150623
0.0278751200 0.0658446911 -0.1007280594
0.1330305338 0.0677311873 -0.0129639949
0.1319572341 0.0790701599 -0.0058296065
0.0588914335 -0.0211433472 0.0071198703
0.0191482175 -0.0386185174 -0.0262043511
0.0819487047 -0.0113849599 0.0252881138
0.0570336191 -0.0209625380 0.0086213382
0.0169831325 -0.0395449028 -0.0279412320
0.1014774119 -0.0030507920 0.0408880281
0.1031718428 -0.0031081752 0.0398483083
0.0550948318 -0.0138225402 0.0256536864
0.0154550356 -0.0348441382 -0.0174429614
0.0116800059 -0.0389347610 -0.0259437413
0.0075818262 -0.0402500036 -0.0285930800
0.0433030245 -0.0203731064 0.0122079889
0.0178681631 -0.0336045418 -0.0149038490
0.0301857965 -0.0290448366 -0.0056641118
0.0511210735 -0.0173232482 0.0184004285
0.0808288311 -0.0019561162 0.0497464480
0.0569006387 -0.0144306931 0.0243145187
0.0321394194 -0.0294068378 -0.0065189629
0.0565914112 -0.0157180401 0.0215257069
0.0469608484 -0.0221677044 0.0081682996
0.1204139334 0.0952299992 -0.0198331948
-0.0166693397 -0.0151346135 -0.0129164932
0.0107659986 -0.0079723622 0.0109846258
-0.0147477749 -0.0142070713 -0.0110569833
-0.0055128775 -0.0137959682 -0.0038826252
0.0059795746 -0.0089582765 0.0069295990
-0.0197350516 -0.0189443996 -0.0168979085
-0.0272759392 -0.0243056956 -0.0255349217
-0.0030087824 -0.0169703545 -0.0039087850
-0.0157176912 -0.0189130873 -0.0138527068
-0.0192274040 -0.0229701316 -0.0191608664
0.0022172044 -0.0218792898 -0.0042281055
0.0300279739 -0.0072596449 0.0253288184
0.0053250995 -0.0183816771 0.0005488154
-0.0081773512 -0.0262438866 -0.0144057290
-0.0488662450 0.0245022685 -0.1064376151
-0.0401086916 0.0373806164 -0.1081635653
-0.0422465421 0.0344833557 -0.1126703812
0.1350718602 0.0082753152 -0.0155062372
0.1357442730 0.0240907963 -0.0095309840
0.1334843877 0.0541786557 -0.0147673563
0.1351790767 0.0260832233 -0.0118272922
0.0990432970 0.0678647754 0.0493640219
0.1149009470 0.0644895877 0.0414010165
0.1122520891 0.0120477260 0.0459474506
0.1093666842 0.0466272105 0.0459870938
0.1106316948 0.0504719567 0.0449515784
0.1281140978 0.0887845783 -0.0120844565
0.0798415510 0.0729282364 -0.0694618850
0.0719350857 0.0762467051 -0.0698402499
0.0785305116 0.0743874930 -0.0686024417
0.0207260237 0.0527684781 -0.1179149379
0.1003322584 0.0833588326 -0.0491742679
0.0585300840 0.0620332290 -0.0906094145
0.0841837607 0.0796591654 -0.0605765443
0.0667923877 0.0746631706 -0.0738826617
0.0340175024 0.0522705888 -0.1121243897
0.0509512774 0.0583467389 -0.0979391892
0.0860063720 0.0749126659 -0.0645286203
0.0213359055 0.0554483661 -0.1149072839
0.0411321641 0.0500886578 -0.1109680415
0.1067595481 0.0877560340 -0.0416688979
0.0595018674 0.0680028299 -0.0840928911
0.0832320278 0.0792165826 -0.0614763488
0.0663024902 0.0684157314 -0.0804528043
0.0782300708 0.1042874903 -0.0280912346
0.0690990123 0.0550943974 -0.0887346811
0.1017662178 0.0803663765 -0.0498969063
0.0458161437 0.0376478974 -0.1160915229
0.0707262798 0.0475537243 -0.0918405755
0.0610527168 0.0506000604 -0.0973096350
0.0355558262 0.0432138806 -0.1205548567
0.0495362002 0.0355389212 -0.1145253511
0.0760036375 0.0575455773 -0.0821814830
0.0547870970 0.0395971286 -0.1082848867
0.0458608302 0.0376870930 -0.1160357461
0.0449125231 0.0338580703 -0.1189362760
0.0579415155 0.0432293123 -0.1038519034
0.0476720324 0.0426342262 -0.1118512397
0.0873975363 0.0703229063 -0.0663654150
0.0468128672 0.0403391425 -0.1138066252
0.0658726150 0.0454375105 -0.0966723968
-0.0016510996 -0.0546271284 -0.1119368261
0.1284862339 0.0755638003 -0.0202846854
0.0306012757 -0.0325829454 -0.0137420434
0.0615898178 -0.0155732744 0.0213533794
0.0206493666 -0.0368974537 -0.0220643252
0.0246607660 -0.0350963857 -0.0185506109
0.0854528916 -0.0047283155 0.0425915731
0.0214395063 -0.0365564833 -0.0214076374
0.0649858438 -0.0142417667 0.0238317311
0.0300059828 -0.0344979508 -0.0192155058
0.0331044545 -0.0330139234 -0.0161481998
0.1181477619 -0.0000991081 0.0395169382
0.0399173376 -0.0306492635 -0.0126819144
0.0834482093 -0.0130910417 0.0184026402
0.0792621209 -0.0153236656 0.0134279127
0.0866106110 -0.0109997409 0.0236373153
0.0650521434 -0.0210890431 0.0031576284
0.1289129610 0.0274501181 0.0276728622
0.1288392636 0.0279763688 0.0277576995
0.1308017587 0.0122640401 0.0256191846
0.1365995943 0.0099027388 0.0089221202
0.1360229434 0.0185910013 0.0102431652
0.1359841324 0.0170923799 0.0111459550
0.1351136124 0.0647137593 -0.0003394499
0.1349367704 0.0480479820 0.0076170884
0.1349180060 0.0516516780 0.0063627246
0.1006898310 0.0460132114 -0.0620288567
0.1003821580 0.0273386404 -0.0634770049
0.0926898696 0.0314783976 -0.0726867165
0.1102976308 0.0259876080 -0.0513771497
0.1132204388 0.0262691570 -0.0477714849
0.0676462144 0.0152311391 -0.1043742442
0.0865537002 0.0331712428 -0.0801255830
0.1203933626 0.0586487981 -0.0371065808
0.0906743645 0.0339118062 -0.0750225121
0.1015147801 0.0360327546 -0.0615877369
0.0996353408 0.0104518090 -0.0653620099
0.0747668188 0.0153036127 -0.0956252084
0.1229674843 0.0262600335 -0.0358015683
0.1044981755 0.0353523783 -0.0579627947
0.1025678531 0.0236793615 -0.0610024554
0.1011297316 0.0246845452 -0.0627110163
0.0852425511 0.0272179484 -0.0820770177
0.0868945389 0.0274552626 -0.0800345946
0.1232572574 0.0199028140 -0.0358100452
0.1157721707 0.0143505757 -0.0453207660
0.0819175293 0.0110862663 -0.0870850606
0.1243100409 0.0385879111 -0.0334462165
0.1184472606 0.0601315472 -0.0394116266
0.1049610946 0.0443856983 -0.0568765545
0.0775676389 0.0088925525 -0.0925529304
0.1032054345 0.0229441556 -0.0602615724
0.0945939518 0.0084685717 -0.0716670526
0.1191593283 0.0248566196 -0.0405588346
0.0873468947 0.0254019807 -0.0795967314
0.1190982368 0.0182766157 -0.0410109801
0.1078943126 0.0431662217 -0.0533441332
0.1100760255 0.0200148261 -0.0519916222
0.1217515257 0.0413790776 -0.0364283839
0.1106495410 0.0441233708 -0.0499055540
0.1052804972 0.0483247773 -0.0562585335
0.1086501194 0.0489685376 -0.0520833726
0.1223549325 0.0056199380 -0.0377367908
0.1044763485 0.0258806516 -0.0585324520
0.0872849308 0.0207436607 -0.0799398113
0.1163206491 0.0560991988 -0.0422544437
0.1192684756 0.0017205311 -0.0417479584
0.0863258980 0.0033065268 -0.0820742669
0.0572064813 -0.0026712046 -0.1179978679
0.1048557324 0.0022232233 -0.0593983522
0.0628304954 -0.0033503665 -0.1111286406
0.0548292445 0.0023228721 -0.1207245299
0.0741617358 0.0063428676 -0.0968727845
0.0578099687 -0.0040593738 -0.1173101993
0.0946294298 -0.0026889097 -0.0721199069
0.0711743044 -0.0034721538 -0.1009041338
0.0909128902 0.0038580745 -0.0764301176
0.1250411777 0.0800767157 -0.0248830857
0.1225641895 0.0896171416 -0.0242277463
0.0708004043 -0.0251042913 -0.0237446156
0.1194929440 -0.0034262852 0.0221089998
0.1288678935 -0.0002960145 0.0245541908
0.1227826720 -0.0030119749 0.0187821052
0.0721381198 -0.0241169811 -0.0200884253
0.0746795724 -0.0234198709 -0.0203521616
0.1258536423 -0.0006992412 0.0274580683
0.0602958225 -0.0296956438 -0.0331149106
-0.0080781296 0.0449125774 -0.0116446555
-0.0387288057 0.0195240061 -0.0347422563
-0.0082679208 0.0472994799 -0.0136184582
-0.0033097946 0.0474386997 -0.0070269208
-0.0308543435 0.0230868239 -0.0266783672
-0.0076672811 0.0462991079 -0.0120879234
-0.0312114118 0.0275569904 -0.0303770836
0.0196846794 0.0757130079 -0.0034140006
-0.0160151254 0.0441942870 -0.0245357996
0.0080723693 0.0661321295 -0.0120013627
-0.0000619810 0.0573038526 -0.0126034245
0.0140484051 0.0709700045 -0.0073449379
0.0170214750 0.0743622478 -0.0075482147
0.0058677131 0.0623596051 -0.0086361894
-0.0075292104 0.0508516730 -0.0173807039
0.0279880616 0.0809986143 0.0067288594
-0.0167146260 0.0438230577 -0.0255796085
0.0362557699 0.0872567803 0.0142830833
0.0991370967 0.0831651289 0.0455630425
0.0933438989 0.0831839284 0.0471811454
0.1085485623 0.0939987221 0.0363931581
0.1082109225 0.0926456645 0.0376773201
0.1314446694 0.0820364720 0.0019490589
0.1327619440 0.0749402421 0.0044089691
0.1338019434 0.0682586011 0.0063682589
0.1058868479 0.1014815295 -0.0252626482
0.1046240097 0.1021495662 -0.0242855937
0.0936239776 -0.0138928939 -0.0666196900
0.0706571535 -0.0246316934 -0.0884872185
0.0938576980 -0.0125571554 -0.0683570555
0.0733853355 -0.0205384797 -0.0903921542
0.0586322630 -0.0310722240 -0.0986294494
0.0605615754 -0.0296974226 -0.0975478593
0.0569419935 -0.0304983181 -0.1024188957
0.0913669785 -0.0139199961 -0.0704117777
0.1207010984 -0.0030499364 -0.0379338370
0.0447205440 -0.0320299454 -0.1207396635
0.0932223213 -0.0188532535 -0.0498215986
0.0862461729 -0.0217302375 -0.0589602747
0.0240969657 -0.0491506846 -0.1195907119
0.0209859559 -0.0508132157 -0.1192589406
0.0351116086 -0.0438189861 -0.1143260030
0.0816490422 -0.0235186089 -0.0662307178
0.1196650709 -0.0071837783 -0.0240580416
0.0772469137 -0.0253618353 -0.0716749315
0.0940424099 -0.0181708252 -0.0527443198
0.0765793701 -0.0257090061 -0.0717148211
0.0999733845 -0.0151646597 -0.0501927352
0.1061387461 -0.0125537338 -0.0430356399
0.1244285412 -0.0040993057 -0.0277673182
0.1051335244 -0.0127700715 -0.0459634562
0.0807023910 -0.0236288572 -0.0700128636
0.1309221877 -0.0018998061 -0.0155992985
0.1334214010 0.0293594417 -0.0179916600
0.1343059818 0.0227386969 -0.0164155819
0.1331758107 0.0346361355 -0.0180083342
0.1313558805 0.0748597173 -0.0131196612
0.1060366248 0.0045582763 0.0495317233
0.1111610030 0.0007844410 0.0471313299
0.1070653532 0.0492618231 0.0472302626
0.1078720914 0.0167205638 0.0481310457
0.1217875750 0.0563814791 0.0350142001
0.1209284590 0.0318331869 0.0375661974
0.1176459959 0.0655134886 0.0388549820
0.1193080754 0.0634697529 0.0372060087
0.1195686672 0.0442260883 0.0382036085
0.1033588059 -0.0083328620 0.0186912900
0.1187676881 -0.0013382370 0.0334107361
0.1241848628 0.0003205463 0.0349130476
0.1120574873 -0.0041028520 0.0282920415
0.1129050890 -0.0035933789 0.0296740612
0.1146033244 -0.0020971928 0.0346247890
0.0735467456 -0.0188797456 0.0039154762
0.0921806581 -0.0113751788 0.0173375897
0.0917199837 0.0633263538 -0.0661476479
0.0738493160 0.0457932760 -0.0898096502
0.0843547651 0.0599427708 -0.0745113735
0.0719582127 0.0466358719 -0.0913387967
0.0868992406 0.0609944302 -0.0716643139
0.1028075676 0.0701505462 -0.0529316473
0.1019251434 0.0724022971 -0.0529736522
0.0872798163 0.0520909098 -0.0743135183
0.0950499594 0.0578448973 -0.0646528618
0.0670571292 0.0290953814 -0.1019374447
0.0536489306 0.0248545555 -0.1168482953
0.0756121801 0.0399474839 -0.0899036491
0.0745746104 0.0344913245 -0.0926438036
0.0765640894 0.0366912294 -0.0899454926
0.0626943918 0.0272503067 -0.1069330192
0.0833305930 0.0419668888 -0.0814507236
0.0672854120 0.0336662837 -0.1002919399
0.1241662274 0.0670310580 -0.0316509819
0.0833277462 0.0376511617 -0.0826629708
0.1207943816 0.0718626876 -0.0338310210
0.1005007006 0.0512447326 -0.0608650762
0.1160079031 0.0744461950 -0.0381225673
0.1191381978 0.0748277629 -0.0347361113
0.0927367375 0.0473256269 -0.0700966318
0.0887490692 0.0427924514 -0.0755436521
0.1029605889 0.0599241458 -0.0558579371
0.0853156709 0.0420341318 -0.0793531477
0.1236902531 0.0693010373 -0.0315141580
0.1088858844 0.0950887275 -0.0333374156
0.1114777259 0.0989479082 -0.0249725488
-0.0049112881 -0.0546041144 -0.1155189367
-0.0194200519 -0.0512112096 -0.1123127994
-0.0167057979 -0.0520625995 -0.1116520725
-0.0017476050 -0.0497999426 -0.0618874918
0.0806767076 -0.0223550912 -0.0270646600
0.1127306170 -0.0088923563 -0.0022719721
0.0939910075 -0.0165730791 -0.0151071553
0.0221592587 -0.0463406918 -0.0671559975
0.1192935326 -0.0064861791 -0.0002552440
0.0432284473 -0.0374245563 -0.0502742862
0.0921620161 -0.0175697708 -0.0185177936
0.0875535564 -0.0195799358 -0.0227338901
0.1354289324 0.0001105203 0.0106508472
0.0968583950 -0.0149236074 -0.0090009666
0.0983845193 -0.0152186818 -0.0159967042
0.1014976347 -0.0126328520 -0.0024231033
-0.0009267070 -0.0515550243 -0.0736759652
-0.0106621577 0.0366117603 -0.0094459401
0.0477825342 0.0889343298 0.0313845801
0.0191618418 0.0651551408 0.0102481548
0.0446494548 0.0876003591 0.0282849490
0.0243074775 0.0666861034 0.0157474691
0.0260550570 0.0711619470 0.0151656405
0.0461896065 0.0857270148 0.0313746971
0.0483984912 0.0974207839 0.0203439235
0.0267587745 0.0860404776 -0.0401020724
0.0291505559 0.0847493903 -0.0529499890
0.0343273999 0.0915515726 -0.0276034851
0.0446239595 0.0964163240 -0.0251822845
0.0220870470 0.0807425404 -0.0583197862
0.0090112641 0.0704462997 -0.0842059702
-0.0003652408 0.0638936151 -0.0981678421
0.0278670154 0.0867930842 -0.0385730481
-0.0121079521 0.0558408421 -0.1148027643
0.0435223074 0.0991221064 -0.0075713189
0.0469769587 0.1011821909 -0.0043889454
0.0472275209 0.0989673892 -0.0172533035
0.0324406326 0.0898059253 -0.0327785838
0.0149395402 0.0755846031 -0.0698652807
0.0173028237 0.0769038840 -0.0681867436
0.0564022120 0.1019865184 -0.0223827767
-0.0083222554 0.0599798276 -0.0978716869
-0.0119172663 0.0576551159 -0.1003393741
-0.0038129596 0.0628047338 -0.0956462020
0.0337876229 0.0922355039 -0.0209483428
0.0054731162 0.0705860738 -0.0722971704
-0.0137428177 0.0568880631 -0.0976419701
-0.0128530880 0.0563431935 -0.1077351167
-0.0211456448 0.0514271710 -0.1091622798
-0.0240842300 0.0492000761 -0.1143026058
0.0156987102 0.0790957969 -0.0471485427
0.0076279169 0.0717273625 -0.0732270562
-0.0035683947 0.0645970467 -0.0798635268
-0.0162313775 0.0555375525 -0.0968780886
-0.0237462458 0.0499068938 -0.1094051726
-0.0068173359 0.0612794592 -0.0937191285
-0.0479486723 0.0086664382 -0.0555022749
0.1010718618 0.0344956379 0.0504235558
0.1034918854 0.0531747918 0.0486111729
0.1030965293 0.0443942708 0.0491751473
0.1004610777 0.0576068184 0.0495798413
0.1198122444 0.0979136650 -0.0132933252
0.1087052202 0.1050040016 -0.0014952138
0.1189280392 0.0970965622 0.0192631469
0.1194793027 0.0671225971 0.0365996716
0.1175229204 0.0825757727 0.0342340428
0.1289925084 0.0904513233 -0.0053007297
0.1237120343 0.0961982757 0.0074090831
0.1311366252 0.0774891028 0.0114094626
0.1307329613 0.0807064823 0.0098432111
0.0947318596 0.1016364960 -0.0323878329
0.0900435001 0.1014880741 -0.0335833665
0.0859249842 0.1064819327 -0.0222720503
0.0868130878 0.0859045664 -0.0532643393
0.0806296730 0.0896476520 -0.0528088169
0.0617942690 0.0793864486 -0.0718845688
0.0759927768 0.0796080912 -0.0646022282
0.0660701210 0.0795493882 -0.0696006415
0.0372987822 0.0691222186 -0.0937827444
0.1027779988 0.0906834724 -0.0407971954
0.0796521908 0.0910302893 -0.0519896853
0.0636365053 0.0742027242 -0.0758634978
0.0972221937 0.0940259459 -0.0404074551
0.0619332619 0.0761124478 -0.0749080084
0.0795172031 0.0906029895 -0.0524605641
0.1218783687 0.0807496591 -0.0302005757
0.1282699211 0.0632457501 -0.0257827725
0.1270626339 0.0315843831 -0.0304421103
0.1292327041 0.0063598338 -0.0290767940
0.1285394446 0.0546519405 -0.0260792555
0.0492515492 -0.0293391039 -0.0162860958
0.0387796294 -0.0335880576 -0.0238054858
0.0674776684 -0.0224308259 -0.0052040745
0.0597480890 -0.0252712526 -0.0095360025
0.0339751445 -0.0367844720 -0.0323909186
0.0302913040 -0.0381770353 -0.0346154447
0.0659943403 -0.0230810034 -0.0064681833
0.0389399052 -0.0328761183 -0.0210262339
0.0451237282 -0.0323148533 -0.0246075819
0.0295467379 -0.0385693753 -0.0355216947
0.1363526295 0.0307322249 -0.0040574657
0.1345760318 0.0515298688 -0.0093339950
0.1355208516 0.0488434484 -0.0040514710
0.1347093415 0.0472635218 -0.0097382152
0.0913714265 0.1100153850 0.0055226183
0.0926004891 0.1101699598 0.0027124385
0.0832200801 0.1107944706 0.0019917274
0.0877817818 0.0925525423 0.0453874603
0.0935103146 0.0746958216 0.0491761911
0.0915316003 0.0709247804 0.0503946004
0.0726886602 -0.0029206599 0.0477928501
0.0409085945 -0.0186871566 0.0155178665
0.0328989144 -0.0230995447 0.0065652059
0.0709275963 -0.0049637190 0.0438232160
0.0646886391 -0.0049224454 0.0433373803
-0.0033715403 -0.0321153138 -0.0178023155
0.0237843963 -0.0223367748 0.0053604776
0.0021546905 -0.0303942540 -0.0134716825
0.0091023397 -0.0272447543 -0.0066229923
-0.0019147987 -0.0386276078 -0.0265833842
0.0173333537 -0.0240351819 0.0007476494
-0.0043084261 -0.0364323074 -0.0242702026
0.0542097321 -0.0078159485 0.0363808069
0.0530660547 -0.0070777473 0.0370462419
0.0573176801 -0.0058316923 0.0402638654
0.0576606047 -0.0034505156 0.0437763066
0.0374920444 -0.0153199039 0.0200142682
-0.0513908105 -0.0198277027 -0.1207933986
-0.0117000928 -0.0525998204 -0.0964829647
-0.0121203332 -0.0519874174 -0.0903489651
-0.0458716526 -0.0136695263 -0.0515816514
-0.0439724410 -0.0101098511 -0.0386133318
-0.0145576570 -0.0526832980 -0.1126349514
-0.0028910905 -0.0454937142 -0.0402221103
-0.0006957797 -0.0468471703 -0.0466568784
0.0045289077 -0.0517001149 -0.0758599211
-0.0261214004 -0.0451728418 -0.0774247379
-0.0137615895 -0.0487962564 -0.0670889807
0.0484018289 0.0947044443 0.0249050477
0.0491966874 0.0922731726 0.0292946677
0.0659507494 0.0963598102 0.0378370541
0.0531158140 0.0940085703 0.0316762514
0.0700445189 0.0982823574 0.0377383051
0.0486447886 0.1018682216 0.0035059090
0.0585765033 0.1060763569 0.0012388121
0.0574445535 0.1001429056 -0.0289764094
0.0338576583 0.0839843271 -0.0616379626
0.0521289635 0.0954248057 -0.0397051711
0.0481431275 0.0942446009 -0.0403741466
0.0017775264 0.0650642098 -0.0964967964
0.0526722434 0.0965207059 -0.0366886968
0.0282891913 0.0805985853 -0.0680065819
0.0152249338 0.0710356121 -0.0873237260
0.0269361340 0.0776729249 -0.0751524526
0.0428341874 0.0879994340 -0.0551540638
0.0156450607 0.0713857589 -0.0865912447
0.0742375465 0.1085352784 -0.0152871056
0.0586285924 0.0931923825 -0.0486637984
0.0195623217 0.0744093155 -0.0803985239
0.0642953826 0.0975771420 -0.0396767095
0.0299260883 0.0814137343 -0.0666417615
0.0411441566 0.0846479965 -0.0632309884
0.0511468585 0.0935231705 -0.0443692704
0.0748573342 0.1048331835 -0.0253461411
0.0491093578 0.0928041770 -0.0453361646
0.0277323782 0.0767495508 -0.0779547716
-0.0473364190 0.0275542187 -0.1146000996
-0.0438802684 0.0291011989 -0.0836831661
-0.0457370489 0.0283166265 -0.0952756467
0.0750678553 0.0677477756 0.0512236148
0.0796663406 0.0660800201 0.0519918633
0.0743228073 0.0623808221 0.0516528425
0.0779465959 0.0347102557 0.0532844182
0.0773377909 0.0292990883 0.0534701932
0.0752722946 0.0497964407 0.0523241941
0.0720651483 0.0386203248 0.0525106307
0.0840399932 0.0479982148 0.0532665474
0.0779336898 0.0078233389 0.0544581763
0.0842069970 0.0595427581 0.0527810067
0.0790010291 0.0107854239 0.0544259466
0.0035601822 0.0127048703 0.0064208190
0.0112441399 0.0154224238 0.0124837295
0.0176494413 0.0252460371 0.0171527688
0.0361467287 0.0556643088 0.0305316729
0.0261964756 0.0066040183 0.0250001338
0.0134478285 0.0361649181 0.0132057321
0.0417718529 0.0540401197 0.0351541441
0.0442030900 0.0165019793 0.0390282048
-0.0029538123 0.0047039264 0.0015712248
0.0121623676 0.0040269786 0.0138051893
-0.0042517270 0.0181077274 -0.0001589525
0.0282279818 0.0451232919 0.0246777497
0.0267487009 0.0443469575 0.0235234399
0.0425483119 0.0186639756 0.0375826020
-0.0256514424 0.0096641098 -0.0169994938
-0.0197714921 0.0132462814 -0.0124365419
0.0319854496 0.0013472194 0.0299398600
0.0293034103 0.0357701080 0.0260220593
0.0388738561 0.0102545519 0.0350454575
0.0142491219 0.0362559513 0.0138477778
0.0228972675 0.0037968648 0.0224804911
-0.0128053490 0.0064473546 -0.0064682381
0.0303790666 0.0438607512 0.0264780839
0.0096374418 0.0347389075 0.0102031977
-0.0023583535 0.0150759021 0.0015235116
0.0086353533 0.0235936591 0.0099621264
0.0041959462 0.0045242722 0.0073505747
-0.0286704950 0.0066489413 -0.0192824427
0.0154934556 0.0194048377 0.0157102952
0.0155640143 0.0300798854 0.0152235258
0.0143286995 0.0337248047 0.0140409201
0.0102329422 0.0215111425 0.0113575267
0.0033396175 0.0300731205 0.0053581932
0.0501867667 0.0594405125 0.0416703260
0.0326601644 0.0249378637 0.0292828418
0.0032820212 0.0235969695 0.0056415609
-0.0241367169 0.0048244438 -0.0155305380
-0.0049548998 0.0223603133 -0.0009430443
0.0377309940 0.0357414059 0.0328249873
0.0220952457 0.0196957462 0.0210234409
-0.0544432794 0.0084727469 -0.1168454895
-0.0518476830 0.0134576362 -0.0906236082
0.1014216607 0.0877854785 0.0437009252
0.0907022731 0.1003737982 0.0365663065
0.1117652485 0.0670762328 0.0431418891
0.1143137924 0.0735693844 0.0397344481
0.1102214022 0.0837892834 0.0397106177
0.1199782285 0.0997490892 0.0045133330
0.1126987340 0.1031182484 0.0068672469
0.1234679285 0.0901410454 0.0229128859
0.0776082811 0.1091691637 -0.0140757007
0.0039132722 -0.0545934469 -0.1089787055
0.1240174968 -0.0028816181 -0.0316531220
0.0462707795 -0.0381990440 -0.1081951710
0.1280955169 -0.0003917556 -0.0291310362
0.1022034504 -0.0126648901 -0.0534243396
0.0522386938 -0.0354379599 -0.1024370265
0.1310131306 0.0431426926 -0.0224009224
0.1301681392 0.0320093099 -0.0250787694
0.1299730626 0.0392256358 -0.0249250436
0.1298859336 0.0085307980 -0.0275317340
0.0185709142 -0.0513861936 -0.1106458408
0.0552160507 -0.0352292506 -0.0717216216
0.0214256090 -0.0497110726 -0.0991232695
0.0634642588 -0.0317330089 -0.0658229607
0.0329966392 -0.0445195265 -0.0850009851
0.0168240750 -0.0518601646 -0.1064626691
0.0817259455 -0.0235193089 -0.0431215277
0.0180953716 -0.0517103780 -0.1134854909
0.0764422469 -0.0257606404 -0.0469344455
0.1037095171 -0.0139480805 -0.0222453798
0.0264520036 -0.0475963209 -0.0958514051
0.0645042986 -0.0313653847 -0.0665719843
0.0359529890 -0.0435928320 -0.0895415802
0.0888210984 -0.0207118644 -0.0421255169
0.0445453767 -0.0396921600 -0.0781261809
0.0781004805 -0.0251839486 -0.0483212551
0.0589729014 -0.0332617310 -0.0613887501
0.0907311492 0.0160309475 0.0540015907
0.0903848967 0.0510187779 0.0524155021
0.0926095072 0.0615378622 0.0515139998
0.0920982830 0.0590779427 0.0517231763
0.0973470666 0.0431983475 0.0512968861
0.0977673055 0.0069008633 0.0525804353
0.0989637612 0.0181436761 0.0517998780
0.0980416095 0.0506288133 0.0508087832
0.1125240851 0.0079826807 0.0459802930
0.1201907403 0.0050678046 0.0401240788
0.1157575892 0.0556617431 0.0412562916
0.1159307789 0.0334223915 0.0421459232
0.1217632128 0.0015353341 0.0385886750
0.1253896887 0.0487311170 0.0315786930
0.1244031914 0.0102506154 0.0350190164
0.1287482859 0.0590127825 0.0247056373
0.1312281118 0.0280427390 0.0230711468
0.1321451812 0.0148884893 0.0226644589
0.1305225882 0.0358271373 0.0236555311
0.1309639954 0.0252648043 0.0239516401
0.1320863947 0.0385392256 0.0200390606
0.1357587642 0.0489349984 -0.0015269956
0.1356412242 0.0516054953 -0.0009127113
0.1362410239 0.0274104863 0.0041628371
0.1368043119 0.0184678751 -0.0017762255
0.1361210779 0.0366485034 -0.0002702815
0.0922798416 0.1092218716 0.0119832629
0.1017129992 0.1045246040 0.0197253115
0.1053595437 0.1049550724 0.0130476013
-0.0044851471 0.0358878895 -0.0031028452
0.0397311750 0.0669091259 0.0309535201
0.0316500102 0.0660752208 0.0232756625
0.0107080747 0.0481974771 0.0081032194
0.0363682240 0.0724381911 0.0259920898
0.0339227489 0.0636395217 0.0262376276
-0.0224769260 0.0259417414 -0.0177650406
-0.0299038955 0.0180885543 -0.0226911099
0.0408512413 0.0621807477 0.0334737491
0.0467983689 0.0833368883 0.0329491490
-0.0171176305 0.0306453968 -0.0139208616
0.0257404389 0.0517893771 0.0217719439
0.0266111778 0.0584087461 0.0206364974
0.0507413796 0.0727444387 0.0400017024
0.0214155656 0.0505447217 0.0179028960
-0.0480182931 -0.0219178860 -0.0818825377
-0.0486731951 -0.0213775781 -0.0871880996
-0.0341736526 -0.0427806748 -0.1149637708
-0.0092065487 -0.0530643664 -0.0939372840
-0.0245254975 -0.0487434240 -0.1078239414
-0.0315642273 -0.0423142615 -0.0845386940
-0.0308247950 -0.0427960425 -0.0839943257
-0.0437978031 -0.0319395503 -0.1031319254
-0.0423791668 -0.0340836447 -0.1093803388
-0.0544709840 0.0035831983 -0.1050181871
-0.0545437764 -0.0028005133 -0.1113454844
-0.0518725562 -0.0178702825 -0.1123533844
-0.0537006032 0.0017075584 -0.0924871675
-0.0419343417 -0.0252133126 -0.0559748970
-0.0396305584 0.0184305119 -0.0352688610
-0.0216444896 -0.0452139649 -0.0650470633
-0.0222646062 -0.0453474561 -0.0674307535
-0.0190617895 -0.0461428957 -0.0632175605
-0.0062166407 -0.0462384072 -0.0454203189
-0.0127946046 -0.0459828761 -0.0509517600
-0.0086773777 -0.0446442394 -0.0405138139
-0.0043423896 -0.0507848321 -0.0684382987
0.0511884293 0.1030740592 -0.0025556032
-0.0499214860 0.0081904663 -0.0671396911
-0.0497595019 0.0120279516 -0.0712255314
-0.0507099141 0.0138675872 -0.0817891721
-0.0423638060 0.0220150675 -0.0514899672
-0.0441902858 0.0154545206 -0.0463206106
0.0133640145 0.0669404896 0.0006835050
-0.0353727030 0.0269383104 -0.0371825704
-0.0057670254 0.0508728773 -0.0136596702
-0.0083762766 0.0490528980 -0.0161455291
-0.0075404917 0.0484838439 -0.0137067314
-0.0500304244 0.0180359078 -0.0862556448
-0.0464578217 0.0170544537 -0.0591279291
-0.0536095067 0.0113267761 -0.1138068566
-0.0509415737 0.0178330945 -0.0958365341
-0.0504707704 0.0210996550 -0.1127286715
0.0046820988 0.0680183858 -0.0315658708
0.0040013589 0.0672241027 -0.0307969959
-0.0253338528 0.0462643471 -0.0692675432
-0.0164869912 0.0512524530 -0.0504725741
-0.0184224618 0.0508148213 -0.0581118555
0.0061932905 0.0698292308 -0.0335295701
-0.0273592733 0.0422702690 -0.0581790061
-0.0167629766 0.0513531585 -0.0524421141
-0.0053358775 0.0612612389 -0.0468654886
-0.0374378785 0.0340449335 -0.0658687242
0.0079562846 0.0707008651 -0.0291236374
-0.0223983477 0.0469220438 -0.0576484659
0.0036897940 0.0676068476 -0.0344724283
-0.0459911809 0.0285768113 -0.1000455982
-0.0498216714 0.0191424499 -0.0889646808
-0.0485697901 0.0206660062 -0.0842253967
-0.0406943499 0.0316641133 -0.0738069072
-0.0407554735 0.0263914888 -0.0556737451
-0.0408737302 0.0296424944 -0.0662517200
-0.0229779692 0.0147829022 -0.0153421275
-0.0155897514 0.0237007237 -0.0105083371
-0.0173225000 0.0223085558 -0.0118101181
-0.0355159581 0.0044315418 -0.0246949003
-0.0074772392 0.0304647037 -0.0044727068
0.0099689932 0.0408223551 0.0095140584
-0.0015220218 0.0328508600 0.0005779520
-0.0151044414 -0.0424230830 -0.0384854548
0.0880973155 0.0845459986 0.0478039650
0.0885865189 0.0839830441 0.0478998980
0.1286250833 0.0785466522 0.0181533879
0.0886114587 0.1097651948 -0.0104085088
0.0730444074 0.1091472490 -0.0111545114
0.0943641177 0.1085807441 -0.0115946327
0.0983348481 0.1073266285 -0.0124279791
0.1139751807 0.1017884815 -0.0132245118
0.1137102276 0.1015302206 -0.0168648107
0.0136194785 -0.0528416303 -0.1035044686
0.0082107786 -0.0543170816 -0.1201609189
0.0422962801 -0.0414193704 -0.0967572118
0.0965700675 -0.0174073783 -0.0395794630
0.0999657616 -0.0158767387 -0.0341782833
0.1059609995 -0.0132514247 -0.0296096605
0.1155285632 -0.0090232436 -0.0198351254
0.0482977699 -0.0387422608 -0.0890228512
0.0820575381 -0.0237771355 -0.0515872191
0.1135713397 -0.0098405526 -0.0187647979
0.0851502845 -0.0225111460 -0.0549214309
0.1144813585 -0.0095238399 -0.0233409855
0.1351883543 0.0231409281 0.0129934093
0.1336483336 0.0563899423 0.0141792022
0.1346068925 0.0031089108 0.0168387099
0.1335926250 0.0412841881 0.0159225173
0.1331222299 0.0408799879 0.0173857643
0.0871282236 0.1062396296 0.0229919201
0.0976164285 0.1018895568 0.0299101617
0.0917632087 0.1066521720 0.0196605909
0.0912008066 0.1003491856 0.0364425828
0.0828092186 0.1011455264 0.0353339963
0.0875553368 0.1043460745 0.0277706416
0.0846403384 0.1076015854 0.0197348579
0.0896864180 0.0989160124 0.0383625903
0.0794142960 0.1058823850 0.0236720428
0.0648710126 0.0696957678 0.0483967730
0.0679499748 0.0857781820 0.0455757548
0.0747380700 0.0858103573 0.0475211072
0.0628214322 0.0443340981 0.0494786525
0.0616664107 0.0189291815 0.0501852804
0.0641578782 0.0635327522 0.0491191292
0.0640926787 0.0567354613 0.0493999651
0.0451801111 -0.0036426539 0.0378409473
0.0339931050 -0.0090118981 0.0263460966
-0.0483546191 -0.0251564064 -0.1109277366
-0.0473518431 -0.0276122128 -0.1146466277
-0.0471736808 -0.0265047208 -0.1016512824
-0.0216985571 -0.0487665421 -0.0883923404
-0.0196425732 -0.0484510113 -0.0786463139
-0.0355329060 -0.0417552192 -0.1141598906
-0.0363082100 -0.0397468389 -0.0955487082
-0.0526874002 -0.0080118732 -0.0884123338
-0.0543800131 -0.0076406724 -0.1153441737
-0.0533437244 -0.0112581057 -0.1080877359
-0.0521609106 0.0012850947 -0.0772052736
-0.0410460485 -0.0293889744 -0.0661126779
-0.0452275275 -0.0260232827 -0.0791524977
-0.0463776678 -0.0140539481 -0.0544445036
-0.0471770882 -0.0119014899 -0.0556352677
-0.0434467093 -0.0240614387 -0.0610412665
-0.0050322423 -0.0532322348 -0.0894142284
0.0009276026 -0.0529735551 -0.0855508318
-0.0246304779 -0.0415184193 -0.0537365620
-0.0085258616 0.0614923133 -0.0763944874
0.0189233538 0.0816199381 -0.0402853278
-0.0097801055 0.0606308327 -0.0789110506
0.0386599444 0.0958623869 -0.0109018278
-0.0076160646 0.0622249260 -0.0761725288
0.0014907539 0.0688184372 -0.0629388042
-0.0086370687 0.0616419221 -0.0799817877
-0.0150695242 0.0568498061 -0.0873211377
-0.0292759233 0.0461150433 -0.1012806198
0.0129862222 0.0773118782 -0.0487721038
-0.0107479988 0.0573780241 -0.0539225953
0.0364681860 0.0937837649 -0.0094684366
0.0194892139 0.0809402671 -0.0276290985
0.0281629448 0.0872081328 -0.0157802506
0.0394745378 0.0951250619 0.0019267354
-0.0017795205 0.0642670695 -0.0452503848
0.0179679564 0.0790581181 -0.0228426524
-0.0381864405 0.0253947643 -0.0417280756
0.0833639250 0.0085471849 0.0547946005
0.0839621262 0.0196624479 0.0543592846
0.0884271154 0.0317580979 0.0536333306
-0.0135661778 -0.0399379228 -0.0325305907
-0.0187947893 -0.0385182168 -0.0339671912
-0.0313037343 -0.0327622480 -0.0393618221
0.1303766141 0.0695522751 0.0189398575
0.1310883245 0.0684074300 0.0179439311
0.0843315952 0.1084821275 -0.0170151130
0.0622320464 0.1070567353 0.0055022146
0.0554132822 0.1028777078 0.0162527886
0.0793451441 0.1106970280 0.0033100379
0.0676816569 0.1088562756 0.0041873208
0.0526991228 0.0088152662 0.0459696322
0.0536498718 0.0126851135 0.0463396918
0.0548993468 0.0122157555 0.0470767368
0.0552302718 0.0613593060 0.0448781095
0.0520954415 0.0328408336 0.0443898234
0.0540917612 0.0661454183 0.0439256718
0.0535645139 0.0249080569 0.0457087293
0.0562844225 0.0832803963 0.0406715625
0.0525683812 0.0687528427 0.0424715909
0.0670200567 0.0258391180 0.0517299451
0.0649465998 0.0021424523 0.0519454953
0.0632831998 0.0118538679 0.0510170969
0.0673409422 0.0301518773 0.0516718357
0.0685425158 0.0293405408 0.0521045918
-0.0196786164 -0.0496861999 -0.0898312588
-0.0309833417 -0.0391814666 -0.0624476627
-0.0327027357 -0.0406745051 -0.0790364700
-0.0326613160 -0.0406224514 -0.0785381686
-0.0486715352 0.0006554320 -0.0555519779
-0.0503187485 -0.0125892804 -0.0745236996
-0.0355135491 -0.0264293998 -0.0369001017
0.0021793040 -0.0040725611 0.0052495991
0.0246704445 -0.0024587602 0.0235921952
-0.0124985541 -0.0068254172 -0.0070067653
0.0137876838 -0.0033235284 0.0147026743
0.0069794008 -0.0064741526 0.0087024500
0.0408995415 -0.0006208958 0.0369410540
-0.0434408290 -0.0049335245 -0.0356748829
-0.0441290305 0.0096929072 -0.0390664563
-0.0146187972 0.0493174489 -0.0354978969
0.0239970329 0.0808839494 -0.0045618567
-0.0215195640 0.0451896241 -0.0459576254
0.0244087051 0.0818101770 -0.0061538417
-0.0029875256 0.0587484447 -0.0259289318
0.0117126219 0.0700944296 -0.0119667394
0.0374276854 0.0923974189 0.0044555969
-0.0268082490 0.0379418580 -0.0406637984
-0.0310850059 0.0350334172 -0.0460049065
-0.0213194111 0.0448472250 -0.0441482362
-0.0272470284 0.0380777542 -0.0426270824
-0.0021485747 0.0610581604 -0.0305489843
-0.0275614289 0.0357149386 -0.0360163644
-0.0335205522 0.0350858487 -0.0546151831
0.0057138513 0.0714534885 -0.0507927224
-0.0205719943 0.0510920029 -0.0746667738
-0.0092462563 0.0590180378 -0.0567523954
0.0205414861 0.0818147791 -0.0272000452
0.0294499143 0.0888107332 -0.0199673814
-0.0376624640 0.0383852103 -0.0949778055
0.0169596997 0.0790604698 -0.0306351474
-0.0121401957 0.0570191317 -0.0615670888
-0.0250813075 0.0479523980 -0.0819445418
-0.0393882884 0.0366353877 -0.0928265926
-0.0286878323 0.0460273262 -0.0930417713
-0.0215025381 0.0496541191 -0.0690548980
0.0034692583 0.0695535078 -0.0513790880
0.0396879573 0.0007708754 0.0361454375
-0.0014804130 0.0005960243 0.0028125260
-0.0310161390 -0.0034530602 -0.0213491525
0.0103365482 0.0006649094 0.0123815775
-0.0301144812 -0.0276277475 -0.0302938476
-0.0325738922 -0.0341737561 -0.0482270005
0.0125507965 -0.0484383039 -0.0638479720
0.0224285759 -0.0459068043 -0.0648477042
0.0224855374 -0.0437275318 -0.0529183343
0.0369350840 -0.0379322114 -0.0428454672
0.1009469452 -0.0105034320 0.0114559434
0.0496365992 -0.0311381123 -0.0246187900
0.1029172535 -0.0093093939 0.0150558517
0.0561724357 -0.0287961113 -0.0216028156
0.0405245931 -0.0376670545 -0.0468189015
0.1039230744 -0.0093077149 0.0135420486
0.0294999481 -0.0391657232 -0.0383879219
0.0345299973 -0.0381842615 -0.0405932752
0.0231465767 -0.0424219291 -0.0467207481
0.0852735180 -0.0165809148 0.0016806040
0.0444118863 -0.0347140385 -0.0364234909
0.0721634409 -0.0228973890 -0.0132939804
0.0264323802 -0.0410765679 -0.0442784895
0.1155310925 -0.0046274261 0.0217698587
0.0805363898 0.1095778763 0.0123776823
-0.0390549082 -0.0384872239 -0.1150760880
-0.0390377303 -0.0371972928 -0.0995482339
-0.0386022557 -0.0350486125 -0.0777027367
-0.0521767785 -0.0098555858 -0.0867956753
-0.0521169257 -0.0113143196 -0.0897797055
-0.0544936507 -0.0035054457 -0.1100197579
-0.0501116993 -0.0175162375 -0.0868748181
-0.0461294310 0.0024594287 -0.0416650560
-0.0512354321 -0.0002960041 -0.0698450978
-0.0370956561 -0.0252397358 -0.0387742747
-0.0401535973 -0.0211447127 -0.0401919443
-0.0339193115 -0.0196600638 -0.0285312463
-0.0456600723 0.0099063492 -0.0460618346
0.0487048277 -0.0363460360 -0.0572459581
0.0262360613 -0.0450179504 -0.0675711312
0.0591810555 -0.0313125559 -0.0430914169
0.0140864702 -0.0520715509 -0.0954587648
0.0182426027 -0.0484736890 -0.0747407014
0.0234160157 -0.0482392099 -0.0889870816
0.0685602125 -0.0285034253 -0.0464299193
0.0273397894 -0.0459065063 -0.0794645553
0.0230419633 -0.0463448141 -0.0699265016
0.0143881850 -0.0516853008 -0.0927749659
0.0489460195 -0.0369645993 -0.0638484235
0.0522038141 -0.0352333503 -0.0578809641
0.0654210489 -0.0299272433 -0.0498746629
0.0274906027 -0.0456857514 -0.0778618723
0.0164267026 -0.0491867769 -0.0756905748
0.0383129888 -0.0415321426 -0.0731087538
0.1084108521 -0.0112700373 -0.0106383369
0.0607435901 -0.0309783741 -0.0449098789
0.0531526555 -0.0351672657 -0.0602761359
0.0054490087 -0.0528658653 -0.0878308285
-0.0253607309 -0.0390351137 -0.0451625484
0.0629866403 0.1029932617 0.0236217035
0.0607983183 0.1015834427 0.0262578398
0.0739000718 0.1077045016 0.0174931484
-0.0271411620 -0.0325547140 -0.0328571327
-0.0359333683 -0.0307409477 -0.0483428323
0.0074170484 -0.0522515018 -0.0839129019
-0.0401876429 -0.0129509273 -0.0325244544
0.0697112106 0.1082673625 0.0123233746
0.1245407129 0.0762064616 0.0278591201
0.0440133176 -0.0071619766 0.0337981224
-0.0154111770 -0.0376019993 -0.0299131172
0.0025888123 -0.0285947399 -0.0108398594
0.0099872899 -0.0233050440 -0.0013232113
0.0168186325 -0.0196658212 0.0061487079
0.0420260070 -0.0112836078 -0.1209988509
0.0330813310 -0.0024809941 -0.1209991986
0.0140310655 0.0173001176 -0.1209999169
0.0463964992 -0.0278440774 -0.1209989448
0.0139446351 0.0127941613 -0.1210000190
0.0409657718 -0.0221360957 -0.1209991481
0.0500443187 -0.0173411266 -0.1209984998
0.0381832686 0.0000790459 -0.1209988372
0.0142613978 0.0205026994 -0.1209998341
0.0154877523 0.0128831818 -0.1209999244
0.0000329326 0.0365441600 -0.1210003433
0.0115652214 0.0399311121 -0.1210005769
0.0336046020 0.0230283203 -0.1210002849
0.0280491540 0.0310393284 -0.1210003387
0.0497468329 0.0127270983 -0.1210000600
0.0341155735 0.0137501205 -0.1209993531
0.0009945594 0.0404758499 -0.1210005811
0.0278536973 0.0201225687 -0.1209997445
0.0491869301 -0.0001136256 -0.1209985888
-0.0096392598 0.0481696873 -0.1210008683
0.0271374796 0.0205814712 -0.1209997567
0.0387578818 0.0167513056 -0.1209999953
0.0375166619 0.0303350466 -0.1209999827
0.0115922815 0.0432383299 -0.1210000909
0.0443129444 0.0307412011 -0.1209992975
0.0026276291 0.0452411999 -0.1210005546
0.0271398615 -0.0074856092 -0.1209995747
0.0212931510 -0.0144659220 -0.1209995646
0.0032521472 0.0226391533 -0.1210003143
0.0008216960 0.0283317029 -0.1210004246
-0.0029373135 0.0330181288 -0.1210005402
0.0186521676 -0.0107120212 -0.1209996520
0.0290022986 -0.0228621573 -0.1209993435
0.0397324325 -0.0361637419 -0.1209990144
0.0392731767 -0.0311589328 -0.1209990876
0.0209902834 -0.0050906211 -0.1209996937
0.0013257206 -0.0302613572 -0.1209990511
0.0048684891 -0.0411350355 -0.1209993912
0.0038312403 -0.0429393612 -0.1209986315
-0.0082794790 0.0165648833 -0.1210004243
0.0120939966 -0.0330465180 -0.1210040904
0.0031192913 -0.0138972524 -0.1210021175
-0.0065705151 0.0188621217 -0.1210015866
-0.0047852985 0.0177046332 -0.1210023300
0.0117756901 0.0530729419 -0.1209981759
0.0026025996 0.0538386191 -0.1209989058
-0.0474550845 0.0239841195 -0.1209889585
-0.0477902933 0.0232571344 -0.1209880789
-0.0378151113 -0.0078159617 -0.1209682333
-0.0418463907 -0.0328907460 -0.1209493909
-0.0375534942 -0.0048720235 -0.1209706824
-0.0411273224 -0.0325121493 -0.1209489391
-0.0277486517 0.0103683711 -0.1209739077
-0.0296225959 0.0020712177 -0.1209682769
-0.0160306411 0.0341527268 -0.1210001090
-0.0138633276 -0.0216260247 -0.1209974096
-0.0229836435 -0.0261643541 -0.1209985728
-0.0126862534 -0.0383709598 -0.1209965210
-0.0183924784 0.0235147526 -0.1210000070
-0.0093737093 -0.0383376243 -0.1209960296
-0.0155685851 -0.0052815572 -0.1209983598
-0.0185731243 -0.0024597275 -0.1209989270
-0.0178418029 0.0040231577 -0.1209990944
-0.0216782747 -0.0412619377 -0.1209977353
-0.0360519426 0.0101190377 -0.1209949790
-0.0441338690 -0.0153652047 -0.1209763837
-0.0240528704 0.0332378064 -0.1209918427
-0.0260963017 0.0469260026 -0.1210072362
-0.0037994144 -0.0337371453 -0.1209973877
-0.0042449097 -0.0127322553 -0.1209988941
-0.0094762777 0.0153691253 -0.1209998208
-0.0112106291 0.0014303182 -0.1209983444
-0.0078506439 -0.0005071917 -0.1209989849
-0.0010058643 -0.0510734926 -0.1209967141
-0.0076350443 -0.0299360683 -0.1209967783
-0.0108002238 0.0121109613 -0.1209992600
-0.0034821961 0.0209607216 -0.1210013934
0.0156471316 -0.0252490591 -0.1210019834
0.0060526861 -0.0096642942 -0.1210028639
0.0049424800 -0.0044431221 -0.1210024362
0.0089495418 -0.0162898902 -0.1210028956
0.0171730150 -0.0390745004 -0.1210036016
0.0156859850 -0.0326485790 -0.1210031167
0.0177870619 -0.0379326848 -0.1210032138
0.0126585154 -0.0089797129 -0.1210004889
-0.0450143009 0.0074558030 -0.1209973207
-0.0507741117 -0.0016146529 -0.1209965437
-0.0470668097 0.0029368803 -0.1209973226
-0.0522253456 0.0102187456 -0.1209751040
-0.0398404635 0.0248504492 -0.1209844102
-0.0311822558 0.0353620106 -0.1209904871
-0.0258036547 -0.0048300366 -0.1209805651
-0.0324882251 -0.0333324320 -0.1209603675
-0.0325675097 -0.0282697922 -0.1209580594
-0.0356203568 -0.0357117968 -0.1209466999
-0.0345046262 -0.0269937940 -0.1209485541
-0.0299079249 -0.0430130378 -0.1209760856
-0.0256966963 -0.0249645902 -0.1209887747
