0.0031161817 -0.0080308488 0.0001387827
0.0059092430 -0.0043014001 0.0001355243
-0.0041056517 -0.0075786984 0.0001438627
-0.0097637713 -0.0134087938 0.0001498918
-0.0052093984 -0.0139531254 0.0001467740
-0.0014271680 -0.0049153823 0.0001410406
0.0005022615 -0.0114489982 0.0001418081
-0.0025668707 -0.0125488075 0.0001443951
0.0016882841 -0.0119201398 0.0001411053
-0.0036014627 -0.0174635642 0.0001467727
0.0010633079 -0.0099835267 0.0001409163
-0.0002191345 -0.0091945394 0.0001415836
-0.0001407211 -0.0061582277 0.0001405208
0.0011620236 -0.0089145819 0.0001404906
-0.0071774967 -0.0186439467 0.0001497534
-0.0037703814 -0.0161055352 0.0001464450
-0.0090901635 -0.0153156320 0.0001500358
-0.0086349210 -0.0128376252 0.0001488851
-0.0066047991 -0.0151630403 0.0001481854
-0.0015373742 -0.0037520728 0.0001407350
0.0042916250 -0.0077179455 0.0001378278
-0.0040210159 -0.0188829655 0.0001475468
-0.0075536771 -0.0071459060 0.0001462163
-0.0010524517 -0.0121259990 0.0001431583
-0.0051489052 -0.0078199693 0.0001446981
-0.0077867907 -0.0217279798 0.0001512165
0.0028725467 -0.0030459395 0.0001373075
0.0060955175 -0.0073820636 0.0001364101
-0.0038418726 -0.0082181127 0.0001438835
-0.0014702377 -0.0099706556 0.0001427467
-0.0022378272 -0.0125354999 0.0001441524
-0.0012761237 -0.0129662279 0.0001435986
0.0030053701 -0.0031599683 0.0001372491
-0.0088584769 -0.0236248556 0.0001526210
0.0061888533 -0.0068134459 0.0001361541
-0.0004922868 -0.0040576545 0.0001400794
-0.0081620786 -0.0207756816 0.0001511727
-0.0090713697 -0.0230326993 0.0001525790
-0.0030352129 -0.0028102018 0.0001415076
-0.0004710475 -0.0098615391 0.0001419870
0.0075092825 -0.0040098017 0.0001342690
-0.0049177843 -0.0152988420 0.0001470087
-0.0005788117 -0.0042248597 0.0001401975
0.0079316854 -0.0035533680 0.0001338119
-0.0087173421 -0.0195323137 0.0001511629
-0.0086708735 -0.0240952776 0.0001526410
0.0036718731 -0.0072075641 0.0001381075
-0.0061407799 -0.0141374430 0.0001475096
-0.0078706468 -0.0086866632 0.0001469563
-0.0085583691 -0.0119135821 0.0001485235
0.0104153271 -0.0181956192 0.0043664740
0.0104185756 -0.0121967912 0.0058793591
0.0104405247 -0.0178474688 0.0100455968
0.0104272753 -0.0215506656 0.0065978062
0.0104241376 -0.0218994965 0.0058505712
0.0103977733 -0.0183222527 0.0004253508
0.0103982169 -0.0098280906 0.0016383425
0.0104125360 -0.0156654107 0.0040742409
0.0104210892 -0.0109131093 0.0066096576
0.0104326746 -0.0217670788 0.0077765674
0.0104282999 -0.0179743273 0.0072958346
0.0104166906 -0.0109837385 0.0056169890
0.0104305954 -0.0170200484 0.0079341761
0.0104120915 -0.0168487196 0.0038197141
0.0104206401 -0.0119157123 0.0063777931
0.0104076313 -0.0220388128 0.0021419690
0.0104144858 -0.0071879871 0.0056217940
0.0104164438 -0.0139586787 0.0051717318
0.0103902306 -0.0068357790 0.0002452040
0.0104296907 -0.0115006711 0.0084556672
0.0104190322 -0.0080066558 0.0065308987
0.0104585648 -0.0186291314 0.0139763387
0.0104291700 -0.0158273274 0.0077718945
0.0104076312 -0.0079501266 0.0039893692
0.0104053686 -0.0177097944 0.0022037546
0.0104721953 -0.0158032188 0.0173942938
0.0104437038 -0.0134215206 0.0113367217
0.0104089679 -0.0223021853 0.0024062537
0.0104393805 -0.0121527960 0.0105365109
0.0103900183 -0.0068352710 0.0001978204
0.0104235224 -0.0134434278 0.0068218599
0.0104015313 -0.0064248864 0.0028255951
0.0103967752 -0.0045874158 0.0020032099
0.0104033534 -0.0228289587 0.0010819438
0.0104441484 -0.0172843060 0.0109295987
0.0104332326 -0.0144480917 0.0088610371
0.0104206391 -0.0090216529 0.0067570413
0.0104034762 -0.0178480766 0.0017625289
0.0104306667 -0.0217500281 0.0073298928
0.0104111602 -0.0191930516 0.0033040814
0.0104496821 -0.0124916282 0.0127952182
0.0103994866 -0.0223482414 0.0002804642
0.0104074628 -0.0131318668 0.0032722487
0.0104184219 -0.0222727744 0.0045237666
0.0104352810 -0.0214147689 0.0084054865
0.0104280512 -0.0225398518 0.0088610859
0.0104137393 -0.0239643060 0.0090226553
0.0103947753 -0.0253946105 0.0129521201
0.0104594358 -0.0185300969 0.0157075185
0.0104093763 -0.0249414074 0.0046602453
0.0103916673 -0.0250851956 0.0180156389
0.0104241302 -0.0221747819 0.0150437200
0.0104112917 -0.0231431514 0.0177033951
0.0104129611 -0.0235188624 0.0132808792
0.0104117778 -0.0234338666 0.0149421055
0.0104265734 -0.0221642639 0.0131254108
0.0104639145 -0.0177822490 0.0181119362
0.0104004996 -0.0252710051 0.0092619048
0.0104200269 -0.0222018964 0.0181886353
0.0104190290 -0.0231932771 0.0109503388
0.0104016717 -0.0262546139 0.0003070021
0.0103999877 -0.0249170252 0.0125584155
0.0059885308 -0.0013958026 0.0162932888
0.0037946721 -0.0021734610 0.0054289998
-0.0005632307 -0.0024131189 0.0022056157
0.0011816834 -0.0024948360 0.0009970470
0.0035340912 -0.0020428904 0.0072744501
-0.0024552470 -0.0022937522 0.0039487528
0.0052557103 -0.0009294861 0.0228773807
-0.0015891941 -0.0023495739 0.0031342115
0.0070949354 -0.0018220220 0.0102605491
-0.0002039879 -0.0014469772 0.0157832987
0.0062929608 -0.0013895856 0.0163704226
0.0074448916 -0.0006738597 0.0263988691
-0.0025750228 -0.0016542131 0.0129486400
0.0058916925 -0.0004343287 0.0298207686
0.0062601786 -0.0005349441 0.0283930156
-0.0009262598 -0.0022613307 0.0043529875
0.0060215898 -0.0004532426 0.0295503221
-0.0014599358 -0.0017267166 0.0118910112
0.0054209032 -0.0005706755 0.0279188525
0.0038591996 -0.0006577402 0.0267471109
0.0085447297 -0.0025018857 0.0006483841
0.0058901099 -0.0007864829 0.0248673822
0.0039684374 -0.0017800016 0.0109575563
0.0074632327 -0.0016464875 0.0127171560
-0.0011331356 -0.0019091037 0.0093144615
0.0082959389 -0.0013198123 0.0172839892
0.0064564320 -0.0014300117 0.0157962448
0.0063900958 -0.0014614710 0.0153559827
0.0074726907 -0.0006444476 0.0268116404
0.0078366807 -0.0024822064 0.0009491869
0.0085618396 -0.0020161779 0.0074798241
0.0098254611 -0.0019089875 0.0089447573
-0.0091999348 -0.0024612947 0.0018206288
0.0022938825 -0.0016148519 0.0133373129
0.0003810200 -0.0017205546 0.0119153058
-0.0032222432 -0.0025490907 0.0003831239
0.0023747079 -0.0018498262 0.0100294001
0.0015598599 -0.0022379697 0.0045973422
0.0022342661 -0.0015006998 0.0149450096
0.0019897408 -0.0014235782 0.0160380963
0.0077889691 -0.0023738851 0.0024744636
0.0013907669 -0.0024865311 0.0011067799
-0.0080791111 -0.0024365711 0.0021304145
0.0009433500 -0.0023908398 0.0024679451
-0.0002852979 -0.0021456532 0.0059583999
0.0074615715 -0.0012315802 0.0185533456
0.0073765515 -0.0021627261 0.0054586241
0.0014575719 -0.0011304231 0.0201796814
-0.0002457194 -0.0020302164 0.0075808059
0.0033481751 -0.0016453343 0.0128728191
0.0031267414 -0.0017266729 0.0117362040
0.0032415975 -0.0023000529 0.0036670855
0.0030800294 -0.0022594295 0.0042439735
0.0033412428 -0.0008805272 0.0236309154
0.0054110468 -0.0008947350 0.0233609306
0.0082443041 -0.0017879084 0.0107014482
-0.0022997435 -0.0015578073 0.0142953657
-0.0084153673 -0.0025512886 0.0005281801
-0.0029703300 -0.0023590312 0.0030479853
0.0091385099 -0.0018353537 0.0100037759
0.0035328698 -0.0015982873 0.0135283279
0.0083308336 -0.0013077841 0.0174519972
0.0020859026 -0.0011915780 0.0192981777
0.0036687374 -0.0021679395 0.0055109331
0.0040553973 -0.0009437700 0.0227171352
-0.0027669117 -0.0022246485 0.0049313349
0.0040311280 -0.0012807515 0.0179779381
-0.0029933544 -0.0017405631 0.0117482059
-0.0032041137 -0.0021781931 0.0055995953
-0.0041648771 -0.0024988835 0.0011212853
-0.0045421532 -0.0024220814 0.0022143759
0.0076585638 -0.0003657460 0.0307255897
0.0025856836 -0.0016715178 0.0125303561
0.0050640700 -0.0019930658 0.0079234446
-0.0070937755 -0.0024621876 0.0017367005
0.0063618589 -0.0003222113 0.0313818937
-0.0009557884 -0.0238197571 0.0235961072
-0.0066317002 -0.0178228627 0.0425679824
0.0039450402 -0.0244318508 0.0216692830
-0.0050518319 -0.0177789438 0.0427105290
-0.0085410016 -0.0209272761 0.0327360333
-0.0047862880 -0.0249423061 0.0200339166
-0.0061152553 -0.0169558615 0.0453138138
0.0026936501 -0.0204817668 0.0341713634
-0.0029415737 -0.0182945180 0.0410830558
0.0000411886 -0.0245086738 0.0214174057
-0.0007856922 -0.0223742595 0.0281725266
-0.0052442588 -0.0184810259 0.0404875057
-0.0032608815 -0.0197762239 0.0363916794
0.0045782196 -0.0243862344 0.0218150992
-0.0043693462 -0.0250575194 0.0196701101
-0.0054172497 -0.0244799842 0.0214960960
0.0008803531 -0.0199840788 0.0357428739
-0.0030631925 -0.0201346589 0.0352574138
0.0045525171 -0.0249667262 0.0199773676
-0.0040971635 -0.0187993757 0.0394822487
-0.0025366323 -0.0219363658 0.0295548836
0.0062634015 -0.0225673483 0.0275769302
0.0018655045 -0.0249273668 0.0200959957
-0.0063384306 -0.0201667418 0.0351485682
-0.0010553629 -0.0189301286 0.0390750830
-0.0008667041 -0.0231562928 0.0256966478
0.0071916880 -0.0245332626 0.0213554583
0.0016793602 -0.0217804389 0.0300578760
-0.0058244888 -0.0171491266 0.0447026366
0.0013471807 -0.0201887617 0.0350959427
-0.0055338673 -0.0193424916 0.0377597021
0.0012269170 -0.0210196548 0.0324653002
0.0042618184 -0.0213079510 0.0315593808
-0.0048511199 -0.0201345259 0.0352538608
-0.0066621648 -0.0183559395 0.0408803424
-0.0029987264 -0.0231172294 0.0258155725
-0.0051978497 -0.0170271135 0.0450902891
-0.0045310115 -0.0243219531 0.0219983482
-0.0042634156 -0.0226776165 0.0272044531
0.0037415824 -0.0215210105 0.0308837378
-0.0067310169 -0.0190046965 0.0388264061
-0.0068422766 -0.0229115992 0.0264579970
-0.0050374733 -0.0237484239 0.0238128554
-0.0048461038 -0.0209943915 0.0325317776
0.0008477743 -0.0203039534 0.0347301678
-0.0069109165 -0.0199570820 0.0358110201
-0.0051767414 -0.0204393804 0.0342880528
0.0026551253 -0.0235849043 0.0243476120
-0.0012491999 -0.0210162267 0.0324706486
0.0016413011 -0.0250746965 0.0196290927
-0.0032057794 -0.0246838467 0.0208556398
-0.0025907760 -0.0186951896 0.0398154212
-0.0026688535 -0.0194750848 0.0373463175
-0.0040500356 -0.0201342288 0.0352565819
0.0013881699 -0.0245595556 0.0212593221
0.0088196697 -0.0244440115 0.0216416211
-0.0097208475 -0.0237591737 0.0237684144
-0.0040075183 -0.0241494893 0.0225454840
-0.0051181809 -0.0222910986 0.0284261607
0.0057587581 -0.0222688013 0.0285209246
0.0096679251 -0.0249459118 0.0200546304
-0.0016463663 -0.0179128506 0.0422941872
-0.0070975745 -0.0200734839 0.0354421091
-0.0086683299 -0.0241327261 0.0225881915
-0.0074761031 -0.0191573578 0.0383414669
-0.0078715389 -0.0211883516 0.0319110293
-0.0067483067 -0.0196434350 0.0368043002
-0.0014504647 -0.0212285323 0.0317981012
-0.0028209111 -0.0216240145 0.0305430688
-0.0042777508 -0.0157219942 0.0492239770
-0.0018271885 -0.0194703596 0.0373631470
0.0017173483 -0.0230186096 0.0261382582
-0.0077464237 -0.0216314830 0.0305084774
0.0022914525 -0.0226132568 0.0274227679
0.0034328895 -0.0250488112 0.0197150205
0.0047964645 -0.0203205228 0.0001544979
0.0081357723 -0.0194015289 0.0001550857
-0.0018756995 -0.0180985444 0.0001473826
0.0085327369 -0.0047360428 0.0001338459
0.0086833116 -0.0223039152 0.0001596516
0.0043701145 -0.0153598570 0.0001469889
0.0035289931 -0.0227972558 0.0001573900
0.0058937855 -0.0138842387 0.0001457108
-0.0066666960 -0.0260524551 0.0001562533
-0.0028496429 -0.0253339080 0.0001574110
0.0009546849 -0.0183595588 0.0001494032
0.0099119966 -0.0216839000 0.0001594552
-0.0003987668 -0.0253816582 0.0001588997
0.0024828304 -0.0262397132 0.0001618240
0.0018036014 -0.0239267606 0.0001580448
0.0002224265 -0.0241990384 0.0001575280
-0.0068109337 -0.0250071126 0.0001546394
0.0055843373 -0.0161786304 0.0001488905
0.0008720979 -0.0201234744 0.0001519377
0.0034635252 -0.0172091743 0.0001491714
0.0054778621 -0.0108238968 0.0001409898
0.0099166586 -0.0152759425 0.0001500770
0.0096391183 -0.0106385689 0.0001431274
0.0075156705 -0.0159225045 0.0001496336
-0.0037185925 -0.0204339955 0.0001497347
0.0009428902 -0.0206853258 0.0001528012
0.0045100533 -0.0141606802 0.0001453144
0.0077312486 -0.0116266879 0.0001434695
0.0044656476 -0.0213649406 0.0001558354
-0.0070074038 -0.0253054948 0.0001549625
0.0033157016 -0.0182318467 0.0001505830
0.0077598404 -0.0189263319 0.0001541724
0.0078290518 -0.0182223245 0.0001531818
0.0012162707 -0.0226824510 0.0001558831
0.0103587490 -0.0159955155 0.0001513863
-0.0000166558 -0.0209561024 0.0001526421
0.0089371290 -0.0042534934 0.0001333736
0.0054398909 -0.0219282002 0.0001572240
0.0017907871 -0.0132154113 0.0001423564
0.0057397135 -0.0157767448 0.0001483921
-0.0043140688 -0.0215175925 0.0001509764
-0.0022786234 -0.0182292001 0.0001473406
0.0035002200 -0.0208596768 0.0001545369
0.0047314232 -0.0208649076 0.0001552572
-0.0005787106 -0.0218553036 0.0001536331
0.0028199728 -0.0241204261 0.0001589166
0.0064278796 -0.0071601616 0.0001361762
-0.0026349291 -0.0185091394 0.0001475442
0.0058596525 -0.0220452079 0.0001576383
-0.0045232946 -0.0204579300 0.0001493039
-0.0092403288 -0.0152948536 0.0403023658
-0.0091335805 -0.0165330155 0.0420374118
-0.0088908544 -0.0143579243 0.0464959680
-0.0095332648 -0.0190714609 0.0348030539
-0.0093945398 -0.0163234190 0.0375060626
-0.0096559403 -0.0180005186 0.0327729260
-0.0103482902 -0.0243079895 0.0200447543
-0.0090336988 -0.0156307460 0.0438728492
-0.0103207096 -0.0225265649 0.0207092081
-0.0094469773 -0.0180724965 0.0364112622
-0.0093961206 -0.0184398968 0.0372607546
-0.0087928246 -0.0141805303 0.0482245252
-0.0100660323 -0.0179199395 0.0256264129
-0.0091710221 -0.0174416317 0.0412907034
-0.0103707942 -0.0176492592 0.0203371306
-0.0098773086 -0.0181048749 0.0289000177
-0.0098905996 -0.0217836337 0.0282896887
-0.0092088778 -0.0144681230 0.0409361326
-0.0098926564 -0.0179986144 0.0286431785
-0.0095246397 -0.0148188346 0.0353910116
-0.0092487983 -0.0174412187 0.0399337987
-0.0097810554 -0.0171404237 0.0306785447
-0.0088893334 -0.0147177109 0.0464854933
-0.0100962500 -0.0200580604 0.0248792568
-0.0103516261 -0.0215730201 0.0202679064
-0.0096686268 -0.0164501559 0.0327110760
-0.0102643076 -0.0221943406 0.0217274199
-0.0095765523 -0.0184219359 0.0341146423
-0.0099957211 -0.0178635945 0.0268589154
-0.0099790622 -0.0154306631 0.0273998433
-0.0101466304 -0.0151429543 0.0245059071
-0.0103270926 -0.0215686531 0.0206963873
-0.0103896619 -0.0150518991 0.0202751462
-0.0103792039 -0.0028730351 0.0027491188
-0.0104411538 -0.0039115760 0.0024690628
-0.0103085544 -0.0073955051 0.0120566099
-0.0100234607 -0.0034458094 0.0146521508
-0.0094901453 -0.0036416799 0.0314527750
-0.0095273057 -0.0044818856 0.0316269278
-0.0103308984 -0.0136886900 0.0212772054
-0.0101529522 -0.0098455121 0.0207271012
-0.0099506114 -0.0083871241 0.0246873335
-0.0104473521 -0.0121070840 0.0151850400
-0.0102816672 -0.0030630081 0.0060645266
-0.0101776572 -0.0074376026 0.0161707511
-0.0096634618 -0.0056831440 0.0293084081
-0.0102131726 -0.0113639355 0.0212563250
-0.0095473546 -0.0058801710 0.0332091928
-0.0095277451 -0.0062403253 0.0343828242
-0.0099069434 -0.0025753706 0.0168843930
-0.0104113836 -0.0095090122 0.0122054451
-0.0097322525 -0.0044456980 0.0252322040
-0.0094080051 -0.0034449802 0.0336830662
-0.0093289959 -0.0040587019 0.0370929189
-0.0100920409 -0.0089055872 0.0211303579
-0.0103991552 -0.0110679506 0.0150388698
-0.0096188461 -0.0059189335 0.0310594552
-0.0101193389 -0.0049975510 0.0141311731
-0.0098819038 -0.0044405544 0.0205963145
-0.0102486220 -0.0095879293 0.0173629412
-0.0097699138 -0.0016787290 0.0197096886
-0.0102698009 -0.0076214146 0.0136108145
-0.0095136300 -0.0022009986 0.0284575136
-0.0103932703 -0.0069207194 0.0086891010
-0.0090125028 -0.0022314133 0.0440021687
-0.0094263107 -0.0053258218 0.0360792505
-0.0097112873 -0.0015770560 0.0213625094
-0.0095624562 -0.0036735930 0.0292669071
-0.0098427486 -0.0039223935 0.0209910571
-0.0102997533 -0.0038447971 0.0067365280
-0.0103485823 -0.0069614579 0.0101351849
-0.0103421285 -0.0116908439 0.0177833869
-0.0100833864 -0.0084825753 0.0207317576
-0.0100629650 -0.0034901929 0.0135004298
-0.0096843697 -0.0032761897 0.0248709837
-0.0098600284 -0.0086376998 0.0278831499
-0.0097386739 -0.0048242213 0.0256297913
-0.0092369962 -0.0008658205 0.0349092180
-0.0103470545 -0.0113760252 0.0171352271
-0.0100712882 -0.0021535780 0.0111379205
-0.0096310329 -0.0075794835 0.0332979046
-0.0103284036 -0.0069046860 0.0106697737
-0.0096382408 -0.0055961669 0.0299513506
-0.0100634082 -0.0023968880 0.0117648037
-0.0090899064 -0.0031995601 0.0431333546
-0.0098974853 -0.0021646958 0.0165300766
-0.0096616270 -0.0079163065 0.0328823027
-0.0104797919 -0.0140036497 0.0171689050
-0.0100253118 -0.0040128422 0.0154879651
-0.0098318114 -0.0044666960 0.0221865364
-0.0099897959 -0.0059195900 0.0195893163
-0.0095671314 -0.0036004389 0.0290071179
-0.0096774930 -0.0036628208 0.0256925678
-0.0100886268 -0.0108437620 0.0242884972
-0.0101420447 -0.0110061162 0.0228923130
-0.0095905306 -0.0039712187 0.0288674921
-0.0099737093 -0.0036886512 0.0165731190
-0.0099215724 -0.0094809785 0.0273081123
-0.0101551842 -0.0114175005 0.0231339079
-0.0095226641 -0.0062519539 0.0345582636
-0.0100697603 -0.0047851940 0.0153298760
-0.0088909550 -0.0104562520 0.0465626417
-0.0097008359 -0.0105642952 0.0323881482
-0.0096107966 -0.0087458340 0.0339870888
-0.0086449649 -0.0118625443 0.0508495615
-0.0089014601 -0.0122223431 0.0463562361
-0.0087332583 -0.0021449626 0.0494285521
-0.0096723347 -0.0129376154 0.0328566053
-0.0094831922 -0.0092427391 0.0362138490
-0.0099145539 -0.0136332273 0.0286088236
-0.0092506739 -0.0081534154 0.0402968929
-0.0092200698 -0.0067118653 0.0408508882
-0.0102422033 -0.0131684382 0.0228808170
-0.0091343751 -0.0125248445 0.0422763030
-0.0089246761 -0.0138714907 0.0459288821
-0.0095315223 -0.0081525732 0.0353819888
-0.0090436685 -0.0123259998 0.0438662300
-0.0092097683 -0.0117823780 0.0409663898
-0.0088394381 -0.0035751731 0.0475521080
-0.0093978169 -0.0103977310 0.0376931821
-0.0088371239 -0.0084192966 0.0475307224
-0.0097721967 -0.0119671109 0.0311213948
-0.0094275626 -0.0119984928 0.0371521750
-0.0097929715 -0.0126191424 0.0307495009
-0.0092990349 -0.0130906138 0.0393874880
-0.0089330828 -0.0090454489 0.0458434184
-0.0087739365 -0.0007156613 0.0487349337
-0.0090583614 -0.0112941693 0.0436222830
-0.0089306193 -0.0075914185 0.0459051062
-0.0096773361 -0.0107409511 0.0327971444
-0.0102456625 -0.0132665071 0.0228190282
-0.0093457681 -0.0054070660 0.0386678071
-0.0087570647 -0.0120393728 0.0488855292
-0.0088888790 -0.0058835798 0.0466573891
-0.0088764085 -0.0118816442 0.0467989975
-0.0100182820 -0.0115798019 0.0268197904
-0.0095525885 -0.0136632829 0.0349429228
-0.0093773347 -0.0080915676 0.0380810888
-0.0091890418 -0.0112350819 0.0413361001
-0.0092396257 -0.0127399858 0.0404316440
-0.0098402572 -0.0100421370 0.0299549123
-0.0089337647 -0.0040986498 0.0458946832
-0.0094576744 -0.0083281517 0.0366721019
-0.0088446065 -0.0115547649 0.0473597165
-0.0095714873 -0.0094516976 0.0346659942
-0.0096447637 -0.0145103844 0.0333190116
-0.0099643290 -0.0141971953 0.0277305422
-0.0094347663 -0.0098598568 0.0370534307
0.0089830240 -0.0004690837 0.0403049639
0.0090557014 -0.0005073260 0.0317810735
0.0087055091 -0.0000051532 0.0430063417
0.0098023776 -0.0016497934 0.0145820455
-0.0042870612 -0.0004328163 0.0364814992
-0.0002635809 -0.0003212124 0.0358283016
-0.0051101689 -0.0002446822 0.0405939618
0.0079520293 -0.0000655311 0.0350187562
-0.0061115352 -0.0015043437 0.0175230246
-0.0031877208 -0.0000948080 0.0421027864
-0.0033094552 -0.0012847689 0.0197434313
-0.0000349584 0.0000475929 0.0426272938
-0.0050708751 -0.0009087081 0.0280434206
0.0020817002 -0.0002311148 0.0359198845
0.0001322808 -0.0011095878 0.0206880888
0.0027406869 -0.0000910291 0.0381101875
-0.0068850052 -0.0007951743 0.0314282510
0.0016943084 -0.0004356558 0.0323277704
-0.0023724275 -0.0005144360 0.0336296775
-0.0051478633 -0.0016795980 0.0135571199
0.0012163501 -0.0007444003 0.0268324482
-0.0036298567 -0.0016247361 0.0135512424
-0.0083345321 -0.0006853444 0.0344932926
-0.0011963077 -0.0011979915 0.0199315208
0.0003344649 -0.0010748170 0.0212052757
-0.0050166158 -0.0008000206 0.0300560849
-0.0016554311 -0.0002149665 0.0387862124
-0.0059961832 -0.0018615661 0.0107066971
-0.0009099874 -0.0002185726 0.0382072068
-0.0100420347 -0.0023175049 0.0048810311
-0.0002804935 -0.0003460020 0.0353723600
-0.0037179142 -0.0003438592 0.0377690946
-0.0030453082 -0.0004662952 0.0349988714
-0.0046674907 -0.0008653376 0.0285848767
-0.0099439635 -0.0020982269 0.0089494126
0.0023375550 -0.0001502703 0.0372692354
-0.0086178473 -0.0012858015 0.0233628119
-0.0084079507 -0.0020458715 0.0088839186
0.0028943683 -0.0005758741 0.0288606076
-0.0026427427 -0.0000162118 0.0432115425
0.0004199094 -0.0000204156 0.0410328395
-0.0067599988 -0.0005402303 0.0361508343
-0.0084016530 -0.0016679123 0.0160079572
-0.0084580255 -0.0016343942 0.0166787561
0.0019561061 -0.0006574514 0.0279652190
-0.0083804159 -0.0001648565 0.0443412087
-0.0082996887 -0.0003175891 0.0414053157
0.0049537592 0.0000444840 0.0391489405
-0.0054964324 -0.0013025977 0.0209063322
0.0036878350 -0.0003195402 0.0331511804
-0.0084921535 -0.0012910112 0.0231783946
0.0025224990 -0.0000332485 0.0393495019
-0.0050148329 -0.0000646401 0.0439242248
-0.0076290209 -0.0016226877 0.0163312654
-0.0089287407 -0.0012220061 0.0247791151
-0.0055252709 -0.0004249617 0.0374784184
-0.0059000152 -0.0007820441 0.0310006859
-0.0012347343 -0.0000237220 0.0421047230
-0.0080822582 -0.0000402323 0.0464872515
-0.0033894616 -0.0006314314 0.0321202971
-0.0064590782 -0.0010510200 0.0263110006
-0.0077460537 -0.0011917193 0.0245396061
-0.0049955543 -0.0007034731 0.0318625443
-0.0087757750 -0.0010258444 0.0283738901
-0.0083715168 -0.0022752114 0.0045335671
-0.0017313446 -0.0008838163 0.0262236637
-0.0069163593 -0.0007712656 0.0319006639
-0.0066953955 0.0000222175 0.0467143797
-0.0081215376 -0.0007058904 0.0339597879
-0.0038896494 -0.0013186429 0.0195022822
-0.0022212891 -0.0006563144 0.0308502302
-0.0078807590 -0.0001116734 0.0450017383
0.0020145992 -0.0000674249 0.0390530933
-0.0086215844 -0.0004116449 0.0398520703
-0.0083084810 0.0000047351 0.0474904151
-0.0029704028 -0.0014558142 0.0162850793
-0.0073550456 -0.0016319158 0.0159694163
-0.0003668736 -0.0002690722 0.0368824782
-0.0060762103 -0.0002800226 0.0405896514
-0.0037474568 -0.0008748097 0.0277755558
-0.0010000931 -0.0012965050 0.0179390415
0.0036042959 -0.0004373569 0.0309864095
0.0007532467 -0.0009440167 0.0233851133
-0.0081879470 -0.0012295594 0.0241288505
0.0061471228 -0.0002683005 0.0324317481
-0.0095773054 -0.0019095582 0.0122563863
-0.0042918850 -0.0010843435 0.0241969251
0.0049966590 -0.0003915592 0.0308957069
-0.0077149782 -0.0016644015 0.0156034630
-0.0022831828 -0.0012272637 0.0201244867
-0.0035599830 -0.0015236022 0.0154107419
0.0046408592 -0.0002791643 0.0332593858
0.0011159297 0.0000288451 0.0414847863
-0.0035381032 -0.0007802730 0.0294150195
0.0053620946 0.0000800011 0.0500659294
0.0012673528 0.0000806528 0.0454488956
0.0034562280 0.0000942830 0.0523397243
0.0063907915 0.0000694182 0.0479292790
-0.0018054731 0.0001043689 0.0493330228
0.0075286791 0.0000465907 0.0420470848
-0.0013493469 0.0001053468 0.0501797077
-0.0044907716 0.0001145606 0.0493945883
0.0049840198 0.0000780597 0.0490063304
0.0014131917 0.0000761937 0.0442098246
0.0042496898 0.0000747464 0.0470930545
-0.0017699613 0.0000913214 0.0452466889
0.0026885413 0.0000879937 0.0494455475
-0.0010865640 0.0000976892 0.0480664226
0.0004490657 0.0001033227 0.0516576491
0.0075556167 0.0000406582 0.0402018222
0.0020436605 0.0000878129 0.0486287133
-0.0024244039 0.0001101661 0.0504381894
-0.0013904064 0.0001049704 0.0500122372
0.0053546312 0.0000538363 0.0417787338
0.0001649901 0.0001011137 0.0506241358
0.0035567285 0.0000812378 0.0483306652
0.0074668645 0.0000410796 0.0402305948
0.0082597198 0.0000317622 0.0382165147
-0.0076451192 0.0001293185 0.0503483899
0.0051067470 0.0000856721 0.0515594204
-0.0104606244 -0.0139914562 0.0135647637
-0.0104171261 -0.0231973118 0.0186476123
-0.0104489652 -0.0071410004 0.0050281244
-0.0104504619 -0.0172737770 0.0159543880
-0.0104618088 -0.0167824383 0.0166576786
-0.0104477334 -0.0100085552 0.0079414826
-0.0104434901 -0.0069460212 0.0042297805
-0.0104523185 -0.0115992959 0.0101265410
-0.0104526689 -0.0087387608 0.0071254583
-0.0104308638 -0.0146163880 0.0110150283
-0.0104559364 -0.0063200567 0.0049087646
-0.0104512714 -0.0061056443 0.0041772349
-0.0104284114 -0.0150499139 0.0112107692
-0.0104677922 -0.0132135841 0.0135123804
-0.0104524109 -0.0099930483 0.0084301070
-0.0104849663 -0.0161602112 0.0184972655
-0.0104513543 -0.0103100119 0.0086527326
-0.0104448657 -0.0101447434 0.0077765075
-0.0104086091 -0.0193838927 0.0118810624
-0.0104159035 -0.0126455353 0.0026160213
-0.0103950960 -0.0191400042 0.0043639729
-0.0104044692 -0.0188646831 0.0087161363
-0.0103835801 -0.0217434780 0.0034098133
-0.0104117015 -0.0144073455 0.0038422128
-0.0103948620 -0.0250387473 0.0156812795
-0.0104042791 -0.0232945073 0.0172076632
-0.0104382952 -0.0064734280 0.0023190249
-0.0103708788 -0.0240515218 0.0012647511
-0.0103919457 -0.0252490852 0.0145689601
-0.0104349564 -0.0090048507 0.0054876995
-0.0104109026 -0.0154115264 0.0053731290
-0.0104253282 -0.0089114918 0.0002876105
-0.0104270359 -0.0116116486 0.0064141474
-0.0104424223 -0.0048646130 0.0013504500
-0.0104210852 -0.0111667716 0.0024494280
-0.0103952602 -0.0230296474 0.0119926447
-0.0104360199 -0.0080081061 0.0041091277
-0.0103997940 -0.0193758578 0.0072703578
-0.0103958012 -0.0207025692 0.0077618538
-0.0103942667 -0.0203057799 0.0061924400
-0.0104241529 -0.0112912936 0.0042900271
-0.0104128409 -0.0162752130 0.0080584580
-0.0104267294 -0.0085590776 0.0003346341
-0.0104211398 -0.0150309461 0.0099715705
-0.0104062713 -0.0142177204 0.0006438231
-0.0103822771 -0.0204677250 0.0002565134
-0.0103963575 -0.0245649659 0.0155420723
-0.0103842117 -0.0203490873 0.0010349150
-0.0104186596 -0.0153492622 0.0092960110
-0.0103829365 -0.0256853564 0.0107186851
-0.0103720781 -0.0260083249 0.0056847254
-0.0103726347 -0.0248417819 0.0037126031
-0.0104215587 -0.0117802662 0.0038859964
-0.0103825933 -0.0246017372 0.0084383222
-0.0103924216 -0.0180738634 0.0009023291
-0.0104083170 -0.0201048502 0.0131269354
-0.0103976162 -0.0219208921 0.0110706070
-0.0104040525 -0.0204718757 0.0116156928
-0.0104212451 -0.0124379075 0.0049978313
-0.0104121525 -0.0174792207 0.0100345390
-0.0103986758 -0.0165202596 0.0011496685
-0.0104111184 -0.0189444783 0.0123369826
-0.0104150601 -0.0119130417 0.0007558512
-0.0046040642 -0.0256049796 0.0131547821
-0.0059684092 -0.0257241277 0.0112243111
0.0005075037 -0.0253290066 0.0175893349
-0.0100594464 -0.0261944064 0.0035802940
0.0063659253 -0.0254253164 0.0158974790
-0.0055686274 -0.0260837789 0.0053118466
0.0064491580 -0.0252487469 0.0187949064
-0.0048629349 -0.0253484384 0.0173716798
-0.0051690121 -0.0255225839 0.0145182581
-0.0036135806 -0.0254454078 0.0157560065
-0.0096337014 -0.0261651830 0.0040520588
-0.0004799390 -0.0255417128 0.0141156691
-0.0060811402 -0.0258774075 0.0087098219
-0.0088839909 -0.0257084211 0.0115372312
0.0039726717 -0.0254383188 0.0157291814
-0.0021766226 -0.0256393126 0.0125452614
-0.0094304290 -0.0258905335 0.0085575421
0.0075433720 -0.0253733128 0.0167290706
-0.0063860219 -0.0255468596 0.0141426636
-0.0011050967 -0.0256541930 0.0122807194
-0.0070102773 -0.0256376255 0.0126642135
-0.0073721062 -0.0261037251 0.0050184082
-0.0073476021 -0.0254084513 0.0164332679
-0.0081136973 -0.0256651184 0.0122336523
-0.0028696327 -0.0256596462 0.0122244984
-0.0002987741 -0.0257874263 0.0100780129
-0.0101335768 -0.0257488156 0.0108976061
-0.0078612177 -0.0254429351 0.0158767929
-0.0007252368 -0.0255303559 0.0143067630
-0.0009979810 -0.0255082659 0.0146745960
-0.0103912038 -0.0252837245 0.0185385471
0.0010445459 -0.0256332202 0.0125844796
-0.0035397728 -0.0258639406 0.0088829504
-0.0028227284 -0.0257145849 0.0113216051
-0.0086402735 -0.0261344014 0.0045386916
-0.0046028826 -0.0253177979 0.0178698399
-0.0038910569 -0.0252562848 0.0188663529
-0.0011881276 -0.0257008670 0.0115159718
0.0064999604 -0.0253744498 0.0167301003
0.0042026079 -0.0254354359 0.0157721727
0.0002714475 -0.0155509734 0.0498060391
0.0016984129 -0.0158969272 0.0487206368
-0.0015927457 -0.0154206694 0.0502023016
-0.0039656329 -0.0150336027 0.0514093454
0.0091682855 -0.0239431577 0.0232328315
0.0036848734 -0.0147524737 0.0523747429
0.0084295826 -0.0230546071 0.0260482826
0.0031542629 -0.0180378624 0.0419338279
0.0015588431 -0.0177148291 0.0429448299
0.0021884724 -0.0171694372 0.0446832024
0.0014700973 -0.0162865996 0.0474806988
0.0068667604 -0.0224927782 0.0278181174
0.0022882801 -0.0193628417 0.0377168933
-0.0005128599 -0.0164517894 0.0469372139
0.0065615554 -0.0191100611 0.0385602817
0.0032388430 -0.0163954582 0.0471516533
0.0008427951 -0.0180424203 0.0418974742
0.0083054613 -0.0235851344 0.0243619114
0.0000640836 -0.0147057276 0.0524889631
0.0067755054 -0.0210683129 0.0323420053
0.0078894853 -0.0210018087 0.0325637957
0.0020590522 -0.0144864760 0.0532042863
0.0033224436 -0.0195698886 0.0370690052
-0.0003806898 -0.0172658669 0.0443525832
0.0043857721 -0.0142923892 0.0538428145
0.0044895403 -0.0210803020 0.0322822883
0.0078098913 -0.0201969451 0.0351196564
0.0048894545 -0.0150834154 0.0513349209
-0.0029133715 -0.0144895939 0.0531473239
0.0066782091 -0.0182704548 0.0412283583
0.0007331551 -0.0159933777 0.0484051307
0.0056865967 -0.0209641218 0.0326626584
-0.0022764245 -0.0163467605 0.0472541435
0.0030753548 -0.0178200524 0.0426249449
0.0029060941 -0.0148003750 0.0522152163
0.0024594950 -0.0196037823 0.0369531765
0.0020230037 -0.0185337718 0.0403478871
0.0059956665 -0.0188477821 0.0393880439
0.0044164656 -0.0191425946 0.0384366394
0.0041598410 -0.0200678206 0.0354952709
0.0078680289 -0.0158936502 0.0475223036
0.0071047558 -0.0168944791 0.0451833150
0.0078032519 -0.0154144911 0.0489340761
0.0082417090 -0.0165782960 0.0453143130
0.0066615103 -0.0171121839 0.0448626567
0.0074488402 -0.0152396077 0.0496738176
0.0066897361 -0.0142945598 0.0528867185
0.0092248933 -0.0224285782 0.0279468135
0.0082160340 -0.0181372264 0.0408815995
0.0073057398 -0.0109825956 0.0526318798
0.0071120409 -0.0074381613 0.0526371556
0.0075289663 -0.0050106330 0.0521555639
0.0074114542 -0.0001438949 0.0520317489
0.0068760208 -0.0013038726 0.0525586973
0.0078259081 -0.0026131911 0.0517813069
0.0098011799 -0.0028028597 0.0188214593
0.0096927554 -0.0061701707 0.0275935707
0.0096206415 -0.0066790482 0.0306556402
0.0100636058 -0.0067936162 0.0170371398
0.0104224089 -0.0117080181 0.0137293736
0.0101328559 -0.0066740070 0.0146878338
0.0103423875 -0.0148273996 0.0212193533
0.0101718413 -0.0070745576 0.0141147186
0.0101669726 -0.0085531748 0.0166348797
0.0104022154 -0.0071904053 0.0071222202
0.0102072026 -0.0059028333 0.0111360441
0.0095541632 -0.0027867153 0.0264922210
0.0104116617 -0.0107269846 0.0124928087
0.0098103300 -0.0018375806 0.0169901661
0.0101713734 -0.0120445710 0.0220903056
0.0104009778 -0.0115505418 0.0141448831
0.0098587156 -0.0080473793 0.0254294598
0.0087789262 -0.0001859618 0.0464813869
0.0098411678 -0.0034428257 0.0186006070
0.0093616145 -0.0021394050 0.0314548450
0.0099832458 -0.0108534437 0.0260440873
0.0089866088 -0.0015519587 0.0421984118
0.0092952603 -0.0020693498 0.0334101166
0.0103582989 -0.0089645057 0.0113323512
0.0100963497 -0.0112223373 0.0231108581
0.0095080994 -0.0059597619 0.0330101027
0.0103765750 -0.0062056084 0.0063436759
0.0101210364 -0.0108540115 0.0217516740
0.0101775101 -0.0120657293 0.0219329899
0.0103694023 -0.0102718067 0.0130804321
0.0094529655 -0.0031499452 0.0302271941
0.0099792716 -0.0081404403 0.0218222034
0.0095021584 -0.0020452144 0.0269248629
0.0098068354 -0.0061105123 0.0239434690
0.0089557489 -0.0012863446 0.0427344925
0.0091675935 -0.0023706628 0.0378706431
0.0094551527 -0.0049563603 0.0330525776
0.0095442337 -0.0069313515 0.0334405193
0.0102186809 -0.0072380897 0.0129172243
0.0098056443 -0.0100997987 0.0303706531
0.0098794606 -0.0027950003 0.0163697785
0.0098681819 -0.0058817664 0.0216656095
0.0102637371 -0.0032711114 0.0051590123
0.0097290794 -0.0056022692 0.0255521056
0.0103940663 -0.0096852886 0.0113724554
0.0101407559 -0.0108059480 0.0210602605
0.0096084846 -0.0049219575 0.0282199064
0.0096215225 -0.0036469900 0.0257714139
0.0102551840 -0.0108251312 0.0175256016
0.0103140543 -0.0044248001 0.0054392015
0.0094740691 -0.0058869406 0.0339537846
0.0094889518 -0.0057245648 0.0332299697
0.0096419245 -0.0032159762 0.0244453231
0.0088538672 -0.0006325362 0.0448616771
0.0097980979 -0.0036483237 0.0202717618
0.0096281907 -0.0058779127 0.0291371545
0.0091668637 -0.0023067192 0.0377909553
0.0099291648 -0.0060281039 0.0199998898
0.0093900810 -0.0039270788 0.0334313892
0.0095295869 -0.0015930896 0.0253460194
0.0088340166 -0.0005936587 0.0454179135
0.0095282918 -0.0027239576 0.0271978068
0.0104271322 -0.0119232480 0.0139269585
0.0099479352 -0.0069928578 0.0209603874
0.0091120657 -0.0012501783 0.0378059928
0.0101130889 -0.0109877294 0.0222134960
0.0091093048 -0.0023458549 0.0396470815
0.0096953645 -0.0051121062 0.0258174601
0.0093701742 -0.0016103128 0.0303406360
0.0088269241 -0.0003016261 0.0451711244
0.0101970665 -0.0060368197 0.0116664876
0.0102957683 -0.0078255814 0.0114563620
0.0101034792 -0.0099652554 0.0208751107
0.0102117222 -0.0070723418 0.0128685494
-0.0076063140 -0.0150730135 0.0495991377
-0.0097972062 -0.0234204117 0.0246564034
-0.0088963922 -0.0166060405 0.0439818515
-0.0083301265 -0.0201272172 0.0352004853
-0.0080391848 -0.0166582391 0.0448427269
-0.0091806146 -0.0180798388 0.0396978064
-0.0098430274 -0.0219870393 0.0284466907
-0.0098272859 -0.0231709197 0.0252903307
-0.0072121416 -0.0144486615 0.0517336498
-0.0097791454 -0.0215160892 0.0297841954
0.0035848789 -0.0257433020 0.0105879540
0.0067759067 -0.0259609362 0.0065366950
0.0102097993 -0.0256008609 0.0125555126
0.0077089072 -0.0263010503 0.0005236896
0.0058349409 -0.0255265863 0.0141960631
-0.0001480388 -0.0262230518 0.0025026096
0.0087723616 -0.0253674203 0.0167451634
0.0022855768 -0.0258976689 0.0079940765
0.0095052444 -0.0262143193 0.0018973561
0.0040909658 -0.0257457703 0.0105051213
0.0063576674 -0.0262167460 0.0021020522
0.0088864273 -0.0256919692 0.0110682745
0.0098753651 -0.0256726987 0.0113271863
0.0083669298 -0.0253480014 0.0171161216
0.0080578529 -0.0258450911 0.0084591879
0.0055609476 -0.0258523600 0.0085282450
-0.0057439871 -0.0262891760 0.0017870823
0.0031302252 -0.0262505724 0.0017646521
-0.0061404926 -0.0263832441 0.0001753968
0.0020395850 -0.0261894706 0.0029173501
0.0051036523 -0.0255834414 0.0132605462
-0.0062585547 -0.0262911508 0.0017929852
0.0066031203 -0.0262516572 0.0014730944
0.0058776724 -0.0260153978 0.0056560832
0.0077992437 -0.0260852561 0.0042852380
-0.0030645537 -0.0263293979 0.0008743165
0.0042384950 -0.0259067005 0.0076830500
-0.0006522464 -0.0260788443 0.0050606350
0.0072276334 -0.0260932512 0.0041904807
-0.0082678567 -0.0263026671 0.0017495896
0.0087053583 -0.0259392428 0.0067640916
0.0097400837 -0.0254401317 0.0153993644
0.0013318935 -0.0259834199 0.0065713789
0.0028371526 -0.0262627312 0.0015753175
0.0029671683 -0.0257529132 0.0104685939
0.0046504162 -0.0258561717 0.0085331515
0.0020932926 -0.0262321497 0.0021677842
0.0053098086 -0.0258787127 0.0080877347
0.0099406766 -0.0263015194 0.0003403083
0.0093048174 -0.0253587002 0.0168556547
0.0097105215 -0.0152835237 0.0337860769
0.0092110040 -0.0158490484 0.0432147715
0.0098892635 -0.0179527321 0.0299310567
0.0099218519 -0.0176048691 0.0293680367
0.0100189986 -0.0181950682 0.0274170126
0.0103347348 -0.0170009015 0.0215974978
0.0104297938 -0.0195627945 0.0193559034
0.0091729541 -0.0144186835 0.0441798751
0.0102381855 -0.0162725146 0.0235602883
0.0091723553 -0.0151041833 0.0440764302
0.0098410577 -0.0193972232 0.0306080795
0.0095783894 -0.0159829297 0.0361880251
0.0103265939 -0.0167540823 0.0217940645
0.0093207662 -0.0146556911 0.0413220796
0.0096145446 -0.0176250327 0.0352235652
0.0098358345 -0.0181863005 0.0309105608
0.0097655555 -0.0190565517 0.0321046338
0.0096678769 -0.0161240743 0.0344582674
0.0102568085 -0.0161659839 0.0232230860
0.0095026467 -0.0166801481 0.0375152580
0.0103252846 -0.0230327266 0.0207669845
0.0102563016 -0.0194256188 0.0226865700
0.0096533604 -0.0179909225 0.0344222232
0.0094663823 -0.0169227580 0.0381659969
0.0099222348 -0.0173833884 0.0293978472
0.0099694763 -0.0187432676 0.0282693142
0.0102849092 -0.0207363182 0.0219215368
0.0103014138 -0.0225820631 0.0212976015
0.0104103068 -0.0215154212 0.0194002482
0.0096362556 -0.0212997129 0.0305904712
0.0097781527 -0.0215006611 0.0297615933
0.0091456314 -0.0166964654 0.0430489385
0.0097557976 -0.0216320773 0.0294919437
-0.0002892327 -0.0008351502 0.0536654903
-0.0040118713 -0.0002377890 0.0536087300
0.0045748993 -0.0008830045 0.0537282717
0.0023001358 -0.0003084289 0.0536903319
-0.0010640205 -0.0028955195 0.0536876203
-0.0022651993 -0.0030701313 0.0536750132
-0.0015254651 -0.0016923062 0.0536630407
-0.0025135585 -0.0035560322 0.0536793949
-0.0042604370 -0.0075831866 0.0537196845
-0.0052843209 -0.0000958284 0.0535902954
-0.0058584391 -0.0073443571 0.0536955926
-0.0057584677 -0.0012477188 0.0536021448
-0.0000053476 -0.0001241684 0.0536580645
0.0006729858 -0.0029170910 0.0537101095
-0.0030484975 -0.0077270395 0.0537373768
-0.0051317482 -0.0071127677 0.0537012628
-0.0039148067 -0.0108057715 0.0537741617
0.0048933021 -0.0088272042 0.0537998830
-0.0014864590 -0.0127903621 0.0538083433
0.0034296417 -0.0073139953 0.0537807506
-0.0043255440 -0.0132112474 0.0538004272
0.0001236754 -0.0107869247 0.0537974809
0.0043698742 -0.0119422143 0.0538248467
0.0018328881 -0.0098469695 0.0537962741
-0.0029778825 -0.0117556340 0.0537932601
0.0051241105 -0.0130914690 0.0538379200
0.0018429579 -0.0099764265 0.0537974413
0.0041628295 -0.0047025286 0.0537610227
-0.0029673811 -0.0129681733 0.0538038511
0.0024831852 -0.0111578800 0.0538103298
-0.0017745507 -0.0091883847 0.0537758341
0.0026663988 -0.0132931029 0.0538296517
0.0045191971 -0.0051889047 0.0537667070
-0.0005606063 0.0000904525 0.0526944408
-0.0064015982 0.0001028945 0.0513517219
-0.0074541421 0.0001035487 0.0511518314
-0.0075053636 0.0001106259 0.0509554512
-0.0078189327 -0.0074360979 0.0518980676
-0.0082171308 -0.0067599471 0.0513169252
-0.0086402658 -0.0063720621 0.0507241953
-0.0085572784 -0.0044198635 0.0506882604
-0.0077865168 -0.0035698417 0.0516511558
-0.0080564480 -0.0100609425 0.0517786372
0.0083126357 0.0000367334 0.0404898833
0.0083684219 0.0000323850 0.0387293945
0.0065726834 0.0000703639 0.0487178500
0.0080601071 0.0000620887 0.0510550091
0.0062868223 -0.0080741263 0.0532490395
0.0070202562 -0.0110532671 0.0528147681
0.0070080659 -0.0094396458 0.0528215945
0.0055842862 -0.0028625252 0.0536644258
0.0061661829 -0.0047804578 0.0533197691
0.0099357145 -0.0140228087 0.0290965584
0.0098808775 -0.0140091996 0.0301710115
0.0092733923 -0.0134288516 0.0419530907
0.0087729455 -0.0072879304 0.0500675442
0.0093322006 -0.0143756380 0.0410628338
0.0087803379 -0.0066785355 0.0497509026
0.0096345427 -0.0102627509 0.0339617778
0.0094690809 -0.0088067797 0.0368060857
0.0101646778 -0.0140359264 0.0245980587
0.0092192671 -0.0076724843 0.0413994508
0.0092042629 -0.0139100597 0.0434476589
0.0089319460 -0.0053796284 0.0464047011
0.0100028548 -0.0148388665 0.0280057216
0.0089104402 -0.0029754621 0.0461518444
0.0095034219 -0.0103147595 0.0365546692
0.0095705305 -0.0127402318 0.0359168102
0.0096738624 -0.0127653775 0.0338920250
0.0089435824 -0.0116654043 0.0479426117
0.0095128985 -0.0130384312 0.0371338628
0.0089395307 -0.0063105782 0.0465172188
0.0100388457 -0.0126097169 0.0266714790
0.0093537019 -0.0068516486 0.0385253013
0.0094539167 -0.0120555263 0.0380173796
0.0089091723 -0.0086503005 0.0477717855
0.0087732500 -0.0048964174 0.0493893814
0.0093943764 -0.0075072529 0.0379097727
0.0090201371 -0.0072472723 0.0451954995
0.0095932524 -0.0144464126 0.0359495721
0.0098356057 -0.0120888305 0.0305214544
0.0090359190 -0.0056655786 0.0444406136
0.0089710605 -0.0047084501 0.0454469320
0.0094809442 -0.0116363892 0.0373681229
0.0095936163 -0.0094959775 0.0345510137
0.0094408037 -0.0086476068 0.0373173718
0.0096527697 -0.0104796967 0.0336643498
0.0100136358 -0.0139710650 0.0275498204
0.0098364897 -0.0129344672 0.0307417531
0.0099026172 -0.0137320690 0.0296656448
0.0089621348 -0.0089634586 0.0468183832
0.0092514877 -0.0142586741 0.0426170437
0.0090047786 -0.0140007668 0.0473956838
0.0091365278 -0.0130713521 0.0445438247
0.0089251939 -0.0128194906 0.0486285666
0.0094642073 -0.0138035625 0.0383063464
-0.0068063207 -0.0136282431 0.0529432061
-0.0067870870 -0.0101626733 0.0529700799
-0.0076749188 -0.0102688591 0.0521778404
-0.0077621696 -0.0115017470 0.0520965561
-0.0082468400 -0.0128216318 0.0516605315
0.0087848987 -0.0118909388 0.0506832600
0.0081914081 -0.0137134756 0.0516754672
0.0081412594 -0.0109971562 0.0517590239
