0.0981227313 0.0754972810 -0.0065932694
0.0780534656 0.0791434930 0.0016772814
0.0832962600 0.0779907235 -0.0058499968
0.0906815194 0.0768581518 -0.0118113815
0.0982063775 0.0758550462 0.0055150556
0.0814909960 0.0781338762 0.0004209358
0.1008870670 0.0753450221 0.0074840568
0.0604221933 0.0809846086 0.0020129984
0.0675589896 0.0803787910 0.0146624655
0.0669916106 0.0805040624 -0.0144426558
0.0682165674 0.0801473928 0.0144633321
0.1196973056 0.0663098557 -0.0010862415
0.1151787037 0.0688924439 -0.0147683666
0.1164912769 0.0686476109 -0.0106955799
0.1112829040 0.0724881553 0.0033202275
0.1114509705 0.0721040600 0.0062498249
0.0776687185 0.0784802515 -0.0243155090
0.0957470287 0.0761221791 -0.0208643089
0.0932601789 0.0757002209 -0.0262534042
0.0977614490 0.0758572339 0.0204360862
0.0771163248 0.0788686183 0.0240275124
0.0912402610 0.0762069623 0.0270175366
0.0811391092 0.0787583235 0.0184222574
0.0497358401 0.0014311742 0.0532801925
0.0537862556 0.0008656589 0.0507492338
-0.0169172879 0.0216510159 0.0504254058
-0.0306461657 -0.0031915823 0.0457125975
-0.0267891493 0.0011959858 0.0487767080
0.0186092978 0.0368405482 0.0406414522
0.0172306774 0.0357906690 0.0421130465
-0.0207866056 0.0154662298 0.0503901247
-0.0382668940 0.0222392413 0.0318161361
0.0450972721 0.0266790752 0.0470628028
0.0388499986 0.0206392215 0.0546492141
-0.0003107108 0.0351669274 0.0448780866
0.0174927096 0.0331737320 0.0451578938
0.0063330216 0.0269245478 0.0529120396
-0.0319237624 0.0243951706 0.0382963617
0.0285408045 0.0363194807 0.0399265948
0.0385851968 0.0330492367 0.0420817749
0.0069499291 0.0250137880 0.0547791489
0.0288025499 0.0231936556 0.0537693143
0.0216999619 0.0267623045 0.0514036757
-0.0397314724 0.0156316789 0.0353515185
-0.0059087683 0.0382394803 0.0402879381
0.0592589308 0.0016091873 0.0470207706
0.0421596093 0.0185375451 0.0543525831
0.0513366987 0.0296339311 0.0419070022
-0.0290865550 0.0103465108 0.0461388241
-0.0100472026 0.0285392785 0.0484240496
-0.0420942125 0.0005300213 0.0349926009
-0.0260648897 0.0302749684 0.0378511334
-0.0279804698 0.0343038622 0.0326118138
-0.0313641273 0.0166897610 0.0424167519
-0.0044512734 0.0279969417 0.0507690671
0.0002808441 0.0292491933 0.0509745822
-0.0003230426 0.0393984655 0.0395919350
0.0025693360 0.0407600595 0.0372306341
-0.0369133100 0.0100275709 0.0393568965
0.0474888464 0.0285513913 0.0445879842
0.0555475509 0.0115087333 0.0487564726
0.0240871735 -0.0331094709 0.0449541710
0.0159612891 -0.0313275637 0.0479687961
0.0149679661 -0.0342104761 0.0447292448
0.0229544245 -0.0325523981 0.0457335887
0.0497288722 -0.0316229058 0.0404706306
0.0403889250 -0.0263117284 0.0490297552
0.0368090029 -0.0294350058 0.0465960033
0.0463894868 -0.0287815849 0.0450672479
0.0428818461 -0.0224147631 0.0514013955
-0.0205994356 -0.0120784110 0.0512148142
-0.0269918411 -0.0045333920 0.0484965493
-0.0248001163 -0.0313920995 0.0380768343
-0.0291754767 -0.0039341315 0.0468485683
-0.0387973186 -0.0193019157 0.0332275248
-0.0317990174 -0.0133062678 0.0436980558
-0.0281017276 -0.0154386210 0.0454860029
0.0609286494 -0.0215791282 0.0422031227
0.0480544045 -0.0195272720 0.0515902609
-0.0189533604 -0.0326433006 0.0415084189
-0.0205667828 -0.0258564349 0.0449709247
0.0534151238 -0.0188864559 0.0492260462
0.0587127577 -0.0020556524 0.0473876530
-0.0073023337 -0.0238339759 0.0535522440
-0.0204124048 -0.0387770080 0.0338540711
0.0532450591 -0.0095313846 0.0506815796
-0.0059739994 -0.0363864475 0.0423447296
-0.0445478578 -0.0062073456 0.0314250533
-0.0115749031 -0.0307046007 0.0467072924
-0.0106827788 -0.0333263800 0.0444013539
-0.0015014305 -0.0413521435 0.0365575278
0.0288413762 -0.0371055683 0.0397368513
0.0016014868 -0.0300206931 0.0496184799
0.0011294706 -0.0248700699 0.0541502376
-0.0440586084 -0.0136394459 0.0288747436
0.0321508293 0.0200564658 0.0551603526
-0.0043295236 0.0228292019 0.0540876621
0.0467900022 0.0020055973 0.0531119563
0.0471855925 -0.0116369355 0.0543184904
0.0618165427 -0.0201473037 0.0408708067
-0.0462463394 0.0036753566 0.0297377431
0.0829008561 0.0781883429 -0.0156739233
0.0963800470 0.0760419725 -0.0164913637
0.0865910795 0.0775503114 0.0166012315
0.0704469393 0.0785488215 0.0233854470
0.0769141435 0.0759010096 0.0308842670
0.1220380191 0.0630778668 0.0101217988
0.0580233915 0.0798563344 0.0107194790
0.1055474204 0.0698939449 0.0281466482
0.0931681672 0.0767006968 0.0181226497
0.0877448536 0.0732023522 -0.0341211087
0.0716183235 0.0765151045 -0.0295621646
0.0705235302 0.0798895852 -0.0175048942
0.1048058705 0.0707927634 -0.0270498321
0.1231745670 0.0622943895 0.0012883913
0.0993558280 0.0717578108 -0.0299161963
0.0964078454 0.0728174826 -0.0302387460
0.0389139400 -0.0331293047 -0.0148679106
0.0473896259 -0.0160889078 -0.0150173813
0.0437390413 -0.0387717965 -0.0148816456
0.0411198734 0.0266704419 -0.0109505050
0.0445777863 0.0209873954 -0.0094858626
0.0361112491 0.0327470317 -0.0057474573
0.0312743063 0.0379857364 -0.0039610683
0.0289665985 0.0398203821 -0.0093497938
0.0198740289 0.0446104478 -0.0003659597
0.0174869969 0.0463222819 0.0018484013
0.0120597292 0.0475851599 -0.0020325979
0.0020001487 0.0489400850 0.0029285313
0.0011676133 0.0495529425 -0.0050345816
0.0486854487 0.0092529942 -0.0035102005
0.0455770482 0.0184016594 -0.0001181175
0.0549258427 -0.0051852042 -0.0267068023
0.0613968182 -0.0207615369 -0.0084880334
0.0615642003 -0.0233043206 -0.0189313982
0.0556959445 -0.0062593560 -0.0152544287
0.0578196384 -0.0110583697 -0.0060290302
0.0546474580 -0.0044289370 -0.0130800644
0.0597969591 -0.0148151383 -0.0158198203
0.0597694281 -0.0147557142 -0.0161606826
0.0503138908 0.0030436200 -0.0038761329
0.0490777851 0.0079255789 -0.0126816562
0.0455294585 -0.0317176935 -0.0170459225
0.0424254412 -0.0245571134 -0.0167320967
0.0792139530 -0.0457247396 -0.0427588295
0.1152086164 -0.0390303825 -0.0308953310
0.1292549526 -0.0386584004 -0.0035914871
0.1104067565 -0.0459523402 -0.0371467095
0.0747763851 -0.0393907312 -0.0393002101
0.1302266844 -0.0439522077 -0.0067509500
0.1310942354 -0.0476046005 -0.0055336681
0.1119984890 -0.0493988107 -0.0359831716
0.1070947091 -0.0372922436 -0.0364997038
0.0673829122 -0.0412682589 -0.0366193668
0.0918934464 -0.0457982122 -0.0433798146
0.0598179590 -0.0479578438 -0.0334057359
0.1253273511 -0.0426078691 -0.0194773637
0.1281075662 -0.0406982977 -0.0126710198
0.1268971451 -0.0501695747 -0.0194982288
0.0858321378 -0.0399689029 -0.0417238660
0.1207015023 -0.0447607023 -0.0279417939
0.0769180196 -0.0078315706 0.0422419421
0.0699544587 -0.0047754547 0.0409666941
0.0806899699 -0.0116275273 0.0422446022
0.0934079904 -0.0214000532 0.0398849003
0.1109363592 -0.0097668027 0.0367896944
0.1069201308 -0.0197277720 0.0356256428
0.1203552502 -0.0135024411 0.0275503367
0.0934305370 -0.0088844478 0.0434691957
0.1171455888 0.0643502269 0.0203813920
0.1171321590 0.0612237811 0.0223381012
0.1233887886 0.0542022856 0.0168694460
0.1271413914 0.0503614573 0.0068083706
0.1194980334 0.0256942699 0.0297201854
0.1207943406 0.0320695329 0.0272002199
0.1252163439 0.0582558760 0.0053193257
0.1209023436 0.0436099388 0.0252552258
0.1296108904 0.0262921032 0.0090745254
0.1280908547 0.0238882332 0.0143777090
0.1285651984 0.0334609591 0.0111531341
0.1176447741 0.0495193500 0.0276200843
0.1187676432 0.0466903201 0.0274340965
0.1299923190 0.0359831657 0.0048867800
0.1204992282 0.0486758191 0.0246894395
0.1234349647 0.0460027717 0.0199257433
0.1265594749 0.0381876362 0.0157026103
0.0695637483 0.0754259788 0.0313412605
0.0302522417 0.0617374588 0.0146272774
0.0233462441 0.0589663115 0.0129538350
0.0541292620 0.0787961868 0.0098394882
0.0435385504 0.0476475357 0.0337300332
0.0601121157 0.0769915154 0.0228683463
0.0235400683 0.0562086221 0.0209346085
0.0698971211 0.0672611882 0.0351313730
0.0648663662 0.0472643543 0.0374788262
0.0579699232 0.0513969323 0.0342888524
0.0369561129 0.0403728732 0.0352772663
0.0837255962 0.0588778401 0.0387208730
0.0831127161 0.0542215787 0.0393746137
0.0842075147 0.0425514729 0.0411467212
-0.0074422176 0.0468722780 0.0215415150
0.0056155683 0.0512903353 0.0182198620
0.0631579665 0.0682886420 0.0326311064
0.0147706923 0.0540818960 0.0173408323
0.0489696886 0.0626254274 0.0261686352
0.0231212983 0.0506909722 0.0282381875
0.0057289229 0.0471106522 0.0281686827
0.0124289434 0.0461137440 0.0301598916
0.0590437331 0.0678495147 0.0301404435
0.0108719505 0.0536552861 0.0122339334
-0.0025436760 0.0489834969 0.0104292143
0.0758648265 0.0731994342 0.0344535722
0.0560809640 0.0520313041 0.0337009167
0.0518684133 0.0389872899 0.0365688392
0.0612976978 0.0395639155 0.0379323540
0.0769453537 0.0470468345 0.0397156930
0.0738634345 0.0627882586 0.0371730218
0.0780279008 0.0518356504 0.0392915637
0.0722123428 0.0562353750 0.0377240266
0.0844299016 0.0626628268 0.0380614652
0.0821853427 0.0632905080 0.0379781938
0.0716732060 0.0149015596 0.0413026690
0.0688576001 0.0141320798 0.0408169732
0.0761006558 0.0141447474 0.0421712901
0.0345427441 0.0658010026 0.0014125663
0.0375814083 0.0647529502 0.0160320902
0.0166008596 0.0564918402 0.0077442863
0.0397321070 0.0683128339 0.0070985296
0.0322012666 0.0636936316 0.0058881927
0.0398320000 0.0561573636 0.0274123672
0.0677013550 0.0266664333 0.0399131964
0.0665336527 0.0308575979 0.0394361557
0.0509512390 0.0645198164 0.0260782775
0.0289950012 0.0556558555 0.0248780572
0.0049427180 0.0500760372 0.0214139308
0.0505178323 0.0769422988 0.0027120962
0.1113768572 0.0474142878 0.0329166416
0.1076371341 0.0538344781 0.0341675043
0.0921113968 0.0227021480 0.0425458210
0.0879590436 0.0066133360 0.0435173092
0.0884982857 0.0087100877 0.0433907601
0.0927414746 0.0319807729 0.0418504052
0.0869446160 0.0390901378 0.0416251183
0.0931645558 0.0490906063 0.0402434038
0.1089684131 0.0627415171 0.0311261382
0.1042026105 0.0356677339 0.0386872121
0.1057207208 0.0336746158 0.0382425882
0.0937456644 0.0407891687 0.0410897194
0.0923474925 0.0481481999 0.0405975806
0.0979765452 0.0677590659 0.0353861617
0.1144670820 0.0273361188 0.0339075935
0.1075440186 0.0435010110 0.0364798341
0.1125451772 0.0402927297 0.0336646479
0.0971108013 0.0600144556 0.0372431631
0.1271072638 -0.0326939643 0.0066004917
0.1259481659 -0.0253144088 0.0126553856
0.1202167693 -0.0362849508 0.0257043578
0.1028543303 -0.0225964510 0.0373279441
0.0904777655 -0.0314924409 0.0400887634
0.0988994922 -0.0264151172 0.0386286452
0.1244092513 -0.0374085016 0.0182206764
0.1070111650 -0.0377865137 0.0362759644
0.1216764672 -0.0237142227 0.0221191875
0.1056453376 -0.0288921377 0.0360732228
0.1110220521 -0.0301042697 0.0324098396
0.0729237868 -0.0509490260 -0.0393827605
0.1070934274 -0.0509736276 0.0370669175
0.1237624727 -0.0507447212 -0.0249907814
0.0580638783 -0.0509914751 -0.0309990487
0.1052647066 -0.0510310697 0.0383906525
0.0947627631 -0.0510591835 0.0415141053
0.1100774587 0.0151040943 0.0377646721
0.1093255261 0.0107077455 0.0381942374
0.1012457797 -0.0028990394 0.0416626714
0.1128151647 0.0178642280 0.0357378303
0.1155227825 0.0041647117 0.0337558430
0.0915210141 -0.0081947145 0.0438211301
0.1105218431 0.0050334110 0.0374900745
0.1102414225 0.0032066421 0.0376979625
0.0801230217 -0.0344317463 -0.0399151628
0.1234195801 -0.0279377710 -0.0185042014
0.1006065289 -0.0322494925 -0.0380559930
0.1204475939 -0.0263743347 -0.0238911290
0.1117982498 -0.0349849956 -0.0322353750
0.1004853507 -0.0287925807 -0.0378753788
0.0918230618 -0.0317097329 -0.0401756074
0.0655101534 -0.0314178957 -0.0329903173
0.1168234338 -0.0245018278 -0.0286024686
0.0886393722 -0.0321785167 -0.0402312331
0.0786514941 -0.0269631263 -0.0390722152
0.1257860400 -0.0332395004 -0.0132755864
0.0893198108 -0.0199303494 -0.0407803232
0.0870214923 -0.0103676951 -0.0435150110
0.1015602838 -0.0131403742 -0.0404313098
0.1076407252 -0.0165887283 -0.0364536663
0.1146007670 -0.0167709375 -0.0320909564
0.1204006590 -0.0193187321 -0.0245049620
0.1286420255 -0.0173630385 -0.0096781630
0.1303915550 -0.0125773034 -0.0051620291
0.1282376368 -0.0220912975 -0.0003619086
0.1180649102 -0.0156203146 -0.0291991034
0.1270572052 0.0214248129 -0.0178767772
0.1274058593 0.0115883199 -0.0178387530
0.1246183803 0.0211714745 -0.0230501504
0.1281099297 0.0008307882 -0.0170523414
0.0480761470 -0.0493431115 0.0094623799
0.0448297310 -0.0410693365 0.0046165429
0.0466271949 -0.0433637655 0.0121244409
0.0374684283 -0.0383919177 0.0013873907
0.1091230225 -0.0503007746 0.0393548645
0.0914263940 -0.0384133530 0.0412563088
0.1025272112 -0.0402987951 0.0393950753
0.1055078784 -0.0498931147 0.0404259472
0.0934560195 -0.0431728623 0.0423633820
0.1179700542 -0.0450242183 0.0308415608
0.0304138335 -0.0386443164 0.0351242276
0.0314960323 -0.0385487828 0.0216312727
0.0176635847 -0.0443012080 0.0076515996
0.0192506772 -0.0435468855 0.0107813650
0.0215576437 -0.0421447154 0.0229067001
-0.0353869129 -0.0329814443 0.0078341648
-0.0394889395 0.0261540914 0.0214759210
-0.0422599321 0.0225678928 0.0124664096
0.0081248517 -0.0471435099 0.0120676383
0.0111239734 -0.0469486974 0.0057646663
-0.0386011389 0.0268891102 0.0089135774
-0.0293391769 0.0373773008 0.0090002526
-0.0394074731 -0.0258918384 0.0223843065
-0.0307891452 0.0358816355 0.0157364833
-0.0275902533 0.0389469687 0.0164332296
-0.0440443772 -0.0158058739 0.0041104785
-0.0422869807 -0.0199782228 0.0116936043
-0.0422358904 -0.0196940597 0.0045072065
-0.0228997961 0.0420564507 0.0100985614
0.0023443490 -0.0470725623 0.0154031192
0.0083983742 -0.0473220909 0.0065218049
-0.0054248683 -0.0465300829 0.0127743174
-0.0049252260 -0.0465423402 0.0151313007
-0.0464106586 -0.0094172929 0.0178502774
-0.0469469364 -0.0026208637 0.0262154982
-0.0462663136 0.0085568607 0.0130722470
-0.0468758602 0.0017159146 0.0111359304
-0.0468251550 -0.0001236922 0.0053211004
-0.0124621811 -0.0459979008 0.0181899250
-0.0212198989 -0.0420862479 0.0203090573
-0.0473923192 0.0029195569 0.0269250734
-0.0438916690 0.0174240218 0.0278568482
-0.0272633016 -0.0391259139 0.0192421883
-0.0291168864 -0.0375847888 0.0126194825
-0.0331313232 0.0330046606 0.0267184797
-0.0239896305 0.0401212715 0.0239684579
-0.0270102180 0.0379644630 0.0258548102
0.0595076011 0.0205329218 0.0420564316
0.0585517210 0.0157854989 0.0435598108
0.0485588126 0.0015030412 0.0517127216
0.0605301439 0.0017311074 0.0442936842
0.0170291874 0.0234260337 0.0529397458
0.0517813304 0.0164189083 0.0480938362
0.0228764774 0.0315065214 0.0440750213
0.0331782010 0.0329888609 0.0410914235
0.0496357630 0.0206597833 0.0475170966
0.0048317302 0.0332862334 0.0436229342
0.0457744492 0.0213061393 0.0487136633
0.0434369415 0.0326146157 0.0397145753
0.0156925523 0.0370423349 0.0386023460
0.0134664738 0.0384909813 0.0370716240
0.0454372019 0.0260861662 0.0450744312
0.0388509445 0.0205304693 0.0510348640
0.0365932661 0.0182005990 0.0534164087
0.0071768129 0.0233728439 0.0524689601
-0.0286283522 0.0249208126 0.0368182146
-0.0286196841 0.0236465832 0.0377193838
-0.0233621375 0.0157158979 0.0461244398
-0.0199709880 0.0103274087 0.0495819320
-0.0416725752 0.0086900342 0.0297997561
-0.0203984541 0.0310983876 0.0384005576
-0.0275805884 0.0314775807 0.0308833416
-0.0062620936 0.0239075502 0.0508572137
-0.0314948570 0.0004247071 0.0429607457
-0.0147705274 0.0261546747 0.0452532875
-0.0228699095 0.0203122271 0.0445801209
-0.0102511414 0.0223800309 0.0501291381
-0.0379226364 0.0189978576 0.0317180239
0.0018736340 0.0177759797 0.0531767007
0.0165862876 -0.0206703405 0.0542914120
-0.0094376418 0.0178559618 0.0520573437
0.0128533706 -0.0119683404 0.0538152920
0.0137445690 0.0170306733 0.0539907671
0.0188602437 0.0091435895 0.0543241647
0.0346716466 -0.0088493394 0.0540909028
0.0289518934 -0.0184839686 0.0543107309
0.0411386566 0.0070232584 0.0538736357
0.0045856884 0.0168008187 0.0533542545
-0.0055245513 -0.0185867850 0.0525105496
-0.0156367090 -0.0121077835 0.0510180350
0.0278477071 0.0117775574 0.0543275356
0.0220792772 -0.0104104370 0.0545918628
0.0246923768 0.0203946623 0.0543869716
0.0219252857 -0.0062913876 0.0545795890
-0.0207290707 0.0085222982 0.0493645649
-0.0155320586 0.0147329754 0.0512100013
0.0547506594 0.0287047485 0.0402042187
0.0031852374 -0.0425619573 0.0340592807
-0.0305412956 -0.0318043881 0.0302463775
0.0130128448 -0.0394349786 0.0352088210
-0.0259565534 -0.0368550150 0.0307503971
0.0638477757 0.0079159486 0.0408806968
-0.0099595601 0.0425051615 0.0325552857
-0.0427056727 -0.0149185629 0.0288314091
-0.0098371972 -0.0418987204 0.0325870734
-0.0136313502 0.0364838430 0.0357804815
-0.0157260150 0.0372952066 0.0340681105
-0.0133938666 0.0353973545 0.0373313014
0.0503695790 -0.0076452890 0.0503724787
0.0585665067 -0.0158018706 0.0428880527
0.0522389366 -0.0108891674 0.0485537233
0.0840817596 0.0142461330 0.0431543765
0.0787498357 -0.0021461142 0.0433501910
0.0792970111 0.0028826266 0.0432023635
0.0753118009 -0.0005418504 0.0427237527
0.0576132171 -0.0302408233 0.0374428854
0.0476280860 -0.0348907949 0.0349822918
0.0464224674 -0.0405768917 0.0205022237
0.0471423309 -0.0374696893 -0.0177454046
0.0520528256 -0.0334237461 -0.0211183163
0.0447276346 -0.0378611871 0.0274227950
0.0198435805 -0.0409289208 0.0345591911
0.0330825996 -0.0380580305 0.0347437762
0.0397027673 -0.0369354874 0.0316660442
0.1316461195 -0.0014219164 -0.0041071737
0.0499571178 -0.0030475202 -0.0180953001
-0.0239356212 -0.0405956737 0.0229648110
0.0129497058 -0.0436751481 0.0283615661
-0.0365480970 -0.0293258061 0.0256137155
-0.0005500085 -0.0443464412 0.0313029668
-0.0031502988 -0.0458390439 0.0265348295
-0.0160240094 -0.0426924716 0.0293235634
-0.0281401687 -0.0374980719 0.0253052841
0.0355522744 -0.0234254800 0.0489640560
0.0493434703 -0.0297497998 0.0402361547
0.0329303291 -0.0214417434 0.0512205333
0.0513769243 -0.0202546179 0.0464183971
0.0506768713 -0.0480706302 -0.0187236990
0.1179244785 -0.0508288781 -0.0136912308
0.0814910799 -0.0506475434 -0.0057518526
0.1186428613 -0.0505316656 -0.0012255179
0.0861307192 -0.0505565205 -0.0019741748
0.1172586706 -0.0505554339 -0.0022103985
0.1102683513 -0.0507831293 -0.0117021136
0.0770322216 -0.0507756969 -0.0227063993
0.0809528684 -0.0508832463 -0.0337511646
0.0724004368 -0.0507457005 -0.0208280898
0.0637719839 -0.0506940030 -0.0169244036
0.0720540214 -0.0509035820 -0.0365572630
0.0570524326 -0.0508008593 -0.0239364728
0.0811962327 -0.0507798099 -0.0217230646
0.1028327820 -0.0508868953 -0.0265185671
0.0843932588 -0.0508147550 -0.0246549550
0.1046071407 -0.0509752371 -0.0361621846
0.0990608471 -0.0509629810 -0.0366995014
0.0879143137 -0.0508287247 -0.0250334171
0.1033865614 -0.0508753169 -0.0249764231
0.1056038604 -0.0508525321 -0.0212303915
0.1201432243 -0.0509139695 -0.0228105885
0.0780087080 -0.0506586855 -0.0085668844
0.0861827063 -0.0507103317 -0.0115956016
0.0962404823 -0.0507937631 -0.0178100490
0.0782135474 -0.0506616721 -0.0088545332
0.0209533292 -0.0215414185 0.0542021361
0.0265212175 -0.0250299630 0.0496234517
0.0273222408 -0.0302392975 0.0440414239
0.0311671788 -0.0258284701 0.0479202412
0.0908108254 -0.0087587106 -0.0436221614
0.0923364649 0.0060543603 -0.0433884158
0.0768034033 -0.0056567120 -0.0422086911
0.0742174852 0.0040417605 -0.0415636855
0.0571233002 -0.0063164921 -0.0309355086
0.0618908544 0.0047521040 -0.0348431210
0.0575698030 -0.0010945812 -0.0312095673
0.0654570541 0.0066835809 -0.0370903906
0.0699504811 0.0020142341 -0.0395183186
0.0971950126 0.0002525761 -0.0427757852
0.0963206152 0.0106329524 -0.0428987510
0.0397472377 -0.0395964373 -0.0172924895
0.0560162140 -0.0246009151 -0.0213154409
0.0498079172 -0.0193766075 -0.0159329260
0.0550776433 -0.0424186833 -0.0223252549
0.0546323347 -0.0365144654 -0.0205188431
0.0526578293 -0.0291074601 -0.0177293004
0.0583707845 -0.0147395951 -0.0264459857
-0.0161077637 -0.0282560444 0.0436954195
0.0092787444 -0.0254725216 0.0506280540
0.0043143719 -0.0277894057 0.0485462536
-0.0062705587 -0.0377345983 0.0366032891
-0.0126507252 -0.0219177110 0.0492757174
-0.0028977752 -0.0345610713 0.0420223610
0.0094941124 -0.0341319350 0.0418584471
-0.0098324189 -0.0295369981 0.0448413817
0.0413316423 -0.0316971439 0.0394711922
0.0117672106 -0.0379965871 0.0358444920
0.0111508226 -0.0346646990 0.0409146935
-0.0219332236 -0.0248820088 0.0425384077
-0.0336577566 -0.0110456231 0.0389513212
-0.0369148547 -0.0160176190 0.0342408483
-0.0261734853 -0.0079970203 0.0458873035
-0.0203885299 -0.0125392525 0.0490960991
-0.0231507461 -0.0355367649 0.0314181377
-0.0241570980 -0.0345661502 0.0314133300
-0.0164778005 -0.0183289704 0.0497210795
-0.0357035071 -0.0027019953 0.0386455636
0.1200676626 0.0273377177 -0.0288440255
0.1139343450 0.0308957013 -0.0338151971
0.1191721594 0.0543716967 -0.0240532271
0.1184350560 0.0458213316 -0.0278305638
0.1164861234 0.0633627986 -0.0223029818
0.1238616118 0.0336913237 -0.0229836447
0.1222503365 0.0335175617 -0.0254288799
0.1215454747 0.0527989738 -0.0207015659
0.1061376865 0.0599775020 -0.0335051863
0.0951764776 0.0233513432 -0.0427181460
0.0902166930 0.0256675801 -0.0426667241
0.0682518732 0.0699246607 -0.0319667299
0.0871442940 0.0694870201 -0.0365869694
0.1013411761 0.0382207198 -0.0393295309
0.1024281647 0.0440163947 -0.0382849488
0.0999192545 0.0588683965 -0.0369870402
0.1043776162 0.0459306405 -0.0372359353
0.0573914746 0.0335215293 -0.0295052634
0.0617066860 0.0304261853 -0.0340284448
0.0731806430 0.0329962761 -0.0396768779
0.0695265474 0.0438826687 -0.0370910055
0.1111608953 0.0313880936 -0.0356330134
0.1108135229 0.0455941014 -0.0344779146
0.0772662861 0.0560270733 -0.0381489944
0.0852757218 0.0544312169 -0.0397742441
0.0858461346 0.0471568406 -0.0409840293
0.0796556566 0.0182281741 -0.0424072461
0.0905054504 0.0483874892 -0.0402626492
0.0960521850 0.0409717977 -0.0402442923
0.0967815594 0.0538697899 -0.0383486329
0.1102139784 0.0569873422 -0.0315280804
0.1101080576 0.0604540604 -0.0302611770
0.0639641373 0.0413633630 -0.0343418483
0.0634248772 0.0476473403 -0.0329679109
0.0949065097 0.0652567081 -0.0368977413
0.0508279235 0.0460728654 -0.0216309598
0.0624220676 0.0615266732 -0.0299613111
0.0587321735 0.0522764726 -0.0279943111
0.0516737916 0.0472506422 -0.0222307654
0.0956758502 0.0689476118 -0.0356517631
0.0745687222 0.0417772013 -0.0391845639
0.0736793209 0.0445190103 -0.0387009061
0.0074789797 0.0428763458 0.0343942953
-0.0126811370 0.0447649320 0.0240145909
-0.0045946150 0.0442565009 0.0311797362
0.0214682874 0.0410484772 0.0344093963
-0.0073982676 0.0474055437 0.0152447183
-0.0192273314 0.0433452775 0.0064029954
-0.0221177165 0.0424263502 0.0098005572
0.0042174163 0.0516345895 0.0010482487
0.0567470985 -0.0366569171 -0.0262274273
0.0563362381 -0.0266359582 -0.0251766390
0.0495941560 -0.0290334422 -0.0183337360
0.1291028680 -0.0123296046 0.0119312868
0.1222577051 -0.0135543665 0.0249431825
0.1234960479 -0.0008442448 0.0256106061
0.1200932650 -0.0012031263 0.0300794808
0.1309281308 -0.0115598269 0.0031791707
0.1266311106 -0.0141392152 0.0171514834
0.0482856393 -0.0153986502 -0.0184806036
0.0531044230 0.0102451370 -0.0261095751
0.0498079476 0.0023630406 -0.0211342823
0.0516406997 -0.0164416207 -0.0224967706
0.0641009137 -0.0147729702 -0.0347609904
0.0831182421 -0.0111313898 -0.0429319616
0.0750235539 -0.0160647414 -0.0399816040
0.0582119982 -0.0108948760 -0.0311953436
0.0740161422 -0.0202849575 -0.0384810414
0.0739851949 -0.0509474338 0.0384666726
0.0583560590 -0.0505471635 0.0030049440
0.0867876225 -0.0509215810 0.0388944281
0.0500572080 -0.0507097876 0.0083519554
0.0559923036 -0.0505899819 0.0049115642
0.0885919078 -0.0508909153 0.0356062939
0.0841956951 -0.0507774287 0.0228960705
0.0899541270 -0.0508213518 0.0263899388
0.0865439440 -0.0508532294 0.0315921954
0.0715270390 -0.0506191858 0.0014354435
0.0930755936 -0.0507545573 0.0078942497
0.0818037834 -0.0506815812 0.0059176651
0.0977569338 -0.0507941499 0.0027022396
0.0732886402 -0.0506251440 0.0052718099
0.0708401655 -0.0506113578 0.0035046217
0.0986450849 -0.0508009565 0.0021737641
0.1047934149 -0.0508235203 0.0144180672
0.0867105838 -0.0507133948 0.0067483515
0.0703090157 -0.0509056466 0.0343619156
0.0607922374 -0.0508486317 0.0250502091
0.0970867749 -0.0508418916 0.0260314242
0.0790900873 -0.0506727072 0.0108594335
0.1085850150 -0.0508767791 0.0253457857
0.0997965315 -0.0508453351 0.0251923645
0.0880652315 -0.0507448261 0.0166883292
0.1007987812 -0.0508708062 0.0283127415
0.1314271594 0.0066672790 0.0016763453
0.1310704496 -0.0003470817 0.0081504394
0.1267214311 -0.0043573511 0.0210385785
0.1255303119 0.0257380646 0.0213734155
0.1215578337 0.0140131543 0.0282889273
0.1301750528 -0.0073335075 0.0125858681
0.1272260767 0.0201656308 0.0178123215
0.0216399517 0.0228399554 0.0017027867
0.0175816111 0.0456500585 0.0027891211
0.0234042359 0.0129202476 0.0035595337
0.1266160346 -0.0341702121 0.0115069250
0.1259976866 -0.0463146355 0.0211303985
0.1259750924 -0.0443022296 0.0200636987
0.1263256077 -0.0500035355 0.0216635890
0.1289996884 -0.0442661131 0.0123665946
0.1216298265 0.0045915386 -0.0277690268
0.1213874619 0.0017364051 -0.0280245485
0.1202408897 0.0180327128 -0.0294288621
0.1186249424 0.0158056015 -0.0310929387
0.1274435454 0.0524949348 -0.0003849046
0.1275468492 0.0309743604 -0.0156456265
0.1266754415 0.0231689456 -0.0185338492
0.1317513000 0.0040397705 -0.0003959723
0.1306160662 0.0170549735 -0.0090369364
0.1316651060 0.0053334196 -0.0008367937
0.1267880263 0.0437507202 -0.0130018429
0.1275535086 0.0317265900 -0.0155149078
0.1295729246 0.0296011403 -0.0097109144
0.1249835319 0.0444232756 -0.0179149388
0.1077310257 0.0045677346 -0.0389466473
0.1097499121 0.0228667321 -0.0372031860
0.1104001311 -0.0075511785 -0.0374764614
0.1149396806 0.0090929368 -0.0346107007
0.0830487529 0.0102266213 -0.0433270839
0.0597270510 0.0203995189 -0.0326089465
0.0565100795 0.0062528939 -0.0301190263
0.1045049475 0.0161739560 -0.0400334938
0.0680756898 0.0143914380 -0.0382833208
0.0735712685 0.0132658114 -0.0410595418
0.0698254891 0.0067046623 -0.0393521980
0.0493400312 -0.0399941548 0.0000000000
0.0538492133 -0.0300432435 0.0000000000
0.0533573202 -0.0370402247 0.0000000000
0.0494249890 -0.0051449084 0.0000000000
0.0589999005 -0.0150239684 0.0000000000
0.0528450579 -0.0043659527 0.0000000000
0.0401440310 -0.0375618416 0.0000000000
0.0364760370 -0.0346426397 0.0000000000
0.0409806880 -0.0168251255 0.0000000000
0.0351853458 -0.0080979683 0.0000000000
0.0214370492 0.0300902082 0.0000000000
0.0363857057 0.0063702311 0.0000000000
0.0278178985 0.0175439126 0.0000000000
0.0277919657 -0.0014388114 0.0000000000
0.0411293853 0.0094086523 0.0000000000
0.0338420789 0.0094568545 0.0000000000
0.0250672219 0.0105438303 0.0000000000
0.0447070183 0.0131513266 0.0000000000
0.0317628322 -0.0072862421 0.0000000000
0.0412986186 0.0205506458 0.0000000000
0.0319015434 0.0315963906 0.0000000000
0.0229828953 -0.0308215011 0.0037998878
-0.0121112180 0.0171648811 0.0037992857
-0.0005154737 0.0027614557 0.0037994705
0.0086258334 -0.0197967599 0.0037997253
0.0197006821 -0.0398801245 0.0037999634
0.0000869377 0.0058065917 0.0037994432
-0.0112908630 0.0170260384 0.0037992902
0.0059428315 -0.0202327378 0.0037997192
0.0043366099 -0.0175117820 0.0037996865
-0.0238807597 0.0391047469 0.0037990268
0.0143198115 -0.0350888385 0.0037998960
0.0177470643 -0.0309971474 0.0037998694
-0.0178024884 -0.0032060368 0.0037997753
0.0003646839 -0.0286987725 0.0037998517
-0.0285484010 0.0294568461 0.0037993428
-0.0310862351 0.0333576416 0.0037993247
-0.0196711578 -0.0040735687 0.0037998442
-0.0365900877 0.0120219091 0.0037999414
-0.0326690959 0.0100282532 0.0037998806
-0.0216235803 -0.0035162266 0.0037998841
-0.0164772902 -0.0083252682 0.0037998526
-0.0301427225 0.0062811016 0.0037998957
-0.0397513858 0.0163347065 0.0037999308
-0.0243532664 0.0346345880 0.0037991168
-0.0002338008 -0.0327882094 0.0037999577
0.0109441223 0.0461201093 0.0037765455
-0.0322203556 -0.0190358087 0.0038000001
-0.0342016589 -0.0192287974 0.0038000001
-0.0308810245 -0.0235634340 0.0038000001
-0.0289910519 -0.0284839893 0.0038000001
-0.0415819395 0.0056884394 0.0038000001
-0.0456847930 0.0032771200 0.0038000001
-0.0448490645 -0.0074201266 0.0038000001
-0.0161385920 -0.0178677795 0.0038000001
-0.0069298408 -0.0341891927 0.0038000001
-0.0221119224 -0.0237440951 0.0038000001
-0.0394393039 0.0094977394 0.0038000001
-0.0036041864 -0.0442124750 0.0038000001
-0.0275291003 -0.0058253083 0.0038000001
-0.0247037878 -0.0063722345 0.0038000001
0.0020618706 -0.0458091818 0.0038000001
0.0021291184 0.0343410595 0.0037996019
-0.0083771350 0.0353076993 0.0037993655
0.0280892775 -0.0320755505 0.0037999198
0.0024106029 0.0427701966 0.0037996433
0.0232240260 0.0090602745 0.0037999794
0.0276730921 -0.0268878665 0.0037999318
-0.0109250587 0.0225999260 0.0037992544
0.0247354903 -0.0042570162 0.0037999587
0.0023759477 0.0131286375 0.0037995194
0.0091328159 0.0328697942 0.0037997560
-0.0147614693 0.0387022577 0.0037992336
0.0075940229 0.0166309839 0.0037996533
0.0183723435 -0.0157799155 0.0037997652
-0.0025242585 0.0409229325 0.0037995228
-0.0006781979 0.0321453239 0.0037995285
0.0189282181 0.0070795802 0.0037998729
0.0095132288 0.0217168164 0.0037997183
0.0045940853 0.0338654328 0.0037996563
0.0127436092 0.0352836657 0.0037998486
0.0660865813 -0.0050371431 0.0402171949
0.0569966157 -0.0354507268 0.0335496731
0.0748122059 -0.0371703100 0.0384142932
0.0804421722 -0.0438976649 0.0419414500
0.0575456879 -0.0341994708 0.0339764206
0.0619435206 -0.0416978651 0.0325736663
0.0573880407 -0.0466176258 0.0306648493
0.0709871950 -0.0239330567 0.0383715534
0.0712366263 -0.0164135418 0.0395078631
0.0790909227 -0.0291844468 0.0388556231
0.0810204355 -0.0316412781 0.0392757911
0.0599236422 -0.0472843121 0.0328412692
0.0629358251 -0.0475806779 0.0351185983
0.0612986221 -0.0334212424 -0.0050837105
0.0612012856 -0.0313444907 -0.0022792309
0.0615144612 -0.0279529365 -0.0093967096
0.0582999288 -0.0453938809 -0.0106382865
0.0592235072 -0.0418269555 -0.0216377348
0.0603011015 -0.0379022935 -0.0266874318
0.0589212057 -0.0426123075 -0.0227252877
0.0305957844 0.0634998354 -0.0009035133
0.0390419778 0.0672732773 -0.0079903544
0.0506127213 0.0296156449 -0.0228147463
0.0324506609 0.0513508454 -0.0140534413
0.0515610264 0.0159722393 -0.0241761692
0.0328958942 0.0490155624 -0.0143519032
0.0374791027 0.0678170770 -0.0005134498
0.0377406351 0.0648043814 -0.0102233612
0.0508136656 0.0731420562 -0.0134933520
0.0383340290 0.0625624709 -0.0133548121
0.0051211512 0.0513355436 -0.0058487653
0.0295362200 0.0620968115 -0.0058908637
0.0250357934 0.0571463130 -0.0096600350
0.0428801753 0.0595412949 -0.0164823701
0.0509929506 0.0562319169 -0.0206753340
0.0507359028 0.0479237722 -0.0213128990
0.0483304007 0.0483841388 -0.0197759946
0.0243932280 0.0492937515 -0.0137967572
0.0139000922 0.0553895642 -0.0024533936
0.0409992599 0.0436600659 -0.0169181317
0.0623414337 0.0725432187 -0.0275028550
0.0415450597 0.0306890365 -0.0161461829
0.0146146900 0.0542399303 -0.0077744128
-0.0258319837 -0.0358446429 -0.0148000000
0.0099813535 -0.0176434885 -0.0148000000
-0.0091608407 -0.0289737051 -0.0148000000
0.0057052074 -0.0171715805 -0.0148000000
-0.0035142109 -0.0248767817 -0.0148000000
0.0325783780 -0.0097175108 -0.0148000000
0.0234101894 -0.0133773321 -0.0148000000
0.0127282823 -0.0194304914 -0.0148000000
0.0204033042 -0.0257477675 -0.0148000000
-0.0074143857 -0.0403313003 -0.0148000000
0.0146583209 -0.0321001345 -0.0148000000
-0.0005069965 -0.0320120373 -0.0148000000
0.0050650643 -0.0324777772 -0.0148000000
-0.0158588218 -0.0403903873 -0.0148000000
0.0217592125 -0.0303876668 -0.0148000000
0.0073262280 -0.0458394595 -0.0148000000
0.0170413041 -0.0390884207 -0.0148000000
0.0333692724 -0.0251669805 -0.0148000000
0.0316108343 -0.0263506280 -0.0148000000
-0.0368605234 -0.0034293787 -0.0148000000
-0.0422264595 0.0083412737 -0.0148000000
0.0036273795 -0.0043206349 -0.0148000000
0.0027683110 -0.0038604617 -0.0148000000
-0.0063485975 0.0023203549 -0.0148000000
0.0353188808 -0.0027238808 -0.0148000000
-0.0146332712 0.0034575984 -0.0148000000
-0.0046973490 -0.0024454128 -0.0148000000
0.0189910941 -0.0018404199 -0.0148000000
-0.0208968148 0.0009265760 -0.0148000000
0.0074924560 -0.0019472182 -0.0148000000
0.0209197058 0.0224758287 -0.0148000000
0.0408452096 0.0016472142 -0.0148000000
0.0188026959 0.0212807030 -0.0148000000
-0.0219839885 0.0401235261 -0.0148000000
-0.0001900377 0.0301044217 -0.0148000000
0.0323913905 0.0097109376 -0.0148000000
-0.0120668484 0.0312139862 -0.0148000000
0.0303792878 0.0085056949 -0.0148000000
0.0099316611 0.0240907658 -0.0148000000
0.0250179443 0.0174508612 -0.0148000000
0.0383866076 0.0003972856 -0.0148000000
-0.0260032751 0.0253374580 -0.0148000000
-0.0318103545 0.0243484275 -0.0148000000
-0.0252751446 0.0148854242 -0.0148000000
-0.0275195854 0.0236314916 -0.0148000000
-0.0059714467 0.0075936742 -0.0148000000
-0.0233914473 0.0314983133 -0.0148000000
-0.0387392528 0.0174722153 -0.0148000000
0.0035573318 0.0183410513 -0.0148000000
-0.0098394076 0.0122372269 -0.0148000000
-0.0383975300 0.0210584518 -0.0148000000
-0.0344574344 0.0300027727 -0.0148000000
-0.0260538430 0.0313746607 -0.0148000000
0.0030025678 0.0043818357 -0.0148000000
0.0134477245 0.0314280789 -0.0148000000
0.0276682164 0.0189087810 -0.0148000000
0.0257637833 0.0283172592 -0.0148000000
0.0381306632 0.0123788727 -0.0148000000
0.0184998916 0.0431937409 -0.0148000000
0.0413559310 0.0076152199 -0.0148000000
0.0306907817 0.0324467090 -0.0148000000
0.0450228889 0.0011123898 -0.0148000000
0.0381082907 -0.0336746309 -0.0147983529
0.0463175836 -0.0139790190 -0.0147996359
0.0467367734 -0.0387853953 -0.0147987855
0.0439014716 -0.0116507978 -0.0148000000
-0.0089339798 -0.0185940026 -0.0148000000
-0.0055967727 -0.0186596785 -0.0148000000
-0.0388051974 -0.0264275995 -0.0148000000
-0.0008528243 -0.0154952864 -0.0148000000
-0.0125651642 -0.0162490860 -0.0148000000
-0.0335197795 -0.0106869619 -0.0148000000
0.0070928585 -0.0082916367 -0.0148000000
-0.0280014444 -0.0087420655 -0.0148000000
-0.0031272459 -0.0100491626 -0.0148000000
0.0450075178 -0.0445993109 -0.0120405431
0.0427610994 -0.0406467151 0.0134405693
0.0412233898 -0.0398411846 0.0119732279
0.0360864414 -0.0393615088 -0.0096282644
0.0355064259 -0.0390088586 0.0081766965
0.0413646940 0.0223575441 0.0030047004
0.0447614216 0.0135953778 -0.0036141480
0.0424651834 0.0194605323 -0.0010659247
-0.0466728507 -0.0095662848 -0.0002154976
-0.0417189534 -0.0237638602 0.0021498990
0.0435288467 0.0163411632 -0.0132931020
0.0397695145 0.0256994181 -0.0142197885
-0.0417618910 -0.0229325603 -0.0067221478
-0.0443489293 -0.0168985325 -0.0080605527
-0.0343910394 -0.0326779793 -0.0063239887
-0.0358652846 -0.0310959464 -0.0044406322
0.0362883304 0.0316467593 -0.0073976575
0.0310261373 0.0357259519 -0.0102674270
-0.0385424059 -0.0289323298 -0.0143896482
-0.0236082725 -0.0417716390 -0.0138326406
0.0262601319 0.0386995821 0.0032859539
0.0335550048 0.0341540071 0.0008206172
0.0249352139 0.0399431199 -0.0015815756
-0.0137801043 -0.0447882043 -0.0007984176
-0.0133058652 -0.0449755389 -0.0017208597
0.0139925171 0.0456586726 -0.0000007896
0.0086274221 0.0465917685 -0.0035336422
0.0199377034 0.0438751827 -0.0111647088
-0.0034457077 -0.0478540303 0.0000433025
-0.0179676306 -0.0440278095 -0.0124696391
0.0037631050 0.0473199306 -0.0046028632
-0.0003115170 -0.0479957500 -0.0085230606
0.0010044484 -0.0484122503 0.0003536261
0.0083293381 -0.0460526448 0.0035022588
0.0100100151 -0.0460579433 -0.0016590456
0.0135703770 -0.0449623622 -0.0021922000
-0.0062450214 0.0474400752 -0.0041222718
-0.0105003528 0.0461653152 0.0014886437
-0.0196612968 0.0434476258 0.0005020601
-0.0127863673 0.0450544719 -0.0108881614
-0.0281645483 0.0390201830 -0.0115408412
0.0272893118 -0.0399593424 -0.0056707106
-0.0277496333 0.0389209627 -0.0022880531
-0.0264463491 0.0397602223 -0.0006483664
-0.0372683435 0.0291229757 -0.0064223737
-0.0388583773 0.0262764776 -0.0083420831
-0.0416830964 0.0218162028 -0.0077547931
-0.0460688592 0.0138606893 -0.0097510312
-0.0465782698 0.0128472571 -0.0073246633
-0.0469188213 0.0107934221 -0.0096961790
-0.0477677721 0.0005471897 -0.0023161783
0.0469701700 -0.0466121323 0.0155975294
0.0433273307 -0.0491799347 0.0008347262
0.0646479048 -0.0511999987 -0.0271827099
0.0637259498 -0.0511999987 -0.0310657729
0.0557243250 -0.0511999987 0.0183513608
0.0527660211 -0.0511999987 0.0097603712
0.0649687881 -0.0511999987 0.0072389946
0.0657124042 -0.0511999987 0.0041189903
0.0591271084 -0.0511999987 0.0022763413
0.0680357884 -0.0511999987 0.0048067098
0.0873176149 -0.0511999987 0.0114499025
0.0511177152 -0.0511999987 -0.0138368278
0.0860343804 -0.0511999987 0.0059031480
0.0566350074 -0.0511999987 -0.0118594073
0.0516879080 -0.0511999987 0.0022329203
0.0652154776 -0.0511999987 0.0125629120
0.0896620553 -0.0511999987 0.0042588109
0.0884863358 -0.0511999987 -0.0003208046
0.1033670929 -0.0511999987 0.0151890048
0.0907360751 -0.0511999987 0.0077579867
0.0752961096 -0.0511999987 -0.0117690287
0.0753907122 -0.0511999987 -0.0041779575
0.0597610369 -0.0511999987 0.0198375710
0.0856352112 -0.0511999987 0.0242921045
0.1124457141 -0.0511999987 0.0269181051
0.1035366452 -0.0511999987 0.0051447520
0.0781055520 -0.0511999987 -0.0183756245
0.1227361219 -0.0511999987 0.0193541671
0.1061202580 -0.0511999987 0.0005964906
0.1178715281 -0.0511999987 0.0122601733
0.0795339706 -0.0511999987 -0.0205176136
0.0985555297 -0.0511999987 -0.0096385578
0.0679331787 -0.0511999987 -0.0352224552
0.1090571735 -0.0511999987 -0.0018329565
0.1079869955 -0.0511999987 -0.0059558446
0.0818887656 -0.0511999987 -0.0288227982
0.1218764905 -0.0511999987 0.0022683156
0.1258889597 -0.0511999987 0.0060247589
0.1255663993 -0.0511999987 0.0051908946
0.0969969461 -0.0511999987 -0.0252086689
0.0483247349 -0.0512008011 0.0144503281
0.1075686461 -0.0511999987 -0.0154174295
0.1138732472 -0.0511999987 -0.0093593310
0.1167222346 -0.0511999987 -0.0102714623
0.0947411386 -0.0511999987 -0.0341195998
0.0947198308 -0.0511999987 -0.0331152105
0.0987656482 -0.0511999987 -0.0386381897
0.1097205087 -0.0511999987 -0.0299800968
0.0441651104 -0.0511992069 -0.0025984797
0.0492483525 -0.0511997979 0.0018019802
0.0972757531 -0.0511999987 0.0329741776
0.0988955301 -0.0511999987 0.0350217744
0.0721150559 -0.0511999987 0.0350826785
0.0839746068 -0.0511999987 0.0360701158
0.0619597879 -0.0511999987 0.0241369662
0.0897759764 -0.0511999987 0.0400996165
-0.0469709980 0.0053956882 -0.0144497837
-0.0038959051 -0.0031352087 0.0524043069
0.0688686482 0.0761751726 -0.0098734618
0.0762307285 0.0747501333 -0.0188499979
0.1096877778 0.0660424021 -0.0095658779
0.1082721991 0.0666866589 -0.0120685779
0.1183572000 0.0631372787 -0.0033552854
0.1012026624 0.0686627021 -0.0136899961
0.0715452170 0.0747280338 -0.0010023246
0.0976531949 0.0700034461 -0.0175585836
0.1066490201 0.0658674575 -0.0012878369
0.1077374721 0.0679983758 -0.0223747215
0.1029759942 0.0676900839 -0.0091043490
0.0950433959 0.0691592540 -0.0043688541
0.1000261488 0.0679231363 -0.0045984848
0.0772429582 0.0745439461 -0.0282367845
0.0622226278 0.0774553523 -0.0164780433
0.0757556500 0.0748376137 -0.0241005990
0.0904245728 0.0719835217 -0.0332043597
0.1021617664 0.0696817096 -0.0283885060
0.0847429757 0.0730883533 -0.0171897772
0.1207962457 0.0631958782 -0.0101304504
0.0613374357 0.0772333171 0.0113169583
0.0697784275 0.0756757362 0.0165027094
0.0671416913 0.0762282741 0.0214557373
0.1084612182 0.0681255975 0.0165282042
0.1064591227 0.0688959520 0.0254371382
0.0862058560 0.0725515498 0.0215446697
0.0864418327 0.0725357079 0.0237485580
0.0830817864 0.0729739958 0.0079326229
0.0730769641 0.0750018699 0.0137305861
0.0771819240 0.0742246498 0.0153624573
0.0731412334 0.0749580500 0.0114401439
0.0672013100 0.0760108295 0.0038201773
0.0718258829 0.0751377939 0.0058463987
0.0711355763 0.0752477024 0.0040505879
0.0975415326 0.0702262186 0.0129480983
0.0990751907 0.0697576736 0.0005209425
0.1121326805 0.0672596383 0.0038343918
0.1129759227 0.0676653210 0.0208946669
0.1114861639 0.0684551792 0.0225557304
0.1230660367 0.0617266305 0.0055118529
-0.0090681012 0.0035069730 0.0517392363
0.0044286678 -0.0058338750 0.0532326816
0.0018240427 -0.0007367774 0.0529836285
0.0067985449 -0.0026188395 0.0534247275
0.0072419888 0.0025377147 0.0534691597
-0.0116260682 0.0088587996 0.0513813366
-0.0026674134 -0.0092023013 0.0525285249
0.0866999644 0.0770086341 0.0011292532
