0.0498542239 -0.0807416827 0.0142791386
-0.0024831835 -0.0605063750 0.0548947111
-0.0057377064 -0.0512095433 0.0547050705
0.0530379261 0.0139525665 -0.1485195093
0.0537863670 0.0093768127 -0.1228245001
0.0533602586 0.0096636395 -0.0723510692
0.0543731745 0.0050107360 -0.0808165117
0.0540307236 0.0074626679 -0.1026347516
0.0546044433 0.0036772924 -0.0751364351
0.0544169379 0.0063323070 -0.1239402300
0.0542961850 0.0051070440 -0.0729461516
0.0540152537 0.0066692786 -0.0782297702
0.0536919004 0.0079021322 -0.0684367843
0.0541930948 0.0054732911 -0.0690712115
0.0540067691 0.0092327306 -0.1490516941
0.0176603838 -0.0599827388 -0.1720828983
0.0200648548 -0.0803017616 -0.1214207227
0.0192862575 -0.0864668616 -0.1070930566
0.0188241216 -0.0724284775 -0.1412654063
0.0137965984 -0.0908397910 -0.1003482678
0.0118596378 -0.0589494186 -0.1785901956
0.0184070435 -0.0522007775 -0.1903316048
0.0174806214 -0.1005078808 -0.0744842029
0.0154455910 -0.0632107649 -0.1658319475
0.0164650288 -0.0903385633 -0.0997097350
0.0208751602 -0.0560145345 -0.1794264976
0.0114971227 -0.0782216096 -0.1323677987
0.0109084454 -0.0539339530 -0.1913430458
0.0239317035 -0.0157237008 0.0489279536
0.0210452752 -0.0204710516 0.0502592405
0.0209134320 -0.0273846221 0.0504107172
0.0198382580 -0.0285544475 0.0508985085
0.0190419978 -0.0021324077 0.0508903005
0.0235315320 -0.0572495010 0.0496658325
-0.0255169836 -0.0637000279 -0.1561584668
-0.0270564020 -0.0859988208 -0.1001108099
-0.0236698960 -0.1149149139 -0.0337125357
-0.0231971199 -0.1183889484 -0.0258122454
-0.0276937958 -0.0944528883 -0.0787989083
-0.0255492930 -0.0868949533 -0.0996894420
-0.0435858026 -0.0550901677 0.0336520902
-0.0441033346 -0.0171634375 0.0326488957
-0.0463286913 -0.0304916373 0.0290846578
-0.0435927407 -0.0563801938 0.0336462817
0.0405458299 -0.1056884411 -0.0272827040
0.0420639092 -0.1043552806 -0.0271125838
0.0378879744 -0.0638957447 -0.1342625218
0.0390543047 -0.0977196319 -0.0498821298
0.0370478542 -0.1053854385 -0.0358339009
0.0380383771 -0.1070563465 -0.0295802651
0.0379336331 -0.0745898816 -0.1083060707
0.0389426259 -0.0957459358 -0.0549034072
0.0174945796 0.0067390953 0.0275019448
0.0236475534 0.0024779139 0.0390024676
0.0243695389 0.0026106737 0.0382484312
0.0213769909 0.0177974686 -0.0109409855
0.0095203667 0.0360369154 -0.0664391873
0.0165664328 0.0193686291 -0.0140804792
0.0093070746 0.0272255498 -0.0370551439
0.0235419134 0.0004837406 0.0456774614
0.0185923656 0.0099205186 0.0164504576
0.0097368452 0.0283162410 -0.0408670735
0.0170911066 0.0113348322 0.0123990653
0.0182469950 0.0169358825 -0.0067211641
0.0107364568 0.0251848055 -0.0308901741
0.0258072946 0.0069754301 0.0231159383
0.0046196025 0.0371461001 -0.0680038631
0.0138963173 0.0219540028 -0.0215185831
0.0059571198 0.0447640131 -0.0939074248
0.0156142437 0.0465020880 -0.1049366614
0.0151968825 0.0509669558 -0.1202313088
0.0150271453 0.0401107451 -0.0819881641
0.0188996425 0.0357427287 -0.0701094813
0.0174560915 0.0467582616 -0.1074753293
0.0250865300 0.0220735357 -0.0276555608
0.0101992742 0.0522051244 -0.1201263571
-0.0482074939 -0.0928688887 0.0116010895
0.0089190764 -0.0712581485 -0.1508492845
0.0113487408 -0.1188994382 -0.0339397109
0.0160135664 -0.1118963271 -0.0480349054
0.0116626438 -0.1069715412 -0.0626427739
0.0155776381 -0.1188564910 -0.0314416283
0.0165505830 -0.1224581181 -0.0221177473
0.0090026254 -0.0668097789 -0.1615743801
0.0090738853 -0.1046731816 -0.0698036352
0.0107613523 -0.1084826242 -0.0595366461
0.0150412102 -0.0601402474 0.0525610071
0.0124415906 -0.0265249637 0.0536354892
0.0165978623 -0.0267757334 0.0522539904
0.0136166551 -0.0258777755 0.0532494263
-0.0160160222 -0.0781286194 0.0500994198
-0.0212409301 -0.0680938606 0.0501315875
-0.0476115172 -0.0333370673 0.0270037451
-0.0450349745 -0.0595191670 0.0313049765
-0.0459409495 -0.0629435851 0.0298383059
-0.0445636355 -0.1003582391 0.0172957108
0.0002619221 -0.1067677080 -0.0656426169
-0.0028644324 -0.0794056865 -0.1320477215
-0.0056171741 -0.1204619442 -0.0323913201
0.0039154718 -0.1175037159 -0.0395927427
-0.0070464109 -0.0606291503 -0.1776120896
-0.0048121747 -0.0953258804 -0.0934024538
-0.0069282425 -0.0768037747 -0.1383538980
-0.0032681571 -0.0923957702 -0.1005177631
-0.0046389932 -0.0861091444 -0.1157733653
-0.0032369367 -0.1034174822 -0.0737663373
-0.0076458024 -0.1161472759 -0.0428591882
0.0001584588 -0.0957628931 -0.0923528692
-0.0073939488 -0.0819847568 -0.1257777664
0.0034156579 -0.0852468018 -0.1177822184
0.0076244282 -0.1252657814 -0.0207604359
0.0065473114 -0.0793486363 -0.1320079331
0.0006733091 -0.0671260615 -0.1617304837
0.0054142599 -0.0762946093 -0.1394280598
0.0068167868 -0.0916867828 -0.1021156150
0.0073463763 -0.0859076837 -0.1161040686
0.0046082448 -0.0769018514 -0.1379729673
0.0060536413 -0.0978866052 -0.0871126239
-0.0022021283 -0.0686195858 -0.1581692113
0.0064102276 -0.0950512501 -0.0939737694
0.0033084374 -0.0642707798 -0.1685951021
-0.0227235111 -0.0846100122 -0.1079483079
-0.0184860216 -0.0630182722 -0.1634968082
-0.0224050817 -0.0560297321 -0.1772311139
-0.0230368144 -0.0933242514 -0.0866502301
-0.0250945151 -0.0600572358 -0.1653459803
-0.0241666093 -0.0592978710 -0.1679245123
-0.0178462281 -0.0906294042 -0.0973235295
-0.0248769966 -0.0597153971 -0.1663461185
-0.0217643836 -0.0899872826 -0.0957306419
-0.0245265599 -0.0622139286 -0.1605928200
-0.0250601420 -0.0677322238 -0.1468368694
-0.0095228285 -0.0606060527 -0.1765144663
-0.0227645593 -0.0616397777 -0.1633932605
-0.0175537106 -0.0724002647 -0.1415853904
-0.0159537480 -0.0603260316 -0.1720309065
-0.0203248174 -0.0897310718 -0.0975044847
-0.0149236741 -0.0917899603 -0.0968369551
-0.0143696323 -0.0954234438 -0.0884641149
-0.0141946701 -0.0948782656 -0.0899193200
-0.0187620191 -0.1112451432 -0.0467605082
-0.0083860493 -0.0647761176 -0.1672999892
-0.0109873153 -0.0737404594 -0.1435845522
-0.0115454730 -0.0720192411 -0.1473229444
-0.0091276724 -0.1240518533 -0.0231697152
-0.0134797569 -0.1052330155 -0.0653923726
-0.0129537565 -0.1092301420 -0.0561172207
-0.0084137718 -0.1012740995 -0.0788849139
-0.0121518391 -0.0991732697 -0.0810918165
-0.0143694125 -0.0083933662 0.0524875145
-0.0141063345 -0.0267036169 0.0526608193
-0.0143816498 -0.0286379288 0.0525915142
-0.0083112268 -0.0046351183 0.0542186708
-0.0144020946 -0.0022167816 0.0524452584
-0.0243923051 -0.0080685491 0.0495913171
-0.0171039601 -0.0357169751 0.0518453388
-0.0191700548 -0.0324857533 0.0512356224
-0.0166477497 -0.0580828005 0.0521174639
0.0011740101 0.0393751617 -0.0748038104
0.0045549267 0.0027966127 0.0436579881
-0.0002661946 0.0161078010 0.0007675448
0.0025785532 0.0181684472 -0.0060907821
0.0021243140 0.0191891682 -0.0093745350
-0.0006200775 0.0309197822 -0.0472637438
-0.0004675430 0.0296734495 -0.0432296947
0.0062791269 0.0029173317 0.0431613731
0.0067756230 0.0088018309 0.0240407283
0.0032255093 0.0342584735 -0.0583292254
0.0014597928 0.0011401976 0.0492201591
-0.0050199122 0.0043761968 0.0391164974
-0.0026021110 0.0152830357 0.0035854626
0.0032400374 0.0376234203 -0.0692466263
-0.0454606172 0.0159592484 -0.0376777524
-0.0441851988 0.0207816780 -0.0558158261
-0.0417726559 0.0230859321 -0.0582267690
-0.0501855317 0.0060642468 -0.0077740423
-0.0401899287 0.0272971907 -0.0724391299
-0.0534634454 -0.0087427150 0.0120982278
-0.0529263311 -0.0309942306 0.0144416847
-0.0539896415 -0.0203835068 0.0106122611
-0.0536036478 -0.0098854412 0.0116548583
-0.0538237017 0.0094273100 -0.0856276694
-0.0538075647 0.0097909256 -0.0936563540
-0.0548292741 0.0042294710 -0.1698714586
-0.0543548320 0.0059264968 -0.1048355284
-0.0544809844 0.0037876260 -0.0656297619
-0.0536368205 0.0114863433 -0.1065639455
-0.0547495410 0.0051783133 -0.1811592271
-0.0542358623 0.0076954690 -0.1335025735
-0.0543780093 0.0036815553 -0.0356321410
-0.0545402480 0.0061179531 -0.1588646351
-0.0549327698 -0.0100760942 -0.1292143587
-0.0549686112 -0.0347601382 -0.0738544202
-0.0549280466 -0.0427505453 -0.0012168948
-0.0549441740 -0.0092789256 -0.1441780185
-0.0548505944 -0.0005164405 -0.0790205689
-0.0549104406 -0.0064409409 -0.1194825361
-0.0548774006 -0.0269057371 -0.0077622321
-0.0548866709 -0.0193107708 -0.0460864080
-0.0549346040 -0.0139039424 -0.1167235660
-0.0549133989 -0.0142709044 -0.0930998428
-0.0548297249 -0.0133449413 -0.0088220654
-0.0549236312 -0.0420946134 0.0009442696
-0.0549348060 -0.0423990924 -0.0096302752
-0.0548697961 -0.0033848906 -0.0883592045
-0.0549112235 -0.0153779102 -0.0866494020
-0.0548298387 -0.0161279468 0.0015386356
-0.0549224560 -0.0121057447 -0.1107532146
-0.0549052008 -0.0222797831 -0.0543416819
-0.0548124948 -0.0000307668 -0.0408872783
-0.0548581043 -0.0236370345 0.0001683576
-0.0549456553 -0.0249045148 -0.0868898755
-0.0548904350 -0.0040074899 -0.1076626119
-0.0548873120 -0.0231928116 -0.0321400843
-0.0548022036 -0.0065489468 -0.0055471811
-0.0548609100 -0.0094818044 -0.0560793090
-0.0549410644 -0.0093485310 -0.1406542524
-0.0548648320 -0.0030037331 -0.0845878007
-0.0549374172 -0.0187539334 -0.1014104536
-0.0548658727 -0.0072262009 -0.0697786320
-0.0548338818 0.0001169745 -0.0638761521
-0.0549300243 -0.0204960448 -0.0870958320
-0.0549495476 -0.0173795078 -0.1193096560
-0.0549097416 -0.0291143686 -0.0333672372
-0.0549345079 -0.0069850003 -0.1426776695
-0.0549255295 -0.0391242287 -0.0122324669
-0.0549231588 -0.0306832421 -0.0415324491
-0.0548392948 -0.0023668837 -0.0602003001
-0.0549500967 -0.0206046742 -0.1077405122
-0.0549502135 -0.0391585093 -0.0379942107
-0.0549310097 -0.0378972832 -0.0226009918
-0.0549297398 -0.0244950706 -0.0717381224
-0.0548700524 -0.0049711634 -0.0826546092
-0.0549517317 -0.0255649376 -0.0907764042
-0.0549333662 -0.0228511802 -0.0817322637
-0.0548501630 -0.0151104987 -0.0236107605
-0.0548919110 -0.0142992116 -0.0704548283
-0.0548604222 -0.0249665741 0.0027438564
-0.0549114966 -0.0370192724 -0.0054402187
-0.0549066439 -0.0073067409 -0.1122397595
-0.0549072546 -0.0111704010 -0.0983308911
-0.0549216007 -0.0182011899 -0.0869021788
0.0481533205 0.0024400911 0.0142175811
0.0500664350 0.0028982726 0.0085248802
0.0435838840 0.0060053059 0.0090433903
0.0458964765 0.0042648371 0.0114046801
0.0423152839 0.0123884945 -0.0141203787
0.0453733041 0.0124178664 -0.0203878107
0.0548889466 -0.0021278631 0.0029050058
0.0549456453 -0.0408784722 -0.0070536336
0.0550474970 -0.0303606894 -0.0887993566
0.0551230053 -0.0092536566 -0.1600088970
0.0550402492 -0.0352381903 -0.0796917651
0.0550728120 -0.0246168760 -0.1116112156
0.0550370543 -0.0325684281 -0.0795180953
0.0549875631 -0.0234080130 -0.0511697296
0.0550111849 -0.0215407312 -0.0696726188
0.0549513751 -0.0528108599 -0.0016715005
0.0549689811 -0.0327142816 -0.0303687003
0.0549692833 -0.0135003330 -0.0458984924
0.0550770924 -0.0222666297 -0.1165673616
0.0549561684 -0.0155432449 -0.0348237909
0.0549736318 -0.0025552434 -0.0577531877
0.0549722057 -0.0175589685 -0.0447690884
0.0549715534 -0.0080076329 -0.0519109908
0.0550209869 -0.0371577683 -0.0642873452
0.0551417733 -0.0087179483 -0.1739544080
0.0549357278 -0.0060543883 -0.0276623332
0.0550316979 -0.0194223410 -0.0861363697
0.0549475582 -0.0209144623 -0.0243413717
0.0550437582 -0.0151981634 -0.0981897657
0.0549442933 -0.0500199570 0.0012053387
0.0549396644 -0.0390600506 -0.0041947496
0.0550082674 -0.0289302266 -0.0616822286
0.0549387855 -0.0025757545 -0.0326370431
0.0549307360 -0.0319582918 -0.0034231731
0.0549108566 -0.0235067752 0.0041606834
0.0549402361 -0.0257665429 -0.0152004792
0.0549424504 -0.0303097887 -0.0131748019
0.0549570156 -0.0505700999 -0.0075201344
0.0550179722 -0.0158031380 -0.0791340149
0.0549879129 -0.0289456640 -0.0470085717
0.0550131583 -0.0218125765 -0.0708774080
0.0550809823 -0.0167903865 -0.1237334682
0.0550137380 -0.0033747916 -0.0859886181
0.0550689397 -0.0047663406 -0.1246414772
0.0550143732 -0.0102440764 -0.0809717774
0.0549999573 -0.0421971205 -0.0451237438
0.0549810979 -0.0286694652 -0.0423198262
0.0550452495 -0.0191692507 -0.0960992916
0.0550638949 -0.0101646540 -0.1167056018
0.0549611165 -0.0183843067 -0.0361238098
0.0549541957 -0.0511010791 -0.0050658027
0.0550016986 -0.0221108753 -0.0623852546
0.0549783967 -0.0091562752 -0.0559248216
0.0549863967 -0.0090451650 -0.0617757851
0.0549567993 -0.0276247450 -0.0256501576
0.0550038098 -0.0020036221 -0.0799300296
0.0549812068 -0.0314131795 -0.0402117854
0.0105532240 0.0504377431 -0.1142496292
0.0094685216 0.0415692759 -0.0847062602
0.0183017769 0.0316055276 -0.0552078902
0.0112628514 0.0422083327 -0.0874657634
0.0246838902 0.0155347652 -0.0047391070
0.0227469476 0.0208793770 -0.0215915584
0.0128563985 0.0363662482 -0.0688522639
0.0546982187 0.0034443627 -0.1379707386
0.0547946169 0.0015251721 -0.0873361156
0.0546379976 0.0042833617 -0.1197269158
0.0551057893 -0.0030076550 -0.1542268888
0.0549540634 -0.0011861692 -0.0677512903
0.0546322014 0.0045860274 -0.1487206638
0.0549360678 -0.0010261274 -0.0497353394
0.0549447493 -0.0002703642 -0.1738484357
0.0550478474 -0.0021142773 -0.1486087438
0.0550566243 -0.0019714556 -0.1880018514
0.0549862270 -0.0014431868 -0.1039730477
0.0051070521 0.0546060245 -0.1418218165
0.0038259926 0.0547020281 -0.1415008528
0.0124065188 0.0536337839 -0.1861316285
0.0101903609 0.0539933882 -0.1352509464
0.0131374560 0.0534203783 -0.1748213096
-0.0036083412 -0.1273670813 0.0144051020
-0.0015036736 -0.1256176583 0.0202523351
-0.0412146892 -0.0059474512 0.0365183638
-0.0322151465 -0.0313929647 0.0442632338
-0.0371465431 -0.0007903271 0.0397885403
-0.0308171838 -0.0443772396 0.0455914279
-0.0330696014 -0.0232500590 0.0434485584
-0.0398330087 -0.0624399902 0.0375548193
-0.0351346000 -0.0447585839 0.0420343155
-0.0393424187 -0.0400432675 0.0381214480
-0.0369080665 -0.0350352186 0.0404223904
-0.0357471226 -0.0607999150 0.0413842282
-0.0429031773 -0.1111451772 0.0010109033
-0.0517681957 -0.0757839105 -0.0134232530
-0.0497157304 -0.0735925829 -0.0577092984
-0.0490161838 -0.0765473696 -0.0602232839
-0.0516251456 -0.0591335324 -0.0725772507
-0.0484703544 -0.0856538591 -0.0390716529
-0.0501424023 -0.0804272005 -0.0268236433
-0.0510922408 -0.0582387647 -0.0851830014
-0.0527461341 -0.0373198562 -0.1265910893
-0.0531702898 -0.0278769572 -0.1510698792
-0.0489861166 -0.0775170760 -0.0574673923
-0.0535606862 -0.0170782577 -0.1807622994
-0.0470044831 -0.1025734635 -0.0078805102
-0.0471730378 -0.1036828393 -0.0010849723
-0.0493536391 -0.0879442799 -0.0154339476
-0.0489474227 -0.0808960163 -0.0466785342
-0.0515650336 -0.0499502282 -0.1048657148
-0.0517628818 -0.0501069668 -0.1007819471
-0.0520501111 -0.0744845265 -0.0127792446
-0.0511829537 -0.0733119386 -0.0323285218
-0.0514935360 -0.0651602534 -0.0544575899
-0.0507932593 -0.0848453516 -0.0001265721
-0.0475518582 -0.0965528811 -0.0185169173
-0.0499934453 -0.0803629246 -0.0297156488
-0.0516518166 -0.0550773173 -0.0858836270
0.0332222321 -0.0976867205 -0.0617084231
0.0289221998 -0.0741293666 -0.1251654234
0.0286802219 -0.0766126285 -0.1196019205
0.0326299688 -0.0486876612 -0.1801757196
0.0352733678 -0.0834602557 -0.0925049170
0.0307701549 -0.0626603294 -0.1496780990
0.0283068942 -0.0613578425 -0.1567900420
0.0275170736 -0.0662632935 -0.1463047358
0.0327628765 -0.0845049095 -0.0940644777
0.0348274597 -0.0931353760 -0.0700242662
0.0295055221 -0.0733088416 -0.1261887090
0.0338529125 -0.0603003756 -0.1503462821
0.0320102863 -0.0604172474 -0.1530494631
0.0339083841 -0.0863463996 -0.0877935301
0.0447014365 -0.0319417940 -0.1899045546
0.0452242695 -0.0629218167 -0.1153392178
0.0423355354 -0.0405831536 -0.1766533169
0.0466280564 -0.0556728133 -0.1282008809
0.0382917461 -0.0506717646 -0.1650339915
0.0397972631 -0.0637768727 -0.1296321691
0.0442902119 -0.0323989559 -0.1900630910
0.0418621993 -0.0497394930 -0.1565017299
0.0439677422 -0.0459232222 -0.1591665765
0.0476847974 -0.0363802683 -0.1704820433
0.0462450998 -0.0568337627 -0.1266162299
0.0434133140 -0.0894589963 -0.0582547862
0.0432204779 -0.0725144093 -0.0987586085
0.0459909452 -0.0386118344 -0.1703139447
0.0430752110 -0.0446052365 -0.1649539452
0.0413349017 -0.0779838036 -0.0915377399
-0.0057267139 -0.0734860418 0.0530741521
-0.0102850437 -0.0706912836 0.0529119736
-0.0540291090 -0.0132992992 -0.1770398398
-0.0549359265 -0.0100261128 -0.1500447791
-0.0543225214 -0.0354332120 -0.0986494900
-0.0544840188 -0.0072284959 -0.1767986608
-0.0545263549 -0.0321370974 -0.1002711570
-0.0549099929 -0.0107031201 -0.1490646674
-0.0546988002 -0.0498639814 -0.0400289027
-0.0549117431 -0.0168166881 -0.1306326536
-0.0542921238 -0.0347529230 -0.1019270412
-0.0537779245 -0.0121208130 -0.1907796886
-0.0547396419 -0.0146445691 -0.1441451518
-0.0546675582 -0.0228759029 -0.1223511916
-0.0545398872 -0.0189275333 -0.1393940325
-0.0547210732 -0.0318743983 -0.0931527029
-0.0364346512 -0.0675766386 0.0399905723
-0.0341579122 -0.0779700504 0.0400018798
-0.0295460102 -0.1215603735 -0.0010301192
-0.0539313886 0.0097281850 -0.1708664505
-0.0536683365 0.0115658882 -0.1495152468
-0.0532280892 0.0130023207 -0.1873003110
-0.0528932466 0.0147408029 -0.1870666446
-0.0537934260 0.0100565221 -0.1881704557
-0.0327081090 0.0367873372 -0.0934853093
-0.0366766979 0.0329722210 -0.0874390341
-0.0337325116 0.0339385635 -0.0837636210
-0.0362696436 0.0281474263 -0.0652218353
-0.0358105076 0.0372066332 -0.1036522387
-0.0344797831 0.0385370682 -0.1059036846
0.0548594207 -0.0539518921 -0.0220591962
0.0526217063 -0.0572351594 -0.0597889762
0.0530698107 -0.0623298357 -0.0320491506
0.0520409541 -0.0659838907 -0.0418715589
0.0536265829 -0.0555267594 -0.0436670188
0.0536976454 -0.0595437599 -0.0280072532
0.0512529680 -0.0831377554 0.0009785078
0.0539134708 -0.0335203612 -0.1145735913
0.0544195841 -0.0185715201 -0.1558900549
0.0529518316 -0.0687259897 -0.0122015953
0.0541310570 -0.0300108392 -0.1220996128
0.0537310660 -0.0398723813 -0.0962988749
0.0546067650 -0.0535288302 -0.0291045353
0.0532769035 -0.0539477515 -0.0569040273
0.0546206087 -0.0350894253 -0.0935040176
0.0523801241 -0.0655998003 -0.0357543995
0.0532081756 -0.0492879443 -0.0747680291
0.0523313268 -0.0641085778 -0.0420611250
0.0535188362 -0.0391161978 -0.1036233917
0.0543911341 -0.0372287610 -0.0910476584
0.0547592455 -0.0612718373 0.0014218126
0.0540939923 -0.0346057584 -0.1067917396
0.0543945663 -0.0426152120 -0.0720709719
0.0378679709 0.0398043323 -0.1552900464
0.0372318586 0.0406400654 -0.1348163311
0.0354598792 0.0421761134 -0.1679721119
0.0427769010 0.0344602981 -0.1874131455
0.0493567616 -0.0465867956 -0.1353142533
0.0481026390 -0.0804995205 -0.0559290110
0.0535956959 -0.0120196453 -0.1854224118
0.0509649474 -0.0507933967 -0.1071130398
0.0512409676 -0.0302229436 -0.1603096381
0.0497189122 -0.0586306539 -0.0987176214
0.0496598153 -0.0639966153 -0.0847065843
0.0530549662 -0.0139288950 -0.1858453604
0.0499258739 -0.0340858108 -0.1634658723
0.0515760902 -0.0268311939 -0.1660671547
0.0480164408 -0.0805518333 -0.0566834256
0.0518937962 -0.0263878936 -0.1639693142
0.0512347698 -0.0500867250 -0.1062313629
0.0528176187 -0.0296565891 -0.1454462442
0.0511619864 -0.0366453764 -0.1436258960
0.0472935568 -0.0882028227 -0.0433516493
0.0521119229 -0.0305037014 -0.1504809523
0.0506518445 -0.0565073814 -0.0947966560
0.0395394848 -0.1142209644 -0.0022997377
0.0499578837 -0.0841061351 0.0108533290
0.0530694661 0.0140417212 -0.1662751540
0.0523283137 0.0169442905 -0.1447273451
0.0542763708 0.0093347952 -0.1915065205
0.0425982593 0.0303770849 -0.0992526039
0.0506392417 0.0125145991 -0.0452226059
0.0426941337 0.0316010864 -0.1075037905
0.0500430862 0.0155886709 -0.0600599450
0.0460922441 0.0224961064 -0.0750366614
0.0471247805 0.0237216718 -0.0898842208
0.0421760516 0.0346370417 -0.1226541951
0.0303220765 0.0458235077 -0.1449251931
0.0345001083 0.0428443722 -0.1606977950
0.0310273969 0.0452758890 -0.1394728045
0.0239057208 -0.1239814741 0.0034797073
0.0081540517 -0.1287452898 0.0016893458
0.0012924014 -0.1283130904 0.0106248060
0.0102340130 -0.1277876169 0.0083964852
-0.0079107782 -0.1220418286 0.0275590661
0.0007792534 -0.1196823760 0.0326859234
-0.0075976820 -0.1215262571 0.0286249370
-0.0236882474 -0.1167817621 0.0279240435
-0.0332935689 -0.1167819680 0.0146440357
-0.0196687591 -0.1239969531 0.0151505914
-0.0482881724 -0.0950876599 0.0075418369
-0.0423132413 -0.1034344466 -0.0290769329
-0.0383427389 -0.0878345534 -0.0747267232
-0.0401174191 -0.0721392716 -0.1087345341
-0.0397041943 -0.0789229405 -0.0933049342
-0.0403254042 -0.0836882897 -0.0805826860
-0.0423811976 -0.0972085120 -0.0438811643
-0.0370977937 -0.0937834820 -0.0630193593
-0.0421362432 -0.0785191245 -0.0892490422
-0.0416170054 -0.1025998278 -0.0325189332
0.0234756541 -0.1162097896 -0.0310385384
0.0237454254 -0.0780382530 -0.1236005687
0.0241663839 -0.0900373914 -0.0940098375
0.0221904834 -0.0777166683 -0.1259015710
0.0198549603 -0.1050107198 -0.0618093798
0.0199096545 -0.1037917316 -0.0647202870
0.0231919603 -0.1150071089 -0.0342403492
0.0431421422 -0.1072819351 -0.0168980620
0.0433715186 -0.1063286304 -0.0183634555
0.0481109342 -0.0432171416 -0.1530910729
0.0457477860 -0.0890819535 -0.0512776200
0.0190841114 -0.1258390980 -0.0068040917
-0.0204760059 -0.1060012870 0.0416747598
-0.0172123903 -0.0994836069 0.0449873386
-0.0230907523 -0.0792471956 0.0470896438
-0.0285281839 -0.0562110803 0.0469265542
-0.0265372986 -0.0620024831 0.0479331303
-0.0240625353 -0.0515857852 0.0494109051
-0.0003947472 -0.0783654723 0.0524964993
-0.0542050431 -0.0586345247 0.0080272448
-0.0548995708 -0.0566488998 0.0036961397
-0.0543354515 -0.0448639649 0.0079270085
-0.0503822550 -0.0384387463 0.0218634339
-0.0501307591 -0.0377156354 0.0225247876
-0.0507171579 -0.0344423830 0.0210397461
-0.0076233126 -0.1275521502 0.0123423824
-0.0126027228 -0.1281085236 0.0002249599
-0.0461134944 -0.0564385386 -0.1260901789
-0.0495744289 -0.0471058867 -0.1315166420
-0.0521089443 -0.0191812749 -0.1853687167
-0.0505106212 -0.0435453512 -0.1354347219
-0.0459358317 -0.0696432567 -0.0957154586
-0.0471691409 -0.0478624108 -0.1412956329
-0.0523638746 -0.0227109498 -0.1757949474
-0.0466291694 -0.0313311194 -0.1829891496
-0.0517965146 -0.0325908121 -0.1551577572
-0.0530092817 -0.0181404084 -0.1835002181
-0.0449284268 -0.0754566130 -0.0868119479
-0.0469436989 -0.0771893257 -0.0730216781
-0.0473676128 -0.0360330087 -0.1683176469
-0.0507253568 -0.0305421401 -0.1651545771
-0.0473424507 -0.0540428331 -0.1258453930
-0.0442921992 -0.0718334371 -0.0984406868
-0.0444411291 -0.0460930591 -0.1586004574
-0.0444340026 -0.0611329902 -0.1230652650
-0.0487907173 -0.0620563312 -0.0999280519
-0.0079739644 0.0543399349 -0.1350481802
-0.0031947978 0.0548393553 -0.1903564948
-0.0060097894 0.0545188173 -0.1724328479
-0.0076102617 0.0543782480 -0.1390870155
-0.0062559169 0.0358944445 -0.0646290823
-0.0048487282 0.0263247987 -0.0328053411
-0.0031957142 0.0325103212 -0.0526208090
-0.0070604411 0.0061787571 0.0326668332
-0.0140370300 0.0003583902 0.0497165487
-0.0107893778 0.0173937748 -0.0052408576
-0.0203893184 0.0024614163 0.0409439127
-0.0078314026 0.0209665419 -0.0160965698
-0.0207887962 0.0080078871 0.0226216936
-0.0188897752 0.0000982162 0.0491418624
-0.0087834013 0.0297578915 -0.0452317829
-0.0122629625 -0.0000760358 0.0516646990
-0.0106515510 0.0274660861 -0.0382596001
-0.0049098965 0.0397513258 -0.0768918670
-0.0183356713 0.0046091376 0.0344992519
-0.0062970574 0.0212806114 -0.0166757030
-0.0140126480 0.0276329167 -0.0398612020
-0.0063030500 0.0521319392 -0.1181691366
-0.0166043765 0.0235096250 -0.0271202896
-0.0114107460 0.0396922687 -0.0788117305
-0.0184370713 0.0218966244 -0.0224136797
-0.0054279312 0.0434304448 -0.0891312006
-0.0147746571 0.0284248299 -0.0427351962
-0.0219129364 0.0309295173 -0.0562100971
-0.0234471337 0.0274037711 -0.0452966810
-0.0262785333 0.0081158577 0.0189264651
-0.0274029534 0.0212478670 -0.0272800317
-0.0312563282 0.0102924487 0.0073735139
-0.0285205631 0.0013748320 0.0403541418
-0.0274769044 -0.0001805303 0.0465668836
-0.0112190968 0.0502556007 -0.1141744773
-0.0386440373 0.0023759110 0.0286732647
-0.0301052493 0.0120003114 0.0024186286
-0.0147424771 0.0441879578 -0.0961107661
-0.0259023307 0.0063236719 0.0254135232
-0.0265263767 0.0212573841 -0.0266003947
-0.0305513220 0.0157931773 -0.0110256085
-0.0254910891 0.0112370055 0.0088015736
-0.0218311981 0.0505532568 -0.1777544968
-0.0205375044 0.0509602323 -0.1568066600
-0.0206873690 0.0509570397 -0.1673560240
0.0484965298 0.0252385546 -0.1842226674
0.0514607752 0.0195617851 -0.1767692713
0.0512598554 0.0199271471 -0.1818778814
0.0482819673 0.0256452850 -0.1857518509
0.0490562095 0.0205272122 -0.0874382442
0.0518189637 0.0114314727 -0.0512142611
0.0462050996 0.0297256409 -0.1231523046
0.0518150646 0.0116003110 -0.0526483322
0.0525510639 0.0095230823 -0.0460644704
0.0504626024 0.0200936456 -0.1062015357
0.0491467423 0.0200232805 -0.0844261611
0.0489351613 -0.0146440591 0.0245127603
0.0501729901 -0.0292472674 0.0219962297
0.0480377537 -0.0114412329 0.0263295799
0.0499599097 -0.0128956887 0.0224437205
0.0472720032 -0.0650167404 0.0276125726
0.0472435892 -0.0981747551 -0.0165573243
0.0539158524 -0.0200877156 -0.1593724111
0.0508346619 -0.0807855173 -0.0153133976
0.0474915991 -0.1017513082 -0.0013255422
0.0526943496 -0.0330068718 -0.1375904512
0.0515081815 -0.0554686859 -0.0850012204
0.0539300729 -0.0261343786 -0.1399797581
0.0519837855 -0.0433706803 -0.1158889367
0.0544473315 -0.0131922857 -0.1728895537
0.0529966955 -0.0368122734 -0.1207802028
0.0485152806 -0.0906783350 -0.0203600131
0.0532059786 -0.0277552507 -0.1462079157
0.0503131979 -0.0718440520 -0.0518459236
0.0499468797 -0.0771437880 -0.0407948548
0.0503896186 -0.0737689814 -0.0445437797
0.0525419849 -0.0395676060 -0.1191830944
0.0507156555 -0.0618950547 -0.0770689921
0.0539857825 -0.0249500522 -0.1428598466
0.0429143264 -0.1108100170 0.0020630786
0.0387062997 -0.1149015903 0.0023793653
0.0393421898 0.0383925426 -0.1421934609
0.0443412906 0.0323995740 -0.1264949745
0.0396972644 0.0379757176 -0.1423049285
0.0446143128 0.0322760094 -0.1538990916
0.0251324975 0.0489572268 -0.1631284787
0.0265026141 0.0482224640 -0.1456550041
0.0264732333 0.0481942140 -0.1388216466
0.0368344627 0.0193906486 -0.0316840151
0.0244303060 0.0468951763 -0.1180017538
0.0338673476 0.0309309159 -0.0719069276
0.0250208843 0.0396101211 -0.0903138833
0.0248798076 0.0424909556 -0.1014284523
0.0256478112 0.0397806597 -0.0921092881
0.0356727911 0.0211314438 -0.0364728833
0.0288532944 0.0331659789 -0.0717484882
0.0156542483 0.0527050268 -0.1570550591
0.0195064252 0.0513005472 -0.1872482908
0.0144947913 0.0530417299 -0.1684018333
0.0060561058 0.0544858405 -0.1713644569
0.0061753900 0.0544892429 -0.1646743200
0.0069836183 0.0543356096 -0.1866825726
0.0074444711 0.0544082767 -0.1381504469
0.0333018248 -0.1155270376 0.0191262572
-0.0247506944 -0.1092626177 0.0371825228
-0.0047825381 -0.1048007688 0.0467251425
-0.0023750272 -0.0926402487 0.0496299081
-0.0218584619 -0.1148133251 0.0324182272
-0.0411711571 -0.1114194042 0.0113328568
-0.0275279763 -0.0629569702 -0.1551448522
-0.0293438880 -0.1003533617 -0.0617985344
-0.0285424283 -0.0802141174 -0.1117703038
-0.0304195748 -0.0903192431 -0.0842018946
-0.0288758510 -0.1065721793 -0.0475777425
-0.0339581116 -0.0617252258 -0.1456762554
-0.0385634844 -0.0685844401 -0.1203879775
-0.0283436291 -0.0474726896 -0.1905612892
-0.0347530898 -0.0827769141 -0.0939024083
-0.0336875438 -0.0569865196 -0.1575079458
-0.0356943586 -0.0784124380 -0.1024937556
-0.0394986213 -0.0462533833 -0.1718634180
-0.0340103476 -0.0959904049 -0.0638108149
-0.0363104120 -0.0802241195 -0.0969773790
-0.0343691944 -0.0626433333 -0.1426891748
-0.0344456970 -0.0446759699 -0.1854150712
-0.0377011198 -0.0811493638 -0.0920757185
-0.0344680157 -0.0952797162 -0.0646201641
-0.0325741014 -0.0645583883 -0.1415965568
-0.0324987314 -0.0670760585 -0.1357348347
-0.0341290176 -0.1153592026 -0.0173627352
-0.0327441941 -0.0511219253 -0.1733294425
-0.0371102023 -0.1158632482 0.0057594279
0.0278799871 -0.0901171556 -0.0882989668
0.0244686783 -0.0661455960 -0.1513825856
0.0278654988 -0.1151154849 -0.0279634399
0.0283027830 -0.1186731221 -0.0187064207
0.0286342011 -0.0904356964 -0.0863790563
0.0326947846 -0.1080559217 -0.0376398380
0.0315530388 -0.1050408465 -0.0466617498
0.0292530429 -0.0916691423 -0.0824566932
0.0280078917 -0.0863629289 -0.0971682611
0.0455674625 -0.0219215878 0.0308662665
0.0456745976 -0.0092714241 0.0308149970
0.0404534553 -0.0569419666 0.0371665678
0.0435423463 -0.0032124914 0.0330955158
0.0404930670 -0.0517485817 0.0370482846
0.0393449031 -0.0224329072 0.0378385099
0.0377114819 -0.0205521839 0.0395469207
0.0390808206 -0.0173584988 0.0380447383
0.0020911535 -0.0123973350 0.0545428104
-0.0013874832 -0.0492744234 0.0549166277
-0.0026217256 -0.0306925638 0.0549021231
-0.0014242963 -0.0133974581 0.0547520670
0.0047517821 -0.0291513170 0.0544658018
0.0084053616 -0.0474560395 0.0542842990
0.0073708370 -0.0292151141 0.0543037052
0.0008390539 -0.0577401905 0.0548232762
0.0017243469 -0.0769137326 0.0527791800
0.0064838887 -0.0686224331 0.0538426508
0.0274109562 -0.0615512700 0.0475076680
0.0325098152 -0.0453109561 0.0445259418
0.0271754466 -0.0941005155 0.0410050415
0.0251777842 -0.0993436012 0.0409566614
-0.0547392152 -0.0619029583 0.0031228106
-0.0525982734 -0.0560855354 -0.0652264695
-0.0532929007 -0.0702545372 0.0001120929
-0.0546734715 -0.0585318242 -0.0101993414
-0.0539437078 -0.0255699271 -0.1423720724
-0.0538092744 -0.0657050239 -0.0043241487
-0.0538701575 -0.0408201507 -0.0904204088
-0.0527803088 -0.0611683554 -0.0432900049
-0.0533917720 -0.0280334812 -0.1460626315
-0.0535318918 -0.0505074216 -0.0639424944
-0.0545326387 -0.0501699975 -0.0427380973
-0.0528553803 -0.0476759259 -0.0890298273
-0.0531650894 -0.0459622323 -0.0881233412
-0.0535326870 -0.0627426991 -0.0209235522
-0.0532446843 -0.0560194807 -0.0509960985
-0.0529012679 -0.0548167652 -0.0629065210
-0.0525466511 -0.0678667683 -0.0249760430
-0.0539284057 -0.0538693674 -0.0432554294
0.0000007355 -0.1273597779 -0.0155245059
-0.0170942875 -0.1235045305 0.0193183266
-0.0448215624 -0.0890288323 -0.0551202749
-0.0431590349 -0.1024229282 -0.0286941657
-0.0437911294 -0.1085365946 -0.0117185934
-0.0434371629 -0.0536826423 -0.1452456584
-0.0432058412 -0.0828061249 -0.0758334475
-0.0520426830 -0.0344759537 -0.1487560048
-0.0501618579 -0.0578544059 -0.1020503609
-0.0487025468 -0.0739999210 -0.0711972630
-0.0442904887 -0.1085757546 -0.0097597262
-0.0009698235 0.0549995694 -0.1606817266
-0.0016125198 0.0548494791 -0.1389196684
-0.0007494455 0.0549555157 -0.1477380967
-0.0115934507 0.0537147867 -0.1490279749
-0.0111440553 0.0538197036 -0.1519964529
-0.0261021787 0.0293472303 -0.0542007636
-0.0236044152 0.0365559607 -0.0770736375
-0.0278815336 0.0262741565 -0.0450458692
-0.0152364515 0.0525674904 -0.1255259248
-0.0278926225 0.0264997575 -0.0458361092
-0.0299475927 0.0460127983 -0.1361783485
-0.0281958326 0.0470907089 -0.1270984329
-0.0281784710 0.0471194648 -0.1341057224
-0.0323825207 0.0257004931 -0.0491089099
-0.0197353353 0.0503577681 -0.1237152210
-0.0308255973 0.0327235654 -0.0735107501
-0.0209099790 0.0438141457 -0.1005539340
-0.0192759376 0.0501458167 -0.1221984448
-0.0262584094 0.0347098976 -0.0740527857
-0.0407547411 0.0038813793 0.0212543408
-0.0445975913 0.0057902235 0.0076246753
-0.0435342825 0.0035945119 0.0178134814
-0.0316731342 0.0322387772 -0.0730221651
-0.0418889128 0.0034633747 0.0210089713
-0.0431792749 0.0036957683 0.0180043881
-0.0379862699 0.0232748803 -0.0488503730
-0.0318080457 0.0329824273 -0.0761046278
-0.0374089939 0.0168336470 -0.0231181481
0.0464858338 -0.0470511370 0.0294066496
0.0470912400 -0.0229202961 0.0282251926
0.0469143545 -0.0175504216 0.0285899817
0.0493169082 -0.0803047261 0.0163873003
0.0473451906 -0.0824512603 0.0203053533
0.0491961621 0.0110441394 -0.0280325591
0.0457973323 0.0173079490 -0.0449191446
0.0482016260 0.0127518537 -0.0323429537
0.0503158643 0.0044794491 0.0002188253
0.0461421360 -0.0981242229 -0.0272249830
0.0468062271 -0.0846532501 -0.0572682853
0.0472851960 -0.0732646496 -0.0833921067
0.0537161388 -0.0645852838 0.0082742158
0.0490694941 -0.0950381949 0.0024347468
0.0305028779 0.0455237251 -0.1870888524
0.0288448196 0.0466317802 -0.1719461103
0.0330263442 0.0439729021 -0.1875193962
0.0279860997 0.0471564373 -0.1723131090
0.0388519357 0.0259488437 -0.0619802016
0.0340501709 0.0373933517 -0.0996534830
0.0390525423 0.0307401891 -0.0852200355
0.0415295631 0.0256150352 -0.0694522823
0.0352567921 0.0341814405 -0.0886042072
0.0476200201 0.0086419975 -0.0100980589
0.0358261859 0.0381930197 -0.1094177695
0.0076682846 -0.1286390250 0.0041466892
0.0230243307 -0.1220912740 0.0163505034
0.0208160684 -0.1165542093 0.0307951220
0.0050775412 -0.0956225609 0.0488261581
-0.0018086683 -0.1172838531 0.0357420136
-0.0276370231 -0.1047222289 0.0377244000
-0.0388278621 -0.1100788062 0.0204034040
-0.0396601820 -0.1135807590 -0.0076754682
0.0365469221 -0.0752694739 0.0383391426
0.0332816464 -0.0836097456 0.0394379300
0.0336293153 -0.0967065553 0.0352689087
0.0265713756 -0.0707694782 0.0466708239
0.0346986815 -0.0400832938 0.0426153503
0.0384392491 -0.0615853975 0.0390988998
0.0339118064 -0.0222374997 0.0434295408
0.0281184000 -0.1144097490 0.0278202312
-0.0115956682 -0.0931907482 0.0481597100
-0.0275332942 -0.0836390803 0.0433476346
-0.0423804720 -0.1047605278 0.0204156780
-0.0482108901 -0.0838593789 0.0170083691
-0.0494987923 -0.0738645759 0.0188805769
-0.0429630133 -0.0938147209 0.0240151052
-0.0423391720 -0.0901833625 0.0265806586
-0.0346440003 -0.0937549776 0.0351872096
-0.0528283489 -0.0655194064 0.0131802070
-0.0206418599 -0.1255342032 -0.0029278961
-0.0339921469 0.0431003181 -0.1906570146
-0.0343490439 0.0429139707 -0.1644879319
-0.0325257370 0.0443987319 -0.1519523437
-0.0514597655 0.0161677541 -0.0862392794
-0.0508828782 0.0196034874 -0.1086994081
-0.0539269301 0.0074864164 -0.0620009947
-0.0516582740 0.0151399220 -0.0803551715
-0.0530792065 0.0088177051 -0.0506002760
-0.0158584820 0.0525637688 -0.1805920687
-0.0182775405 0.0517745056 -0.1914221641
-0.0127087593 0.0535469499 -0.1835189350
0.0499493696 0.0226375696 -0.1355148789
0.0459293698 0.0302183448 -0.1578323426
0.0508860748 0.0208754280 -0.1252691607
0.0478033350 0.0266835046 -0.1485907577
0.0404735585 -0.1125838181 0.0102073023
0.0352827670 0.0154931906 -0.0150295648
0.0307846304 0.0097795204 0.0101487929
0.0390685826 0.0033281875 0.0242091234
0.0399528596 0.0008188757 0.0321918597
0.0430890644 0.0046203578 0.0152856637
0.0365927225 0.0054406516 0.0193506181
0.0348842737 0.0117732137 -0.0013573275
0.0220331702 0.0404740354 -0.0897186757
0.0282668815 0.0179666374 -0.0162914642
0.0205850008 0.0414864589 -0.0917658977
0.0283347832 0.0207279618 -0.0261952599
0.0379944302 0.0129131515 -0.0087599658
0.0187774839 -0.1241438198 0.0159491607
-0.0264201308 -0.1015910590 0.0395762740
-0.0263175341 -0.0958239597 0.0411045313
0.0072190088 -0.1053418078 0.0461826436
-0.0363980031 -0.1075209556 0.0281686130
-0.0354066986 -0.1174865267 0.0003230961
0.0314971936 -0.1202885564 -0.0007479742
0.0275746914 -0.1202521989 -0.0154864519
0.0410819355 -0.0648660876 0.0363561584
0.0376501243 -0.0974619525 0.0306799161
0.0302164558 -0.0846100855 0.0414298383
0.0353421437 -0.0691345409 0.0408310685
0.0269678452 -0.0994568493 0.0397122213
-0.0458350540 -0.0715286964 0.0276076307
-0.0453418704 -0.0698024610 0.0289578810
-0.0265183564 0.0480167173 -0.1851088143
-0.0262849057 0.0482187000 -0.1647786939
-0.0305198311 0.0457784498 -0.1914020576
-0.0454849157 0.0309768446 -0.1283840642
-0.0427295489 0.0344161502 -0.1564212061
-0.0453846631 0.0311527993 -0.1760760591
-0.0498525795 0.0189793548 -0.0855948813
-0.0493965793 0.0204377451 -0.0911674637
-0.0495748246 0.0193692695 -0.0847229840
-0.0472131378 0.0262559169 -0.1078786435
-0.0492626683 0.0186055504 -0.0734549590
0.0546698644 -0.0605958931 0.0053665942
0.0537956333 -0.0587303851 0.0109904175
0.0547660834 -0.0560207447 0.0049020632
0.0031599464 -0.1286444045 -0.0078834861
0.0214716688 -0.0713927859 0.0492369537
0.0118983239 -0.1075687110 0.0445022894
-0.0361964373 -0.1071365714 0.0287527106
0.0352823083 -0.1167475701 0.0090360971
0.0194975639 -0.1000302081 0.0437853483
0.0165370828 -0.0948696562 0.0462715722
0.0143684351 -0.1261455929 -0.0122874248
-0.0341701350 0.0431355436 -0.1349021348
-0.0372799459 0.0404579643 -0.1644692544
-0.0384765356 0.0392445174 -0.1287809899
-0.0424523647 0.0257835086 -0.0736350213
-0.0433609961 0.0266874192 -0.0824080133
-0.0422191019 0.0299464726 -0.0941401005
-0.0401065944 0.0322457248 -0.0965306215
-0.0408635305 0.0365871436 -0.1679777037
-0.0395556586 0.0381791308 -0.1566046030
-0.0397468408 0.0380041082 -0.1434148715
-0.0390337553 0.0388139718 -0.1521789135
-0.0460098711 0.0271763619 -0.1032967031
-0.0473874207 0.0238030664 -0.0922381486
-0.0515408199 0.0096771739 -0.0335924052
-0.0467408934 0.0255512848 -0.0984840288
-0.0432949089 0.0324294615 -0.1161657247
-0.0511157675 0.0199996761 -0.1906730824
-0.0462504527 0.0298655551 -0.1872624105
-0.0475968164 0.0271139795 -0.1901402145
-0.0490986409 0.0242192895 -0.1775864741
-0.0497415252 0.0229297056 -0.1767680934
0.0450314067 -0.0781969454 0.0267647716
0.0356357567 -0.1109052462 0.0242054801
0.0531942720 -0.0334007400 0.0135598571
0.0521112264 -0.0010324401 0.0176064338
0.0527537406 -0.0323177323 0.0153945285
0.0533045811 -0.0568081872 0.0133964485
0.0523654095 -0.0623183578 0.0163606219
-0.0071893371 -0.1285904801 -0.0058197752
0.0148587323 -0.1105226085 0.0407921251
0.0162198335 -0.0857667036 0.0483762582
-0.0523645763 0.0172176050 -0.1744739653
-0.0526496971 0.0162578743 -0.1611600476
-0.0511021292 0.0203049492 -0.1416996929
0.0093207364 -0.0779916496 0.0517873942
-0.0461368949 0.0300789468 -0.1826747515
-0.0470909039 0.0283042646 -0.1551451021
-0.0490657095 0.0246852564 -0.1282239071
0.0156263651 -0.0122448481 -0.1919996265
-0.0238007998 0.0136871811 -0.1919999230
0.0471100308 -0.0252597534 -0.1919991020
0.0158411673 -0.0121605189 -0.1919996164
0.0305388553 -0.0291873166 -0.1919997811
-0.0225087712 0.0148943008 -0.1919998364
0.0225110057 -0.0141206701 -0.1919994755
-0.0160101497 0.0050301358 -0.1919999965
0.0262009716 -0.0128150277 -0.1919993082
-0.0036338512 0.0467664315 -0.1920000017
0.0016126178 0.0452425616 -0.1920000017
-0.0136177475 0.0512213034 -0.1920000017
0.0226926575 0.0475982115 -0.1920000017
0.0213658685 0.0478975129 -0.1920000017
-0.0121838150 0.0387150305 -0.1920000017
-0.0237404647 -0.0131836034 -0.1920000017
-0.0253429818 -0.0154348384 -0.1920000017
-0.0195179634 -0.0272404714 -0.1920000017
-0.0123697579 -0.0325386691 -0.1920000017
-0.0317003740 0.0067140149 -0.1920000017
-0.0337362479 0.0076108735 -0.1920000017
0.0024974101 -0.0450195911 -0.1920000017
-0.0267956987 0.0020611488 -0.1920000017
0.0103253728 -0.0357282067 -0.1920000017
-0.0053754557 -0.0213003324 -0.1920000017
-0.0252371318 0.0041888392 -0.1920000017
-0.0227524682 0.0034937846 -0.1920000017
0.0168975783 -0.0461248615 -0.1920000017
-0.0214127347 -0.0474323114 -0.1920000017
-0.0377897692 0.0047005425 -0.1920000017
-0.0371950707 0.0020286944 -0.1920000017
-0.0301211916 -0.0274276225 -0.1920000017
-0.0178899911 -0.0498154418 -0.1920000017
0.0317169915 -0.0425448459 -0.1920000017
-0.0067579670 -0.0037487828 -0.1920000017
0.0011408698 -0.0211700149 -0.1920000017
-0.0051126172 -0.0138973177 -0.1920000017
0.0156471419 -0.0399079885 -0.1920000017
-0.0079564765 -0.0083618880 -0.1920000017
0.0309757508 -0.0403002045 -0.1920000017
-0.0173557084 0.0030622492 -0.1920000017
0.0456623467 0.0225760336 -0.1920000017
-0.0272785019 0.0288706420 -0.1920000017
0.0182149378 0.0256903985 -0.1920000017
0.0338228026 0.0257498957 -0.1920000017
0.0335279721 0.0248659991 -0.1920000017
-0.0072262233 0.0507628947 -0.1920000017
-0.0008942625 0.0513599620 -0.1920000017
0.0410426630 0.0080972587 -0.1919995025
-0.0217294883 0.0249887697 -0.1919994795
0.0154865457 0.0167515661 -0.1919984868
0.0145815806 0.0125039300 -0.1920010292
0.0453917945 0.0044884538 -0.1920008846
-0.0320888139 -0.0409563042 -0.1919997003
-0.0353469546 -0.0154545291 -0.1919999314
-0.0349616671 -0.0303466583 -0.1919996836
-0.0437237143 -0.0050901486 -0.1919995008
-0.0409380762 0.0036437032 -0.1919998701
0.0199678185 0.0387164619 -0.1920000017
0.0221209920 0.0394610435 -0.1920000017
0.0042097262 0.0340689905 -0.1920000017
-0.0058053020 0.0357176256 -0.1920000017
0.0015886122 0.0363836898 -0.1920000017
-0.0000630882 0.0120514778 -0.1920011907
-0.0195197954 0.0179642564 -0.1920002831
-0.0096131427 0.0136501259 -0.1920004750
-0.0130956739 0.0144046923 -0.1920002496
0.0398852135 -0.0100307677 -0.1920009929
0.0255943229 -0.0104913413 -0.1919993305
0.0400136209 -0.0189709177 -0.1919991535
0.0317531676 -0.0122184573 -0.1919996477
0.0440886616 -0.0194176825 -0.1919995077
0.0128059705 -0.0017679933 -0.1919997367
-0.0496794976 -0.0190338418 -0.1920015082
-0.0481420238 -0.0076759782 -0.1920009120
-0.0179991011 0.0506046576 -0.1920000017
0.0345606667 0.0194750864 -0.1919995630
0.0437157685 0.0192243264 -0.1919998292
0.0499415894 0.0176342967 -0.1919995658
-0.0072881085 0.0256447429 -0.1919999189
-0.0521486592 -0.0006435631 -0.1920018375
