-0.0337973052 0.0779761157 -0.1730363212
-0.0318424418 0.0867361803 -0.1560449937
-0.0415084851 0.0849770718 -0.1108836883
-0.0459225339 0.0722975884 -0.1271776275
-0.0409913524 0.0671212275 -0.1690972343
-0.0393935136 0.0906957126 -0.1041852492
-0.0356457616 0.0699896751 -0.1881801855
-0.0385828651 0.0691702036 -0.1753433416
-0.0342749311 0.0676741991 -0.2025580740
-0.0383771556 0.0555473562 -0.2187674267
-0.0354415938 0.0738533194 -0.1772394566
-0.0369974326 0.0771781065 -0.1587550760
-0.0377140285 0.0860347156 -0.1274708799
-0.0356191174 0.0769154633 -0.1667909399
-0.0418259529 0.0548894088 -0.2027482982
-0.0389121135 0.0596688258 -0.2031538025
-0.0447125811 0.0661677212 -0.1525698904
-0.0448861002 0.0730884787 -0.1301478524
-0.0421399148 0.0646636030 -0.1707207349
-0.0398155061 0.0941991352 -0.0910845216
-0.0326439244 0.0779718338 -0.1790908917
-0.0384446977 0.0517078823 -0.2303486499
-0.0452472295 0.0889567615 -0.0789297652
-0.0371020473 0.0692224606 -0.1829372340
-0.0425417476 0.0850879134 -0.1051270412
-0.0416549048 0.0463096517 -0.2303143912
-0.0353652547 0.0928090894 -0.1187153220
-0.0308359125 0.0775413837 -0.1898990795
-0.0410629114 0.0828917905 -0.1196996407
-0.0381084551 0.0758812796 -0.1569668676
-0.0382404491 0.0689508195 -0.1778188272
-0.0371160767 0.0669302535 -0.1899890724
-0.0351956121 0.0923698301 -0.1209693251
-0.0281147345 0.0109204295 0.0191944966
-0.0124085816 -0.0378185316 -0.1649702495
-0.0235139857 -0.0162938115 -0.0878698805
-0.0282251469 0.0086413007 0.0097248113
-0.0286724973 0.0116005951 0.0214208095
-0.0278211161 -0.0081034815 -0.0586152463
-0.0211358744 -0.0162965853 -0.0854667901
-0.0115673804 -0.0421105091 -0.1817380677
-0.0255875991 -0.0018880939 -0.0308286051
-0.0235757830 -0.0160127545 -0.0867786666
-0.0007365174 0.0817255937 -0.2059320167
0.0064588479 0.0568010809 -0.2541803277
0.0101963467 0.0567785464 -0.2540938024
0.0007504094 0.0753570982 -0.2182722706
0.0029623402 0.0607167448 -0.2466830099
0.0446132443 0.0687139671 0.0225249389
0.0447806908 0.0600387242 0.0213477860
0.0425309645 0.0348594200 0.0233986200
0.0440462837 0.0417451769 0.0210389241
0.0523636921 0.0557381782 -0.1213963685
0.0533920409 0.0348471718 -0.1694370719
0.0535670124 0.0306997178 -0.1798395298
0.0541923818 0.0057073431 -0.2552397191
0.0530714377 0.0190831050 -0.2381901704
0.0532373130 0.0267590754 -0.2044229238
0.0522668927 0.0438220368 -0.1690532630
0.0531969599 0.0407473204 -0.1530430021
0.0528854537 0.0414452418 -0.1596527333
0.0524578710 0.0386414550 -0.1828643830
0.0526666998 0.0455382241 -0.1507527034
0.0534092857 0.0244543636 -0.2079881675
0.0524155994 0.0417856669 -0.1722995177
0.0542673572 0.0114494742 -0.2314352036
0.0520562829 0.0418468880 -0.1827194155
0.0528542396 0.0338514284 -0.1891198775
0.0530131136 0.0144029955 -0.2575094512
0.0519876329 0.0528536646 -0.1433843012
0.0519746328 0.0458511595 -0.1700891111
0.0498243864 0.0799002724 0.0016388234
0.0508054303 0.0463938102 -0.0660895772
0.0533275842 0.0212945073 -0.1760180134
0.0503145140 0.0196536617 -0.0779512802
0.0506467010 0.0950494227 -0.0096647689
0.0514941816 0.0626040648 -0.0718536871
0.0488787050 0.0241560337 -0.0256627339
0.0519037067 0.0575954145 -0.0906843269
0.0537408015 0.0012710288 -0.2107609889
0.0515653534 0.0397827136 -0.0982105102
0.0538233948 0.0142525392 -0.1998447093
0.0544106878 0.0087009816 -0.2251339284
0.0487372912 0.0178561067 -0.0276043332
0.0502964602 0.0634701609 -0.0312745745
0.0512167797 0.0508585551 -0.0750181245
0.0529455706 0.0361060004 -0.1477895786
0.0502790087 0.0175264970 -0.0790123409
0.0489658492 0.0486435549 -0.0027971088
0.0498328937 0.0263428928 -0.0549655095
0.0517590048 0.0692774573 -0.0736066382
0.0489010684 0.0134378367 -0.0376749889
0.0517238529 0.0215914262 -0.1225904958
0.0488512931 0.0348449701 -0.0135140474
0.0490518291 0.0538304211 -0.0001900812
0.0526900924 0.0374052529 -0.1379618577
0.0521904372 0.0237932848 -0.1357281348
0.0501542928 0.0116553412 -0.0810560626
0.0511227130 0.0786872900 -0.0426371088
0.0536697012 0.0126395328 -0.1964506948
0.0481861017 0.0166827103 -0.0105830237
0.0502830236 0.0434215102 -0.0519133302
0.0489047709 0.0352033776 -0.0149083070
0.0505916822 0.0297997556 -0.0764610958
0.0499409328 0.0312905337 -0.0533406547
0.0510675765 0.0427434484 -0.0786106397
0.0503711380 0.0868445833 -0.0091666352
0.0516950066 0.0113435455 -0.1324120960
0.0489938051 0.0444383548 -0.0081453189
0.0516401018 0.0319795524 -0.1088922057
0.0550428639 -0.0017377709 -0.2570491871
0.0504601114 0.0160812174 -0.0865303295
0.0502506037 0.0518999124 -0.0419234417
0.0503472426 0.0231697662 -0.0753375997
0.0516951257 0.0114041366 -0.1323523213
0.0509980621 0.0099473496 -0.1107977111
0.0505561780 0.0274962542 -0.0777076347
0.0524781988 0.0140515426 -0.1555034568
0.0509259731 0.0675078545 -0.0478777581
0.0521187068 0.0127986602 -0.1449147220
0.0494770035 0.0379793164 -0.0309412791
0.0524222269 0.0452263589 -0.1208652918
0.0501471228 0.0523564737 -0.0380160430
0.0503686451 0.0781127623 -0.0182667175
0.0530875189 0.0361574450 -0.1524367786
0.0511368496 0.0851994260 -0.0362569512
0.0509158150 0.0819981205 -0.0323029181
0.0519595306 0.0163861460 -0.1358701256
0.0510735938 0.0846455833 -0.0347443688
0.0526240965 0.0345224163 -0.1388077650
0.0511846319 0.0800940509 -0.0432084584
0.0516666154 0.0758367243 -0.0636487933
0.0483558156 0.0155254020 -0.0174209741
0.0508255132 0.0729736805 -0.0388025171
0.0506335209 0.0369655250 -0.0703110419
0.0495006224 0.0443639789 -0.0250092241
0.0523455604 0.0284495672 -0.1359690982
0.0494918462 0.0563625218 -0.0121005251
0.0500527940 0.0510824170 -0.0362317273
0.0500486792 0.0499378966 -0.0372990564
0.0503847432 0.0791557408 -0.0177030554
0.0486267301 0.0156486037 -0.0262640473
0.0487798816 0.0323995353 -0.0137206045
0.0484224381 0.0371197698 0.0030817961
0.0547444339 0.0029017931 -0.2422861377
0.0513792919 0.0413741874 -0.0903745475
0.0519704841 0.0361921697 -0.1154042856
0.0525266335 0.0045813109 -0.1670667891
0.0511422393 0.0332813333 -0.0910341051
0.0510901797 0.0191631360 -0.1041570283
0.0515017394 0.0452896586 -0.0903123554
0.0516575871 0.0477734434 -0.0928619771
0.0487397513 0.0193710822 -0.0260926146
0.0509305649 0.0104009872 -0.1080851606
0.0543650719 0.0046463952 -0.2278870647
0.0511754959 0.0133689418 -0.1130760345
0.0518325189 0.0209085907 -0.1269075843
0.0498687005 0.0587655400 -0.0220547810
0.0231698907 0.0874087887 0.0457439464
0.0301971671 0.0669536475 0.0403163113
0.0277957683 0.0576755717 0.0411912447
-0.0490489142 0.0736366110 0.0065944203
-0.0489800495 0.0719877783 0.0068857724
-0.0483822622 0.0533208754 0.0082318937
-0.0484349002 0.0552883103 0.0082013172
-0.0498364719 0.0979207930 0.0047371160
-0.0409486291 0.0844925747 0.0300948434
-0.0434192446 0.0939910184 0.0266842731
-0.0397203798 0.0514671792 0.0296823785
-0.0437644387 0.0406177120 -0.2369537035
-0.0455188761 0.0535483955 -0.1875387933
-0.0494697151 0.0794262430 -0.0863197167
-0.0478864695 0.0530918929 -0.1764304747
-0.0494944759 0.0608608034 -0.1438110241
-0.0476548717 0.0359506925 -0.2308575173
-0.0476358355 0.0706116369 -0.1233796622
-0.0483808238 0.0352910442 -0.2290644189
-0.0456496108 0.0502235160 -0.1971667345
-0.0482007365 0.0452958534 -0.1989648004
-0.0458288458 0.0349545219 -0.2436095236
-0.0455404611 0.0473324144 -0.2067173927
-0.0450839237 0.0536356695 -0.1895689287
-0.0450085513 0.0500417410 -0.2011222884
-0.0385601637 0.0117641176 0.0113215456
-0.0355354589 -0.0063318544 -0.0621836109
-0.0387061436 0.0006063638 -0.0379223106
-0.0267630699 -0.0374876147 -0.1817857000
-0.0371212697 0.0078867220 -0.0028862075
-0.0328932173 -0.0125623823 -0.0843701158
-0.0387148588 -0.0027234805 -0.0525503541
0.0323168637 0.0931194275 0.0400829726
0.0324994127 0.0425578982 0.0370180202
0.0349765237 0.0667145385 0.0361531935
-0.0204268456 0.0139520420 0.0358276364
-0.0107164412 -0.0349871849 -0.1526696151
-0.0196077946 -0.0133046273 -0.0717952611
-0.0139965506 -0.0267567052 -0.1219159121
-0.0226433567 0.0113404599 0.0241958334
-0.0197840543 -0.0017431671 -0.0260464193
-0.0129164574 -0.0256355559 -0.1168484565
-0.0154812181 -0.0176823973 -0.0867831107
-0.0250465903 0.0106326152 0.0200064408
-0.0207896763 0.0146617487 0.0384334934
-0.0195544751 0.0111138731 0.0250738298
-0.0180336232 -0.0163704667 -0.0830483135
-0.0144988528 0.0598185583 0.0477553665
-0.0157960257 0.0963595915 0.0492113749
-0.0149203887 0.0497713032 0.0471535318
-0.0132972211 0.0733344849 0.0487292784
-0.0191537373 0.0784736931 0.0474649173
-0.0121739774 0.0476349743 0.0477408742
-0.0049435997 0.0521429844 0.0495380981
-0.0077008403 0.0241405247 0.0473748870
-0.0096840757 0.0480534482 0.0482960197
0.0106489005 0.1241700523 0.0287384764
0.0491824120 0.0377179271 -0.2155284431
0.0452348614 0.0474020693 -0.2078513634
0.0481592722 0.0316589993 -0.2399480501
0.0466199581 0.0564496901 -0.1721878369
0.0486497778 0.0360488966 -0.2236636824
0.0492767195 0.0247174461 -0.2550663515
0.0472059023 0.0573026817 -0.1662682435
0.0458488578 0.0565482021 -0.1762147306
0.0493057922 0.0635179851 -0.1353196448
0.0452532404 0.0442130262 -0.2175767915
0.0498153902 0.0755565245 -0.0953549050
0.0488490736 0.0667452730 -0.1279380664
0.0493298410 0.0278878905 -0.2449966967
0.0462355608 0.0598711521 -0.1638016556
0.0486093772 0.0786148532 -0.0927021053
0.0493893035 0.0749892838 -0.0994960513
0.0477327328 0.0613046926 -0.1509753423
0.0481556083 0.0342845301 -0.2318767290
-0.0090790544 0.0700372077 -0.2282385754
-0.0082353665 0.0714510137 -0.2255362482
-0.0143134147 0.0612451100 -0.2426192035
-0.0186140733 0.0600656074 -0.2423214513
-0.0140710210 0.0665609726 -0.2326758598
-0.0176468922 0.0723904330 -0.2195067193
-0.0209982664 0.0559108017 -0.2487989829
-0.0474827435 0.0379229726 0.0102984871
-0.0471382433 0.0333316025 0.0109795883
-0.0474798818 0.0634561567 0.0146538353
-0.0488375494 0.0940474605 0.0140953436
-0.0040781650 0.1285320616 0.0182439520
-0.0316109099 0.0396573962 0.0373854052
-0.0328215998 0.0320909767 0.0356234721
-0.0353914020 0.0757845821 0.0361539228
-0.0341891659 0.0959685601 0.0388090416
-0.0317107870 0.1009282934 0.0395417633
-0.0297454109 0.0943359883 0.0420368166
-0.0329511795 0.0941546167 0.0396823166
-0.0291940099 0.0973239975 0.0426049575
0.0492641727 0.0988990129 0.0107160631
0.0495165232 0.0971220388 0.0086765282
0.0489721100 0.0722590402 0.0076300996
0.0489554422 0.0771941555 0.0086791934
0.0501739039 0.0941858983 0.0036847879
0.0158880118 0.1256742362 0.0219946956
0.0039362224 0.1263304137 0.0255168871
0.0337692087 0.0712439573 -0.1936835306
0.0435293860 0.0843279954 -0.1019462808
0.0422207620 0.0980499235 -0.0660258208
0.0422268361 0.0813356340 -0.1180720808
0.0423482635 0.0920477042 -0.0840615434
0.0381674803 0.0571718381 -0.2145601217
0.0286725298 0.0834200690 -0.1823617483
0.0452395931 0.0958808169 -0.0570191081
0.0374354653 0.0765139401 -0.1581172490
0.0441820581 0.0787171433 -0.1160200062
0.0364974220 0.0806831960 -0.1500255012
0.0442338749 0.0463162905 -0.2167032015
0.0446848504 0.0587866788 -0.1754931484
0.0392484767 0.0669587139 -0.1784211508
0.0450191678 0.0996305510 -0.0464868980
0.0454532429 0.0671400392 -0.1454531932
0.0471108746 0.0775068881 -0.1044958086
0.0447350345 0.0736276093 -0.1289900595
0.0445243593 0.0684446207 -0.1462392943
0.0432081503 0.0451155600 -0.2258010230
0.0385639542 0.0811932278 -0.1376443593
0.0408830632 0.0678781282 -0.1670202033
0.0389071320 0.0746939035 -0.1561026287
0.0334963871 0.0771894873 -0.1765833411
0.0389938488 0.0952877333 -0.0914840110
0.0345504628 0.0911911592 -0.1274525966
0.0388931849 0.0875760123 -0.1160377004
0.0398199656 0.0525036552 -0.2204754025
0.0414323829 0.0685006396 -0.1622118996
0.0363489466 0.0761733703 -0.1648524867
0.0349165992 0.0853859311 -0.1436283220
0.0431114577 0.0809228949 -0.1147383471
0.0434307826 0.0446514890 -0.2260843174
0.0398253206 0.0748876473 -0.1507039343
0.0170434665 0.0692458960 -0.2263213472
0.0168341942 0.0685230405 -0.2278473370
0.0223183530 0.0620331304 -0.2355420952
0.0146159640 0.0703794349 -0.2261761017
0.0227498521 0.0577458656 -0.2432283894
0.0165307994 0.0829630622 -0.2007683849
0.0523270134 -0.0052736381 -0.1928011550
0.0503628067 -0.0034180219 -0.1404747843
0.0518626548 -0.0075580067 -0.1925381253
0.0491614030 0.0067888019 -0.0681335261
0.0495145562 0.0032241709 -0.0919074439
0.0516075780 -0.0031812688 -0.1673541391
0.0520029142 -0.0047183283 -0.1830594747
0.0503901431 0.0022254163 -0.1159959023
0.0516865320 -0.0013188643 -0.1608450588
0.0530506444 -0.0051336836 -0.2084688534
0.0501753965 0.0065157389 -0.0928309357
0.0533240142 0.0002498938 -0.2011226482
0.0495629851 0.0088065116 -0.0687389379
0.0538953617 -0.0058212263 -0.2347145273
0.0529111547 -0.0038957351 -0.2009578424
0.0542803131 -0.0085987807 -0.2536377549
0.0514106257 0.0019502484 -0.1412689635
0.0060280892 0.1077055776 0.0453967616
-0.0100417776 0.1288282966 0.0122956627
-0.0388102229 0.1085963552 0.0239515378
-0.0266154599 0.1234958676 0.0161204674
-0.0503357774 0.0387911914 -0.2070699482
-0.0521950836 0.0254188594 -0.2318721106
-0.0523390457 0.0198772150 -0.2479543792
-0.0535553424 0.0196429652 -0.2374236309
-0.0506890533 0.0600405787 -0.1370165825
-0.0528265673 0.0152977924 -0.2578301577
-0.0499364778 0.0785715190 -0.0857503745
-0.0511560730 0.0484336744 -0.1691676791
-0.0513337292 0.0211893465 -0.2531432735
-0.0525654218 0.0399460820 -0.1827865705
-0.0511128906 0.0500709781 -0.1644221051
-0.0331007291 0.0575784471 -0.2296448425
-0.0369162848 0.0414260820 -0.2557535522
-0.0308300119 0.0574009332 -0.2338506444
-0.0402419691 0.0399796205 -0.2530351252
-0.0280558963 0.0569788651 -0.2394026625
-0.0096711472 0.0652024515 -0.2375649619
-0.0154444338 0.0788392766 -0.2082185518
-0.0099133063 0.0632311165 -0.2412609035
0.0026078468 0.0989647945 0.0512514513
0.0001735879 0.0609285791 0.0501093789
-0.0025058255 0.0431541239 0.0493426432
-0.0027531252 0.0328851191 0.0488409923
0.0043795529 0.0732560625 0.0505352412
-0.0020134997 0.0203918360 0.0481823090
0.0138848095 0.0183933957 0.0461986768
0.0139859006 0.0246086609 0.0465579289
0.0106553459 0.0489368546 0.0484010942
0.0097373744 0.0258051298 0.0471275702
-0.0224929568 -0.0338708666 -0.1593196502
-0.0219872674 -0.0365848235 -0.1701808713
-0.0227035775 -0.0480807876 -0.2206367841
-0.0248908194 -0.0360337328 -0.1723351576
-0.0235926187 -0.0376666650 -0.1773229987
-0.0265980977 -0.0343932565 -0.1679516945
-0.0357403289 0.0056038228 -0.0105138799
-0.0284112198 -0.0222177190 -0.1185162742
-0.0225749484 -0.0366439288 -0.1713493189
-0.0134155097 -0.0410188361 -0.1790533767
-0.0248470673 -0.0161683902 -0.0886379264
-0.0249190686 -0.0153932798 -0.0855591756
-0.0218526493 -0.0301085810 -0.1424641268
-0.0117818168 -0.0487056466 -0.2087497505
-0.0231729919 -0.0233143880 -0.1161038310
-0.0278928287 -0.0110740917 -0.0707411596
-0.0213825081 0.0239064134 0.0431217286
-0.0258278202 0.0348497255 0.0412328101
-0.0276787814 0.0378105779 0.0403469022
-0.0230766805 0.0279330430 0.0423928643
0.0460131522 0.0525147854 0.0176997923
0.0459656341 0.0626919416 0.0188125997
0.0471976823 0.0773635313 0.0170636210
0.0287705455 0.1239839354 0.0033273919
-0.0219562506 0.0891911334 0.0466741994
-0.0191287784 0.0542974627 0.0461676044
-0.0234879558 0.0988271055 0.0462057408
0.0000841605 0.1154357093 0.0398575794
0.0125230009 0.1282873356 0.0128586014
0.0361425912 0.0412451315 -0.2582673460
0.0358039544 0.0475198357 -0.2455729634
0.0339196772 0.0488165730 -0.2465814390
0.0311378245 0.0494209509 -0.2508622241
0.0289628584 0.0592492230 -0.2342707099
0.0277624242 0.0832988644 -0.1848268116
0.0297359347 0.0753587253 -0.1979775577
0.0281718050 0.0740005130 -0.2043209146
0.0093705012 0.0725111405 -0.2231036777
0.0044414605 0.0824820007 -0.2039563121
0.0079540771 0.0753126230 -0.2177275376
0.0267165214 0.0572712056 -0.2408729969
0.0224997633 0.0815203125 -0.1982949761
0.0200608590 0.0749031671 -0.2132435765
-0.0132101541 0.1103128209 -0.0883806349
-0.0131414570 0.1250546977 -0.0206880210
-0.0148137441 0.1103375606 -0.0871522166
-0.0170349240 0.1191452325 -0.0451360456
-0.0172439145 0.0985571605 -0.1395949746
-0.0173700801 0.1156123861 -0.0611368373
-0.0129096925 0.1109832209 -0.0855089475
0.0377177812 -0.0359397295 -0.2103175234
0.0444417535 0.0063390726 -0.0278874827
0.0442178959 0.0029170735 -0.0440524152
0.0432050625 -0.0025869746 -0.0672015595
0.0188346429 0.1146751842 0.0353287371
-0.0289639069 0.1236902801 0.0060521980
-0.0083973336 0.0889237786 -0.1868294453
-0.0199450214 0.1273683826 0.0031554377
-0.0234552311 0.1074283531 -0.0903439945
-0.0222462048 0.0995954690 -0.1288734967
-0.0258235052 0.1004007661 -0.1196298069
-0.0263371885 0.0955298424 -0.1416535708
-0.0249924539 0.1087146873 -0.0819686576
-0.0418218322 0.0348923054 0.0245454455
-0.0445013029 0.0672267409 0.0224168690
-0.0417388651 0.0283523765 0.0240785776
-0.0420588268 0.0222528767 0.0228662741
-0.0402889497 0.1140531390 0.0091021791
-0.0481758124 0.1037697417 0.0116182417
-0.0371027831 0.1097156526 0.0247301436
-0.0375844637 0.0528770473 0.0322293352
-0.0386162576 0.0623623672 0.0317053937
-0.0380186022 0.1032398861 0.0313884716
-0.0532891170 0.0341151567 -0.1760622285
-0.0534667940 0.0306300546 -0.1813469533
-0.0510350040 0.0890354717 -0.0359272626
-0.0531368388 0.0345725972 -0.1888011495
-0.0534113231 0.0263061399 -0.2166435278
-0.0527700534 0.0476940441 -0.1374290542
-0.0533212106 0.0299099949 -0.2014270944
-0.0530598541 0.0371853203 -0.1789835577
-0.0544338912 0.0078617780 -0.2360457191
-0.0528285819 0.0443520429 -0.1541477536
-0.0540312066 0.0144883378 -0.2327523757
-0.0520047133 0.0646377934 -0.1014775651
-0.0526391160 0.0480171113 -0.1488624051
-0.0519115340 0.0665493462 -0.0981336182
-0.0527849421 0.0433215282 -0.1657285401
-0.0342873815 0.0617001420 -0.2179730325
-0.0275259576 0.0876199424 -0.1749935235
-0.0351464404 0.0570475011 -0.2264718404
-0.0328099391 0.0669457806 -0.2095159596
-0.0273074370 0.0767011361 -0.1998781424
0.0141344643 0.0270651595 0.0466498826
0.0107678359 0.0681075599 0.0495299496
0.0181118304 0.0924860122 0.0485219699
0.0158602568 0.0990681373 0.0488637310
-0.0537574339 -0.0032341320 -0.2218739762
-0.0491837102 0.0083580623 -0.0607653990
-0.0512570903 0.0050625219 -0.1268380149
-0.0513627899 -0.0008208474 -0.1505123860
-0.0524453435 -0.0004722755 -0.1776584612
-0.0524038743 0.0011504094 -0.1708059311
-0.0497285858 0.0053930654 -0.0855863061
-0.0527032563 -0.0083265766 -0.2123263487
-0.0510683567 0.0001831027 -0.1392254395
-0.0538492298 -0.0038019231 -0.2262981581
0.0233869330 0.0565143314 0.0436812163
0.0178339472 0.0609116411 0.0471123955
0.0193253190 0.0748220445 0.0471610416
0.0224338554 0.0506275180 0.0438431647
0.0182608524 0.0177220306 0.0440938667
0.0213423491 0.0630796982 0.0452625373
0.0386041507 0.0583167544 0.0313168312
0.0339545641 0.0274874948 0.0343761071
0.0349116715 0.0323765176 0.0336361424
0.0366056799 0.0281611839 0.0313530548
0.0443587474 0.1089280836 0.0113601642
0.0101522829 0.1257524151 0.0267369042
0.0324739539 0.1208863673 0.0100458405
0.0229294771 0.1261398321 0.0070508389
-0.0080258111 0.1118387865 0.0418808969
0.0087604400 0.1216550635 0.0321777464
0.0331789077 0.1070354569 -0.0681665190
0.0383759058 0.1125718872 -0.0237616471
0.0356956640 0.1023367635 -0.0798177876
0.0389961790 0.1140587016 -0.0147507352
0.0323806467 0.1092207588 -0.0613486697
0.0377886919 0.1101610082 -0.0367998502
0.0353921152 0.1108678795 -0.0426309363
0.0317320108 0.0973717763 -0.1170201738
0.0369614860 0.1064773243 -0.0564583099
0.0255558505 0.1123844562 -0.0634789929
0.0302090351 0.1211717269 -0.0114193939
0.0262127113 0.1075997033 -0.0848900591
0.0261382589 0.1046280644 -0.0992363940
0.0287664526 0.1148308901 -0.0448220193
0.0296590641 0.1082233984 -0.0744210481
0.0502601134 0.0845602203 -0.0646944747
0.0513542445 0.0641216416 -0.1181660419
0.0496410627 0.1031769286 -0.0104609598
0.0513919876 0.0606752504 -0.1293313443
0.0426909821 0.1122514403 0.0050455199
0.0064078180 0.0881001502 -0.1891068154
0.0216327147 0.0877709291 -0.1823843760
-0.0057737732 0.1292482574 -0.0051375770
0.0313980858 -0.0079295573 -0.0619524688
0.0148222000 -0.0467287431 -0.2035219633
0.0136631030 -0.0442383133 -0.1917673905
0.0313276942 -0.0048775488 -0.0491673187
0.0250909275 -0.0270206572 -0.1338302798
0.0291173060 -0.0154553424 -0.0905335986
0.0186776761 -0.0413848110 -0.1859099845
0.0143852709 -0.0450591392 -0.1960497521
0.0199050133 -0.0272783049 -0.1287086162
0.0264876491 -0.0018469379 -0.0309826324
0.0366201237 0.0085918682 0.0005233208
0.0348440697 0.0048773754 -0.0128068456
0.0331776631 0.0157395546 0.0341209632
0.0223921360 -0.0187291172 -0.0961740638
0.0295820425 0.0066633400 0.0006872615
0.0238336336 -0.0189046096 -0.0985709070
0.0333544200 0.0134709187 0.0245182053
0.0362912297 0.0115520441 0.0131670744
-0.0079725084 0.1291176146 -0.0038795530
-0.0201208689 0.1252956716 -0.0118432650
-0.0186650069 0.1195191896 -0.0411402036
-0.0195459454 0.1196517984 -0.0391536355
-0.0184446221 0.1111090016 -0.0808500218
-0.0288178829 0.1184809406 0.0227476263
-0.0463593072 0.1084781031 -0.0041884426
-0.0027285225 -0.0547046458 -0.2535631590
-0.0515006662 0.0151484559 -0.1227973959
-0.0505192989 0.0311610875 -0.0744875423
-0.0508924218 0.0106078393 -0.1069592315
-0.0544450288 0.0074514289 -0.2284020841
-0.0514806933 0.0469956646 -0.0910799566
-0.0504402280 0.0211179971 -0.0816453839
-0.0482507828 0.0255500960 -0.0043763312
-0.0500886554 0.0152666722 -0.0756369569
-0.0523954428 0.0342149953 -0.1340189864
-0.0507755299 0.0454548847 -0.0690877264
-0.0484595792 0.0189683997 -0.0177503324
-0.0497203824 0.0694350961 -0.0105510463
-0.0491953133 0.0139529193 -0.0471536590
-0.0480739897 0.0172804706 -0.0065490971
-0.0529079094 0.0383139576 -0.1470966617
-0.0527871582 0.0152994387 -0.1655133410
-0.0499514112 0.0564929197 -0.0308674424
-0.0491831662 0.0274358953 -0.0336026382
-0.0511733833 0.0367885790 -0.0907932609
-0.0527378205 0.0489902798 -0.1310199318
-0.0509779850 0.0759701253 -0.0460798220
-0.0519968088 0.0593697655 -0.0962106986
-0.0515447198 0.0127452086 -0.1266084067
-0.0508607316 0.0895962808 -0.0288872785
-0.0532531183 0.0028493407 -0.1931773521
-0.0516835312 0.0331482480 -0.1113397285
-0.0510446600 0.0832362658 -0.0412165846
-0.0528276972 0.0133349970 -0.1687794031
-0.0523645280 0.0427591810 -0.1246581335
-0.0530150992 0.0350353561 -0.1538647334
-0.0506803652 0.0818970628 -0.0303848244
-0.0493252474 0.0652701106 -0.0014469797
-0.0509381401 0.0382466602 -0.0815337865
-0.0485988536 0.0321679583 -0.0095206896
-0.0515884420 0.0426148244 -0.0989413617
-0.0489243290 0.0169481022 -0.0352046502
-0.0486423587 0.0445120334 0.0010656576
-0.0520606396 0.0170855938 -0.1395657425
-0.0495385968 0.0741438362 0.0000968243
-0.0516475075 0.0144126626 -0.1284072536
-0.0532765625 0.0099087249 -0.1870753524
-0.0490275303 0.0360081404 -0.0200589854
-0.0518202492 0.0486156267 -0.1008137192
-0.0498252501 0.0428095255 -0.0400057454
-0.0530292818 0.0357314871 -0.1536585167
-0.0499737613 0.0281177532 -0.0592787405
-0.0520364249 0.0246833563 -0.1313509134
-0.0504670106 0.0123211346 -0.0911149292
-0.0499710092 0.0825917489 -0.0060732627
-0.0504662111 0.0301703169 -0.0736848016
-0.0520779409 0.0104776468 -0.1465851296
-0.0517066914 0.0150676270 -0.1297405243
-0.0505997154 0.0697781798 -0.0395140217
-0.0508463170 0.0162843115 -0.0998883876
-0.0498445593 0.0354100429 -0.0478638052
-0.0500047523 0.0822331374 -0.0075471676
-0.0501268087 0.0934148915 -0.0007112795
-0.0544924130 -0.0025242666 -0.2397074269
-0.0483559157 0.0247306410 -0.0086781266
-0.0500921615 0.0353577517 -0.0561643659
-0.0537067955 0.0006747021 -0.2104132412
-0.0506030671 0.0782642785 -0.0313514896
-0.0509922623 0.0209153367 -0.1002355834
-0.0501432323 0.0192616707 -0.0735600987
-0.0508335487 0.0626774772 -0.0542282460
-0.0509914992 0.0814827337 -0.0411551252
-0.0505784018 0.0519849704 -0.0561528114
-0.0504123440 0.0678747395 -0.0351271186
-0.0522863773 0.0434135868 -0.1214162519
-0.0500559312 0.0801563710 -0.0112772482
-0.0503845284 0.0831691758 -0.0192878277
-0.0524859670 0.0419371553 -0.1295057192
-0.0495328573 0.0369322320 -0.0359943803
-0.0504927417 0.0609479089 -0.0445596648
-0.0484291738 0.0137548659 -0.0218206416
-0.0505851370 0.0595824975 -0.0489693965
-0.0510487102 0.0630280889 -0.0610551080
-0.0525434998 0.0133377907 -0.1593078296
-0.0494405911 0.0394763889 -0.0304396407
-0.0506271008 0.0538681870 -0.0559391639
-0.0516887010 0.0288614097 -0.1156917715
-0.0506870315 0.0687588146 -0.0434171187
-0.0499513744 0.0392356521 -0.0476925715
-0.0541489220 0.0133117870 -0.2128224140
-0.0543316217 -0.0015541056 -0.2334042673
-0.0486556678 0.0182797928 -0.0249549960
-0.0504138019 0.0891205166 -0.0144604231
0.0021930860 -0.0521003234 -0.2189546313
0.0316902659 0.1161721245 0.0223343112
0.0422919995 0.1059845275 0.0216474210
0.0458762114 0.0164567579 0.0134729054
0.0464886945 0.0443458125 0.0154167291
0.0455181662 0.0212924149 0.0157923689
-0.0089616867 0.1160829400 0.0379242218
-0.0129160011 0.1213590525 0.0310288487
-0.0186650398 0.1014622681 0.0465304273
0.0149073254 0.1198918335 0.0317458381
0.0226789733 0.1009533393 0.0449629318
0.0158894160 0.1104301884 0.0405575687
0.0040611022 0.1225117681 -0.0364848676
0.0009112534 0.1219032025 -0.0393637654
0.0064989711 0.1190997563 -0.0519443821
0.0006235842 0.1277125381 -0.0129112129
0.0044165479 0.1105401424 -0.0910051832
0.0023907804 0.0996412588 -0.1407197516
-0.0047853637 0.1233006550 -0.0331913313
0.0021390560 0.1013766118 -0.1328235201
0.0007672278 0.1258573777 -0.0213568482
-0.0033593989 0.1119230131 -0.0849696733
-0.0015771274 0.1014205506 -0.1327493744
-0.0079829720 0.1193560385 -0.0501691451
-0.0156742696 0.0975077350 -0.1452031128
-0.0090905537 0.1094168890 -0.0946845158
-0.0113749085 0.1138922595 -0.0731472319
-0.0126856310 0.0925462863 -0.1693243257
-0.0112004588 0.0996882917 -0.1377065636
-0.0121613037 0.0962024821 -0.1530116998
0.0505473116 -0.0138713556 -0.2000729344
0.0498629696 -0.0173956836 -0.2097131784
0.0495781894 -0.0000687381 -0.1098256480
0.0497079612 -0.0201820205 -0.2228876041
0.0504239496 -0.0056926515 -0.1530828957
0.0495643584 -0.0114456750 -0.1725235215
0.0499766850 -0.0133549447 -0.1890098796
0.0485050901 -0.0031266292 -0.1112951927
0.0426081734 -0.0348739046 -0.2545119641
0.0413421569 -0.0360826073 -0.2584736380
0.0112539047 -0.0539000934 -0.2555386516
0.0280679314 0.0145173070 0.0333379064
0.0187460574 0.0097761265 0.0199402521
0.0177688423 -0.0002674173 -0.0192248959
0.0193189988 0.0040550322 -0.0030183486
0.0115387342 -0.0370262441 -0.1610426466
0.0213773006 -0.0017982466 -0.0273531943
0.0155507699 -0.0207051427 -0.0987906441
0.0140600752 -0.0106784712 -0.0582743226
0.0253178135 0.0037781325 -0.0075601620
0.0196296433 -0.0072890600 -0.0480676583
0.0128600558 -0.0211610003 -0.0990478390
0.0284021140 0.0072142887 0.0042592827
0.0167086504 -0.0015611500 -0.0237330509
0.0204097928 -0.0082466486 -0.0523035654
0.0158336743 -0.0067538380 -0.0437696887
0.0135780319 -0.0336767511 -0.1489655975
0.0165373582 0.0065304045 0.0083709903
0.0260219609 -0.0484122245 -0.2476014514
0.0307009303 -0.0456510410 -0.2444756476
0.0014345464 0.1287885518 -0.0078283130
-0.0450942373 0.1100442910 -0.0020427446
-0.0240333574 0.1147697142 0.0319517780
-0.0289026235 0.1146594908 -0.0448416263
-0.0286980562 0.1154457632 -0.0415656596
-0.0235740194 0.1250029268 -0.0078610704
-0.0300850125 0.1108800291 -0.0601270386
-0.0288034892 0.1044245638 -0.0938884322
-0.0285981220 0.1091354080 -0.0718955051
-0.0274269751 0.0967925534 -0.1334817582
-0.0513411678 0.0782299581 -0.0725360128
-0.0515116439 0.0750206702 -0.0810074835
-0.0516157409 0.0633486148 -0.1177337067
-0.0431020344 -0.0342970444 -0.2374536114
-0.0478852651 -0.0268973874 -0.2569437626
-0.0306104488 -0.0453736256 -0.2565289678
-0.0303163327 -0.0370502549 -0.1890968254
-0.0275385481 -0.0405693541 -0.1979624815
-0.0254946240 -0.0433425529 -0.2053386798
-0.0431850697 0.0085559747 -0.0120759367
-0.0306435049 -0.0426598694 -0.2160007190
-0.0418249653 0.0035444481 -0.0316732515
-0.0333641639 -0.0250683601 -0.1416943341
-0.0319307529 -0.0272720416 -0.1480680883
-0.0318623289 -0.0300365237 -0.1607098001
0.0052667443 0.0034598970 -0.0008573894
0.0027375564 -0.0347441728 -0.1490193889
0.0010938840 -0.0154910433 -0.0740300479
0.0018560518 0.0024267887 -0.0044947512
0.0082607825 -0.0139006813 -0.0686424191
0.0078543264 0.0028025605 -0.0036973021
0.0011645935 -0.0073650462 -0.0424644085
0.0030609117 -0.0414647816 -0.1751679423
0.0058617117 0.0131912086 0.0368877645
0.0051219821 -0.0259666750 -0.1151779403
0.0069913661 -0.0255483440 -0.1137590248
0.0093872276 0.0145575613 0.0418072584
0.0023523320 -0.0167590663 -0.0790959498
0.0006191619 -0.0025889135 -0.0238465587
0.0133896542 0.0157713693 0.0460813594
0.0015067844 -0.0260580041 -0.1151334410
0.0082945632 -0.0205890208 -0.0946336019
0.0127777513 0.0109005546 0.0272234704
0.0378571934 0.1017640599 0.0331328144
0.0403754374 0.0967775948 0.0312811984
0.0399512363 0.0596213549 0.0294706771
0.0428649358 0.0800446234 0.0265246569
0.0409911082 0.0356489073 0.0263712408
0.0397123638 0.1020563580 -0.0626155688
0.0318072271 0.0947979882 -0.1278132293
0.0453751118 0.1079425107 -0.0131873930
0.0430963384 0.1062113683 -0.0305485047
0.0384310863 0.0981337136 -0.0840789006
0.0414167945 0.1024059245 -0.0533806252
0.0442669164 0.1053187917 -0.0287000730
0.0123900580 0.1289082031 -0.0003184754
0.0236457359 0.1171330034 -0.0443685327
0.0198835854 0.1229747287 -0.0233026995
0.0204237517 0.1189216884 -0.0415783230
0.0250327808 0.1160873090 -0.0468777168
0.0113847438 0.1246166456 -0.0243614716
0.0129064096 0.1278028954 -0.0082889249
0.0150505718 0.0991492056 -0.1380938580
0.0126666517 0.1143674109 -0.0703124775
0.0153410965 0.0980075134 -0.1430749578
0.0150851878 0.1075477707 -0.0994300234
0.0132220479 0.1142799667 -0.0701976994
0.0162344303 0.1038767149 -0.1152201806
0.0177907360 0.1094180710 -0.0881400563
0.0177429428 0.0969014752 -0.1455996246
0.0169339330 0.1020842131 -0.1226936453
0.0204834874 0.1046275584 -0.1072327124
0.0212114539 0.1062161240 -0.0991681784
0.0197970010 0.0966511471 -0.1445513029
0.0232002156 0.0891904981 -0.1751310510
0.0103304316 0.1025795959 -0.1252287641
0.0080752204 0.1253286030 -0.0234945281
0.0104734211 0.1035680340 -0.1207389995
0.0096852751 0.1078865214 -0.1015303429
0.0124527185 0.1028676924 -0.1233206022
0.0113766312 0.1000040627 -0.1365187272
0.0071706808 0.0938887314 -0.1652533457
0.0107541735 0.1131017789 -0.0777505625
0.0099147666 0.0899776592 -0.1820647699
0.0079648695 0.1180120260 -0.0564552852
0.0535079493 -0.0127699335 -0.2541458456
0.0432308540 -0.0130865799 -0.1213066845
0.0404919446 -0.0373983911 -0.2336635860
0.0395612905 -0.0324431954 -0.2022134677
0.0401165870 -0.0339733166 -0.2134634643
0.0450847698 -0.0022377234 -0.0747962357
0.0324228127 -0.0445355532 -0.2362189482
0.0049522554 -0.0534789718 -0.2317283567
0.0169697772 -0.0520995969 -0.2581795475
0.0418599210 -0.0027910056 -0.0624804300
0.0390999402 -0.0213788556 -0.1435548245
0.0350878620 -0.0276075863 -0.1578587113
0.0413424689 -0.0046477339 -0.0695715296
0.0423668138 0.0002985917 -0.0492051624
0.0394937439 -0.0093492615 -0.0852836608
0.0363512774 -0.0334885922 -0.1924128458
0.0332983293 -0.0282233571 -0.1558684924
0.0337063255 -0.0201119597 -0.1195142258
0.0332496059 -0.0261068321 -0.1459776981
0.0271176127 -0.0401376600 -0.1947077197
0.0287760197 -0.0360964544 -0.1803912713
0.0297639460 -0.0358590979 -0.1818733332
0.0287385698 -0.0413171747 -0.2043771834
0.0375856188 -0.0136307108 -0.0997348465
-0.0143665712 0.0893669780 -0.1828264636
-0.0376725801 0.1149047796 -0.0154579462
-0.0344116801 0.1089694487 -0.0544324896
-0.0395408292 0.1134482747 -0.0152771704
-0.0338461930 0.1097032659 -0.0531512726
-0.0337093612 0.1008993819 -0.0937980709
-0.0309946005 0.0990938325 -0.1119457097
-0.0338088241 0.1111838950 -0.0465358375
-0.0421128911 0.1063852749 -0.0337285266
-0.0347532339 0.0954698813 -0.1118365290
-0.0458197579 0.1027143808 -0.0323376264
-0.0373240319 0.1043557932 -0.0635547981
-0.0377014585 0.1044861865 -0.0613264254
-0.0429768163 0.1068075810 -0.0281152345
-0.0415823755 0.1129694706 -0.0088495428
-0.0433855501 0.1056794966 -0.0309557441
-0.0164064354 0.0848283089 -0.1956741895
-0.0134181659 -0.0482367702 -0.2596380320
-0.0173705257 -0.0387269612 -0.2607016055
-0.0166944675 -0.0434039898 -0.2601710576
0.0058309367 -0.0533380784 -0.2591092422
-0.0156404402 -0.0490708740 -0.2595176339
-0.0284114136 -0.0331667069 -0.2612209827
-0.0278141725 -0.0177309263 -0.2628572769
-0.0079670639 -0.0334412929 -0.2611109363
0.0111566247 -0.0509034919 -0.2592470549
-0.0366620525 -0.0367247586 -0.2598493474
-0.0304136910 -0.0413663881 -0.2598104979
0.0069439178 -0.0354971482 -0.2604845258
0.0238150069 -0.0457039386 -0.2592334574
0.0234863636 -0.0493145824 -0.2590215655
-0.0147953953 -0.0184572931 -0.2623095688
-0.0091380431 -0.0218240578 -0.2619048995
0.0169324633 -0.0327424973 -0.2602454751
-0.0088779678 -0.0213496390 -0.2619144120
-0.0495165674 -0.0216950862 -0.2595040990
-0.0337385608 -0.0075317641 -0.2636348541
0.0217887568 -0.0268637151 -0.2602838596
-0.0039158142 -0.0139597180 -0.2619646510
0.0238658925 -0.0242745553 -0.2602670146
0.0132250860 -0.0171477319 -0.2610137443
-0.0210533506 -0.0096226071 -0.2629418885
-0.0308209457 -0.0061891689 -0.2635140890
0.0489492597 -0.0169327950 -0.2591466464
-0.0169672649 -0.0106146860 -0.2627103686
0.0171410873 -0.0164466149 -0.2608210492
0.0365466701 -0.0051114154 -0.2599665083
0.0536585485 -0.0074059230 -0.2590416504
0.0414788635 -0.0026014970 -0.2597241993
-0.0179025821 0.0431228869 -0.2602189908
-0.0358275810 0.0265484673 -0.2618155428
-0.0479953726 0.0081925721 -0.2638317240
-0.0424546143 0.0246227055 -0.2612796989
-0.0079981660 0.0523467985 -0.2592412235
-0.0100617369 0.0388757872 -0.2606815751
-0.0141134852 0.0445948591 -0.2600811704
0.0001514130 0.0506717066 -0.2594014074
-0.0460770912 0.0290758923 -0.2591357641
-0.0428199341 0.0089010593 -0.2639402037
-0.0063984382 0.0282731684 -0.2614174237
-0.0090411248 0.0291364253 -0.2614373658
0.0089077970 0.0487270746 -0.2594720674
0.0173544090 0.0451631990 -0.2594661784
0.0153694912 0.0524716666 -0.2590023697
0.0249421818 0.0343181201 -0.2598026675
-0.0238669868 0.0159756904 -0.2628174934
0.0254304225 0.0408085017 -0.2594774110
0.0347765660 0.0340615892 -0.2593801478
0.0138489122 0.0277526253 -0.2606000116
0.0217257525 0.0288696343 -0.2601997163
-0.0166156212 0.0135817347 -0.2625951150
0.0194376049 0.0183960542 -0.2606437677
-0.0037735546 0.0134837330 -0.2619504215
0.0311695819 0.0258386990 -0.2598455154
-0.0395447104 0.0051613765 -0.2639850220
0.0390407569 0.0257706769 -0.2594505901
-0.0289133918 0.0029380019 -0.2634408159
0.0186779799 0.0082519143 -0.2608694523
0.0463866088 0.0053016947 -0.2594146956
-0.0025887201 0.0078811301 -0.2620044554
0.0082815475 0.0056918922 -0.2614409739
0.0430307790 0.0061892710 -0.2595871684
0.0108168546 0.0049293500 -0.2613113162
0.0540689847 -0.0018299580 -0.2590555864
-0.0442239057 0.0026898591 -0.2642550791
0.0036740577 -0.0026735249 -0.2617267530
-0.0414730523 -0.0022080382 -0.2641159336
-0.0516406579 -0.0186615455 -0.2478756911
-0.0059261582 -0.0529700811 -0.2285287723
-0.0351034984 -0.0423586787 -0.2424333138
-0.0250318083 -0.0490990880 -0.2549842243
-0.0094991252 -0.0105203348 -0.0565359585
-0.0097085074 -0.0382047131 -0.1648765200
-0.0150984834 0.0025132911 -0.0066942715
-0.0081802554 -0.0429544543 -0.1831446135
-0.0046117933 -0.0389388194 -0.1667067595
-0.0098523656 -0.0286190406 -0.1274079822
-0.0148177816 0.0036363762 -0.0022435451
-0.0105013688 -0.0324153689 -0.1423913578
-0.0065269970 -0.0381097113 -0.1638547572
-0.0072553576 -0.0308638332 -0.1356586390
-0.0046946835 -0.0403839983 -0.1723770541
-0.0020598872 -0.0105671022 -0.0551301398
0.0017964318 -0.0398866441 -0.1690862662
-0.0044158259 0.0015679210 -0.0081273941
-0.0131507743 0.0039437891 -0.0006931244
-0.0055204259 -0.0174207129 -0.0827002561
-0.0063458003 0.0030147303 -0.0028758827
-0.0052034045 0.0050612907 0.0053801487
-0.0031791936 -0.0146851920 -0.0714908698
-0.0059133978 -0.0076983438 -0.0447230643
-0.0082692774 -0.0098356353 -0.0535936297
-0.0122997635 0.0020413532 -0.0079589153
-0.0091761828 -0.0107762857 -0.0574699120
-0.0114054142 0.0052608304 0.0048358450
-0.0112071030 -0.0003326531 -0.0170191682
-0.0021257771 -0.0304559596 -0.1330052132
0.0322874899 0.1097741886 0.0302551134
0.0253829774 0.1143912901 0.0312883166
0.0457597595 -0.0305847585 -0.2403483281
0.0077219866 -0.0535808875 -0.2344291874
-0.0450282117 0.1028198361 0.0216476374
-0.0460850248 0.0644330878 0.0185908589
-0.0461438013 0.0732771827 0.0193005001
-0.0457878141 0.0675590439 0.0196612368
-0.0537155445 -0.0107465600 -0.2548812997
-0.0467675196 -0.0290725223 -0.2443845023
-0.0473469058 0.0153420722 0.0045499882
-0.0392247183 -0.0153357694 -0.1141806448
-0.0461382393 0.0104786399 -0.0146167491
-0.0461833549 0.0150608107 0.0082071252
-0.0422317408 -0.0085053212 -0.0929406145
-0.0368229821 -0.0284453381 -0.1695498068
-0.0354018724 -0.0381664161 -0.2121662946
-0.0346120763 -0.0339408660 -0.1875424812
-0.0378185088 -0.0214802579 -0.1389170948
-0.0371190187 -0.0354761706 -0.2061092435
-0.0404278066 -0.0144805020 -0.1151034642
-0.0383430397 -0.0360446807 -0.2142658277
-0.0274145345 -0.0476788182 -0.2422561502
0.0054618531 -0.0456988517 -0.1922782757
0.0090320387 -0.0300479970 -0.1322118684
0.0130488406 -0.0011960688 -0.0202306134
0.0041540754 -0.0504257140 -0.2103075981
0.0089611637 -0.0301271320 -0.1324898266
0.0090619709 -0.0434288106 -0.1850688757
0.0289487694 0.1062585462 0.0369199444
0.0455328136 -0.0077918143 -0.1081074374
0.0436258709 -0.0333172606 -0.2338654557
0.0465976588 0.0009839708 -0.0678766405
0.0431323788 -0.0214611483 -0.1653236442
0.0450966209 -0.0191777275 -0.1672468390
0.0458510330 -0.0016014887 -0.0765497517
0.0458898834 0.0008909357 -0.0631879518
0.0482048343 -0.0265362957 -0.2401008678
0.0058990806 -0.0520455106 -0.2202818258
-0.0067394588 0.1086933652 -0.0986849424
-0.0087116012 0.1075255119 -0.1034506151
-0.0089281802 0.1020072280 -0.1282632420
-0.0057988698 0.0997238118 -0.1393417865
-0.0050523952 0.1180731951 -0.0568415338
-0.0061698078 0.1184245488 -0.0549765835
-0.0057962321 0.1230762491 -0.0341086386
-0.0021842782 0.1005866622 -0.1363645228
-0.0390723185 -0.0375639994 -0.2261528722
-0.0415623959 -0.0269892842 -0.1850402030
-0.0419233386 -0.0312348943 -0.2098082682
-0.0409172967 -0.0367752372 -0.2331610377
-0.0397090463 -0.0313812454 -0.1971415844
-0.0397104600 -0.0363484353 -0.2235637062
-0.0446313464 -0.0320441792 -0.2535642776
-0.0411083323 -0.0301130314 -0.2604470301
-0.0123328654 -0.0536747971 -0.2548343101
0.0470642467 -0.0274699171 -0.2324373254
0.0484553806 -0.0130610711 -0.1657212478
0.0468828281 -0.0273144021 -0.2296581037
0.0469496935 -0.0056663161 -0.1082141607
0.0467202765 -0.0098974699 -0.1296826612
0.0474313248 0.0078458645 -0.0370232676
0.0466762575 -0.0162327742 -0.1649668741
0.0366970896 0.0013163464 -0.0307172811
0.0411146716 0.0068699560 -0.0150637240
0.0289057595 -0.0299584291 -0.1531441152
0.0418345060 0.0062317455 -0.0193249855
0.0346237026 -0.0128531171 -0.0891063648
0.0334657544 -0.0140205677 -0.0919369770
0.0247163406 -0.0382131363 -0.1816803151
0.0219478476 -0.0384909632 -0.1780701528
0.0232156252 -0.0407702536 -0.1901861302
0.0311720826 -0.0125959217 -0.0815397856
0.0273185480 -0.0346589371 -0.1707564504
0.0328851846 -0.0120376186 -0.0820938062
0.0245364674 -0.0364639558 -0.1737623912
0.0306214124 -0.0449311987 -0.2278898184
-0.0185041204 -0.0514142266 -0.2362256766
-0.0464571657 -0.0118183207 -0.1376105828
-0.0451666454 -0.0237165595 -0.1929270394
-0.0449425145 -0.0114111656 -0.1229591620
-0.0465955057 -0.0015088453 -0.0816605922
-0.0457363686 -0.0218294594 -0.1871414497
-0.0458078109 -0.0230981640 -0.1947508456
-0.0476113215 -0.0092893980 -0.1355985499
-0.0483924200 -0.0039687816 -0.1143912714
-0.0484330127 -0.0076627055 -0.1356995533
-0.0481845544 -0.0031541643 -0.1074450636
-0.0476523989 0.0041719507 -0.0600823658
-0.0477150356 -0.0000602965 -0.0846781490
-0.0475712437 0.0011340071 -0.0763127046
-0.0476883380 -0.0220252158 -0.2083537005
-0.0219540498 -0.0502085558 -0.2587622395
-0.0496806608 -0.0194437228 -0.2164928027
-0.0497491180 -0.0150766003 -0.1942772694
-0.0500274019 -0.0201893691 -0.2262342810
-0.0492415369 -0.0075201330 -0.1454481116
-0.0486348890 0.0011715352 -0.0889047945
-0.0499111802 -0.0047646718 -0.1418274454
-0.0505440039 -0.0170059706 -0.2177855500
-0.0501508542 -0.0160200240 -0.2059889710
-0.0500262751 -0.0204429763 -0.2275716548
-0.0496268271 -0.0175702389 -0.2055816114
0.0185428413 -0.0505087105 -0.2277604559
0.0121792075 -0.0523632590 -0.2311252354
