0.0264392820 0.0096653312 0.0264892287
0.0284490861 -0.0064220337 0.0186287604
0.0214379828 -0.0246092198 0.0463636174
0.0173999413 -0.0049836616 0.0622103002
0.0205489431 0.0185791618 0.0496882780
0.0233476731 -0.0331738726 0.0388662982
0.0245597775 0.0241790122 0.0338423301
0.0224093306 0.0193228543 0.0423461186
0.0253734488 0.0327906514 0.0305960995
0.0215965073 0.0518366667 0.0454152214
0.0249773493 0.0155638896 0.0322314615
0.0241029377 0.0041512274 0.0357291419
0.0242160816 -0.0183330942 0.0353778134
0.0250665135 0.0079522251 0.0319118831
0.0190928453 0.0454188417 0.0553190023
0.0215055970 0.0409081247 0.0458200323
0.0178303545 0.0122272465 0.0604396417
0.0181941164 -0.0044499991 0.0590751147
0.0195574940 0.0217064179 0.0535862171
0.0232937264 -0.0423879685 0.0391180474
0.0272607836 0.0123392054 0.0232371998
0.0212779858 0.0607104901 0.0466342545
0.0190543363 -0.0426036608 0.0558428700
0.0234681182 0.0226199942 0.0381553893
0.0207095721 -0.0272562845 0.0492483004
0.0186104869 0.0659920764 0.0571349155
0.0263667103 -0.0288406780 0.0269382296
0.0285187076 0.0175272687 0.0182529096
0.0216086047 -0.0186758985 0.0456654613
0.0232199860 0.0046351775 0.0392102408
0.0226378575 0.0206296404 0.0414390842
0.0232966924 0.0279784892 0.0388090017
0.0264566485 -0.0274158119 0.0265774127
0.0178303192 0.0756662424 0.0601717086
0.0285944595 0.0136528405 0.0179704489
0.0240128291 -0.0356231616 0.0362526835
0.0183685610 0.0572305119 0.0581263093
0.0176940847 0.0703056521 0.0607317903
0.0222728446 -0.0558705464 0.0432022830
0.0239152716 0.0080870671 0.0364528317
0.0295647332 -0.0017727123 0.0142080131
0.0207252098 0.0299397443 0.0489449200
0.0239495686 -0.0347364523 0.0364984920
0.0298666003 -0.0033971153 0.0130240459
0.0180074109 0.0455119243 0.0596005241
0.0179513649 0.0800038093 0.0596758679
0.0268407139 0.0058537041 0.0249217323
0.0198992439 0.0159823614 0.0522622405
0.0188046328 -0.0323791927 0.0567847166
0.0182651014 -0.0110674054 0.0588230500
0.0247141189 0.0018482938 0.0333278329
0.0203134872 0.0144182302 0.0506347076
0.0220610287 -0.0353125208 0.0439510009
0.0258556294 -0.0260367128 0.0289425371
0.0263942324 -0.0223000826 0.0268020195
0.0264833687 0.0280740702 0.0262375224
0.0206506721 0.0521696335 0.0491450264
0.0232569575 0.0134546862 0.0390271238
0.0191974594 0.0143529613 0.0550375858
0.0254855002 -0.0348480772 0.0304398885
0.0233195349 -0.0171610162 0.0389096353
0.0196673136 0.0208112073 0.0531567741
0.0224489603 -0.0178563223 0.0423468910
0.0241061862 0.0106776885 0.0356887481
0.0199239504 0.0121098749 0.0521811402
0.0280717038 0.0023017329 0.0200806268
0.0172912617 0.0352193688 0.0624691440
0.0217188789 0.0125105589 0.0450986584
0.0193765906 0.0729945037 0.0540831338
0.0187733269 -0.0003921146 0.0567730479
0.0174134388 0.0259441208 0.0620263637
0.0208643098 -0.0649235088 0.0487970469
0.0217725824 -0.0122189595 0.0449913029
0.0184679528 0.0433821963 0.0577927384
0.0253376940 0.0183525430 0.0307981587
0.0176311868 -0.0773347111 0.0616037949
0.0187392254 -0.0272237291 0.0570209562
0.0281230942 -0.0004912134 0.0198896997
0.0182888718 -0.0169742020 0.0587542385
0.0193965921 0.0733175377 0.0540028651
0.0206890087 0.0032884893 0.0492003484
0.0180130704 0.0570713574 0.0595293519
0.0172165128 0.0696349146 0.0626185914
0.0290204522 0.0064790695 0.0163202703
0.0213297263 -0.0391605559 0.0468521662
0.0204429111 -0.0143524543 0.0502457202
0.0179512769 0.0205501353 0.0599274467
0.0256133886 0.0208164811 0.0297001630
0.0256663810 -0.0317562583 0.0297132693
0.0257935265 0.0052530627 0.0290553054
0.0175322007 -0.0335697013 0.0618093471
0.0290634892 0.0137392649 0.0161198152
0.0220163070 0.0285282193 0.0438576529
0.0271966589 -0.0147289291 0.0236045453
0.0249954579 -0.0377696878 0.0323853950
0.0184008697 0.0165452141 0.0581707776
0.0207725490 0.0298547652 0.0487585313
0.0264339016 0.0273761687 0.0264356137
0.0180815419 -0.0516252126 0.0597185554
0.0185047821 0.0577962924 0.0575865418
0.0303578317 0.0030432738 0.0110589790
0.0232119873 -0.0130406026 0.0393164868
0.0270443080 -0.0147156805 0.0242054964
0.0237823000 0.0075725930 0.0369795633
0.0250955209 -0.0002482814 0.0318321048
0.0215253420 -0.0050765893 0.0459364571
-0.0193288727 -0.0852620404 0.0436506527
-0.0232181705 -0.0561796781 0.0149460101
-0.0261396090 -0.0388809980 0.0191961783
-0.0214856345 -0.0684768128 0.0239974055
-0.0170897814 -0.0953199766 0.0222238094
-0.0254865521 -0.0416868823 0.0122222083
-0.0227284412 -0.0614135222 0.0274843851
-0.0250964779 -0.0445791856 0.0149620778
-0.0232124720 -0.0562197560 0.0149736879
-0.0248637166 -0.0454215359 0.0115810225
-0.0242523859 -0.0502804049 0.0177258074
-0.0212667471 -0.0689908352 0.0192389230
-0.0198543029 -0.0808705681 0.0371467381
-0.0221633548 -0.0631041384 0.0172639984
-0.0256653900 -0.0416339577 0.0181938695
-0.0185905701 -0.0879502370 0.0330188308
-0.0229131795 -0.0602368012 0.0272828836
-0.0201180831 -0.0796942456 0.0397196257
-0.0179534200 -0.0916292738 0.0315598614
-0.0178063206 -0.0950673958 0.0459200037
-0.0185758071 -0.0899076846 0.0436140319
-0.0221885465 -0.0631221402 0.0182497103
-0.0179940116 -0.0938203454 0.0454227828
-0.0191110295 -0.0840280817 0.0290050272
-0.0181603556 -0.0925095572 0.0438150286
-0.0174911600 -0.0966403089 0.0437966783
-0.0301264758 -0.0115234607 0.0037057416
-0.0306976656 0.0107664640 0.0008817971
-0.0300173383 0.0206954363 0.0013837391
-0.0309859490 0.0075237422 0.0030453115
-0.0286139598 0.0397308915 -0.0011429915
0.0242290502 -0.0518903649 0.0264477156
0.0235986697 -0.0557835884 0.0265636230
0.0234249210 -0.0569486509 0.0270944411
0.0279286499 -0.0266161773 0.0126141289
0.0178361439 -0.0951713096 0.0482218122
0.0204065192 -0.0778823113 0.0400790534
0.0210125721 -0.0740339365 0.0393960505
0.0177204505 -0.0923998719 0.0293389082
0.0225267385 -0.0621878577 0.0255895425
0.0219200722 -0.0659048642 0.0255397092
0.0173189704 -0.0963718314 0.0375060583
0.0212367835 -0.0709572663 0.0301795055
0.0190931282 -0.0853321837 0.0367326296
0.0231531322 -0.0579252386 0.0233376289
0.0235735615 -0.0550215182 0.0215946488
0.0184306618 -0.0911274574 0.0460945359
0.0177251369 -0.0945789083 0.0413118072
0.0178714632 -0.0916092034 0.0300811139
0.0182448499 -0.0909591792 0.0389929105
0.0195753799 -0.0816748529 0.0329620540
0.0261440744 -0.0383659391 0.0235182423
0.0215171745 -0.0704118463 0.0384767190
0.0307673328 -0.0068158855 0.0069999062
0.0274071169 -0.0302156188 0.0174395697
0.0268809552 -0.0335812854 0.0200707407
0.0266234299 -0.0353816553 0.0208473706
0.0257659857 0.0402202840 0.0288110552
0.0254437207 0.0422887205 0.0300696462
0.0181720256 0.0858191097 0.0586055698
0.0195697634 0.0757466296 0.0531946548
0.0261963269 0.0336077805 0.0272978127
0.0182251051 0.0900371550 0.0582000324
0.0196809683 0.0861989896 0.0522747868
0.0221192516 0.0671525803 0.0428998791
0.0270230135 0.0279158636 0.0240860062
-0.0223049272 -0.0570480218 0.0019166343
-0.0239183010 -0.0466793080 0.0003812619
-0.0246716380 -0.0435998500 0.0027198516
-0.0190150277 -0.0761314227 0.0014754716
-0.0260759724 -0.0350328385 0.0021780763
-0.0187728001 -0.0788749821 0.0037640421
-0.0241311943 -0.0463354418 0.0019549499
-0.0307576644 -0.0069982768 0.0072212757
-0.0286882900 -0.0210617977 0.0147590262
-0.0277281362 -0.0275354364 0.0184795457
-0.0283770917 -0.0230986125 0.0162303479
-0.0303668955 -0.0102931269 0.0058801665
-0.0219788815 -0.0622346515 0.0100194986
-0.0200610584 -0.0733333059 0.0089551387
-0.0176663993 -0.0909556790 0.0192901881
-0.0296641145 -0.0143763663 0.0038019177
-0.0232162278 -0.0552152067 0.0111437844
-0.0173624239 -0.0900046484 0.0107235768
-0.0268390966 -0.0322098758 0.0068350355
-0.0184546832 -0.0829600830 0.0090877536
-0.0169991048 -0.0938178004 0.0158224685
-0.0208865407 -0.0707300735 0.0161495345
-0.0174521408 -0.0890152738 0.0093164596
-0.0247245424 -0.0439281477 0.0040536347
-0.0200936761 -0.0726659651 0.0074902851
-0.0241301870 -0.0496658151 0.0108447172
0.0053957655 -0.1024394740 0.0171215153
0.0043785320 -0.1026323440 0.0089352652
0.0043264488 -0.1026750542 0.0105583451
-0.0044986533 -0.1014601154 -0.0085917076
-0.0255819761 0.0788590930 0.0022664104
-0.0258739635 0.0748865517 0.0029445527
-0.0286280441 0.0397549274 0.0010699713
-0.0284115819 0.0420178672 0.0029799840
-0.0259302785 0.0755901484 -0.0021238261
-0.0291328872 0.0324290214 0.0038605641
-0.0274094134 0.0552089440 0.0022216625
-0.0273451658 0.0573212772 -0.0023076774
-0.0300483516 0.0171766236 -0.0019517541
-0.0274074946 0.0534138389 -0.0050796618
-0.0280036267 0.0471699170 -0.0031994821
-0.0080207167 0.0928947340 0.0655795502
-0.0157398300 -0.0792904245 0.0649155860
-0.0161883418 -0.0337429437 0.0645548947
-0.0167911315 0.0428385132 0.0641273542
-0.0162028483 -0.0074832775 0.0646355253
-0.0167854726 0.0066565724 0.0639993154
0.0239492093 -0.0509716572 0.0129929226
0.0261732126 -0.0372059544 0.0116658952
0.0194071383 -0.0792384646 0.0163720302
0.0176204487 -0.0910970059 0.0209300690
0.0215674323 -0.0644700807 0.0089823695
0.0182736242 -0.0877847477 0.0237309739
0.0208307962 -0.0683574834 0.0064869754
0.0205492733 -0.0709310978 0.0102842919
0.0258670587 -0.0389702813 0.0112780563
0.0177574355 -0.0899229463 0.0194239947
0.0187964624 -0.0815419104 0.0102891165
0.0203093649 -0.0718464573 0.0079401402
0.0196566350 -0.0772664289 0.0143552152
0.0234769520 -0.0542330475 0.0147520559
0.0179029133 -0.0885399524 0.0172299670
0.0192645687 -0.0799537808 0.0157272431
0.0256907734 -0.0389827721 0.0066728940
0.0222009891 -0.0616770808 0.0135322515
0.0254015239 -0.0399836531 0.0033979838
0.0218694455 -0.0618111860 0.0053542559
0.0205904107 -0.0727377588 0.0192611972
0.0207583987 -0.0713061054 0.0174496818
0.0239616812 -0.0488923974 0.0358355867
0.0182854931 -0.0863461800 0.0572230797
0.0185901996 -0.0871340376 0.0548445835
0.0191028730 -0.0772113871 0.0557882185
0.0187103826 -0.0817350618 0.0564168371
0.0211183065 -0.0662800647 0.0471533650
0.0213722394 -0.0686337085 0.0444250529
0.0179371331 -0.0949212852 0.0509326220
0.0269382235 -0.0325298278 0.0217933177
0.0242006005 -0.0500468316 0.0334550335
0.0190305346 -0.0845594313 0.0527322823
0.0253696944 -0.0421222050 0.0293268819
0.0227817054 -0.0594623618 0.0388534976
0.0247477680 -0.0464242623 0.0313572349
0.0227106215 -0.0609939146 0.0370904874
0.0100666382 -0.1010847222 0.0401786229
0.0144312926 -0.1000193946 0.0469539579
0.0170062359 0.0997378379 0.0471533674
0.0163555647 -0.0059212767 -0.0150150130
0.0039855994 -0.0530219403 -0.0241919589
0.0169349945 -0.0055916244 -0.0145933107
0.0192192110 0.0118018050 -0.0128608946
0.0148830789 -0.0138341601 -0.0161174399
0.0177847020 0.0029469092 -0.0139398730
0.0046336488 -0.0622953315 -0.0237622479
0.0021616049 -0.0486155381 -0.0254957653
0.0216096606 0.0169317481 -0.0111047580
0.0089421023 -0.0346603773 -0.0205170850
0.0161160384 -0.0123742705 -0.0152168079
0.0091073197 -0.0308899235 -0.0203808533
0.0077495752 -0.0619576976 -0.0215007538
0.0114304430 -0.0415545453 -0.0187422377
0.0251259301 0.0682993801 0.0174501485
0.0293205600 0.0197023649 0.0133707711
0.0279464163 0.0458316032 0.0063264198
0.0291987950 0.0310353090 0.0053439068
0.0279346169 0.0428853141 0.0088687609
0.0275885619 0.0480601663 0.0082484340
0.0258642053 0.0726757780 0.0061180004
0.0255039439 0.0586295719 0.0214254092
0.0259111026 0.0616375929 0.0146877491
0.0253452281 0.0629345431 0.0195552592
0.0230139793 0.0802654922 0.0297670857
0.0263801919 0.0450714808 0.0233695045
0.0241685897 0.0645418729 0.0305707532
0.0259617303 0.0520058439 0.0220638290
0.0246860319 0.0785636339 0.0136356500
0.0261901265 0.0591316205 0.0138198610
0.0242575032 0.0708732653 0.0244411341
0.0240538358 0.0681727340 0.0287931261
0.0275515968 0.0425064810 0.0131950376
0.0259426554 0.0722706672 0.0056281510
0.0257706767 0.0594674842 0.0179413348
0.0274134648 0.0391393447 0.0174072307
0.0271108890 0.0416548042 0.0185142312
0.0271884076 0.0501380253 0.0107376036
0.0268422369 0.0404721413 0.0223014356
0.0260285734 0.0618538632 0.0132787358
0.0210282060 0.0926151555 0.0404464128
0.0281004166 0.0364217597 0.0124366567
0.0230134468 0.0853730681 0.0255797955
0.0253657352 0.0596072778 0.0220716712
0.0250060883 0.0766256763 0.0118713182
0.0241028421 0.0816036556 0.0172537712
-0.0143672438 -0.0643262125 -0.0121931222
-0.0135897788 -0.0644433319 -0.0133605271
-0.0157520536 -0.0674147383 -0.0094224716
-0.0109598309 -0.0754625481 -0.0150822830
-0.0286392717 -0.0175442990 -0.0001205531
-0.0209742079 -0.0557648448 -0.0038587373
-0.0114953285 -0.0685850803 -0.0157032378
-0.0198660806 -0.0623011359 -0.0041872343
-0.0233608493 -0.0293516692 -0.0057375371
-0.0264149602 -0.0250653823 -0.0019538395
-0.0277403701 -0.0139764393 -0.0022467382
-0.0230579094 -0.0430442930 -0.0033311580
-0.0221209350 -0.0363017331 -0.0061813289
-0.0199444071 -0.0480648061 -0.0070519712
-0.0162800846 -0.0797225985 -0.0060324330
-0.0269522364 -0.0205003427 -0.0020872384
-0.0147031484 -0.0780497718 -0.0088008210
-0.0232749141 -0.0390415140 -0.0038376921
-0.0244794378 -0.0369395945 -0.0024316856
-0.0184933461 -0.0830132988 0.0580745496
-0.0243201436 -0.0490749629 0.0318946962
-0.0174002924 -0.0924842522 0.0593206597
-0.0272457840 -0.0303514808 0.0207366756
-0.0224857012 -0.0608269254 0.0388769558
-0.0177667719 -0.0935671105 0.0538756760
-0.0216244147 -0.0634273819 0.0455991266
-0.0227546787 -0.0590417747 0.0379263736
-0.0238267981 -0.0497669892 0.0366866811
-0.0180567519 -0.0883303085 0.0567612141
-0.0229404967 -0.0571937086 0.0379955269
-0.0186018062 -0.0827478860 0.0571547772
-0.0217671591 -0.0669035596 0.0398723701
-0.0219313723 -0.0670514085 0.0378308438
-0.0122781296 -0.1006128975 0.0443474872
-0.0045277779 -0.1027576419 0.0190024479
-0.0054662863 -0.0940216865 -0.0151483169
-0.0094329002 -0.0910173731 -0.0108564556
-0.0123865865 -0.0912452079 -0.0057097600
-0.0140540378 -0.0900470432 -0.0038543292
-0.0126841653 -0.0268481129 0.0657195071
-0.0136203890 0.0911526323 0.0657049577
-0.0126350688 -0.0791671675 0.0657189889
-0.0116122366 -0.0712511698 0.0657386843
-0.0079159945 -0.0010230344 0.0658110139
-0.0117674203 -0.0247792280 0.0657370200
-0.0111502403 0.0466325343 0.0657507548
-0.0103126554 0.0546992376 0.0657669271
-0.0014431556 0.0922383537 0.0659368516
-0.0052681408 0.0563630948 0.0658630247
-0.0066146742 0.0600449388 0.0658374879
-0.0031649410 0.0531394206 0.0659029817
-0.0123632168 -0.0637522020 0.0657245933
-0.0077706777 0.0164130104 0.0658142650
-0.0091797790 0.0555807006 0.0657885224
-0.0037490539 0.0718311350 0.0658923788
-0.0088861955 0.0734858399 0.0657946097
-0.0084994986 0.0815029044 0.0658021954
-0.0125744072 -0.0231269430 0.0657217003
-0.0058163612 0.0180685169 0.0658515227
-0.0105095234 0.0278535458 0.0657624330
-0.0112891543 0.0541658545 0.0657483190
-0.0105947090 0.0736766085 0.0657620836
-0.0061900778 0.0498202102 0.0658452886
-0.0041990907 0.0434499866 0.0658830216
-0.0089018741 0.0649061839 0.0657940729
-0.0032126687 0.0133057323 0.0659016521
-0.0030694201 -0.0089142528 0.0659042396
-0.0077285545 -0.0400985138 0.0658139554
-0.0004148428 0.0187895082 0.0659557605
-0.0056542169 -0.0073107998 0.0658543053
-0.0014232229 -0.0223602403 0.0659359407
-0.0047035332 0.0193754200 0.0658728926
-0.0023693082 -0.0876841112 0.0659171283
-0.0048173230 -0.0814062102 0.0658698750
-0.0004165920 0.0127551610 0.0659556777
-0.0028585016 -0.0385407621 0.0659080746
-0.0026044953 -0.0060649415 0.0659132468
-0.0016900963 0.0542691984 0.0659314064
-0.0048272642 0.0129691589 0.0658704497
-0.0097347789 -0.0601269675 0.0657750253
-0.0068858906 -0.0445955600 0.0658302021
-0.0017551785 0.0290405474 0.0659299438
-0.0022246175 -0.0166899538 0.0659205010
-0.0074541192 -0.0758741798 0.0658189678
-0.0037279892 -0.0333141055 0.0658913155
-0.0005459624 -0.0377636554 0.0659527674
-0.0093998965 -0.0546792601 0.0657815407
-0.0003563594 0.0505400843 0.0659571486
0.0067468318 0.0893643521 0.0658240742
0.0046107342 -0.0112483477 0.0658577819
0.0044931498 0.0580779659 0.0658664897
0.0000428793 -0.0459291499 0.0659463812
0.0028674742 0.0923900197 0.0659022920
0.0001076428 -0.0280013873 0.0659467209
0.0070668737 0.0905582970 0.0658177535
0.0123282848 0.0777965407 0.0657108775
0.0019426156 -0.0162659770 0.0659109283
0.0028363742 0.0157315428 0.0658959003
0.0041656191 0.0175134869 0.0658693574
0.0023797750 0.0367410212 0.0659069969
0.0022327504 0.0234077146 0.0659087304
0.0095310474 0.0800791479 0.0657672862
0.0096091128 0.0756480763 0.0657653122
0.0027523369 0.0393861480 0.0658997538
0.0016782333 -0.0145467467 0.0659163974
0.0083214233 0.0808505098 0.0657916595
0.0100477401 0.0802429064 0.0657569202
0.0054613771 0.0830774973 0.0658493251
0.0027271390 -0.0102002489 0.0658957215
0.0080730210 0.0675264958 0.0657954307
0.0016748257 -0.0122870333 0.0659166727
0.0007184328 -0.0024301306 0.0659367900
0.0113449723 0.0909851907 0.0657318405
0.0034527864 -0.0656458276 0.0658839904
0.0116026924 -0.0868834449 0.0657591471
0.0089723538 0.0106360449 0.0657790208
0.0109362925 -0.0097098922 0.0657523660
0.0102627251 0.0348228317 0.0657530500
0.0100950765 -0.0331231709 0.0657710187
0.0112083312 -0.0368058357 0.0657541415
0.0133336039 0.0668894404 0.0656969852
0.0050390405 -0.0425577403 0.0658535609
0.0020844364 -0.0625949669 0.0659050672
0.0123524802 -0.0054528623 0.0657288825
0.0044976952 -0.0515866972 0.0658642046
0.0063448530 -0.0354733353 0.0658311962
0.0111073783 -0.0757599007 0.0657645200
0.0091613262 -0.0175868083 0.0657823713
0.0065215277 -0.0737452597 0.0658370054
0.0106897772 0.0200256782 0.0657495902
0.0078910625 -0.0139150080 0.0658017482
0.0102419379 0.0223743905 0.0657561842
0.0058286455 -0.0260726343 0.0658372895
0.0067021909 -0.0640009821 0.0658319374
0.0132771498 -0.0835373246 0.0657317609
0.0055886081 -0.0506167750 0.0658466349
0.0080533215 -0.0649168634 0.0658106536
0.0110836522 0.0101118246 0.0657455582
-0.0208183454 0.0853222369 0.0444406952
-0.0271312667 0.0349864555 0.0221416736
-0.0257658775 0.0712571330 0.0084488197
-0.0282515981 0.0356838394 0.0111596902
-0.0254887588 0.0708794958 0.0113148925
-0.0222738254 0.0743620420 0.0388290398
-0.0226700090 0.0844636946 0.0277568826
-0.0257855541 0.0509096790 0.0231069835
-0.0248717430 0.0685185879 0.0188051176
-0.0240206970 0.0775963825 0.0201393777
-0.0235146938 0.0645050255 0.0344189606
-0.0289527692 0.0253997099 0.0121064593
-0.0254390251 0.0526700229 0.0250624163
-0.0257347857 0.0688118928 0.0105231169
-0.0245801494 0.0597974951 0.0278925014
-0.0220037490 0.0898667817 0.0300441457
-0.0212107648 0.0894971555 0.0377268838
-0.0247914532 0.0615670195 0.0246264026
-0.0264182350 0.0656738175 0.0064229872
-0.0231448353 0.0733945959 0.0313921921
-0.0225068571 0.0878304865 0.0268262391
-0.0282084540 0.0309616085 0.0150075701
-0.0269965254 0.0424070162 0.0179884840
-0.0245135443 0.0603601381 0.0281047413
-0.0280936679 0.0315778343 0.0156311396
-0.0195211322 0.0960760233 0.0487233738
-0.0252712266 0.0688978529 0.0147939437
-0.0271769235 0.0368808139 0.0203330482
-0.0239381586 0.0765891113 0.0216457152
-0.0253847440 0.0490847241 0.0281850932
-0.0262118848 0.0543153234 0.0166372907
-0.0231361605 0.0699754454 0.0339673287
-0.0220368096 0.0892423769 0.0301905438
-0.0230696661 0.0687839597 0.0354580532
-0.0277890379 0.0406622229 0.0118524829
-0.0228339972 0.0748208288 0.0332576844
-0.0254386931 0.0555205463 0.0229862543
-0.0241124202 0.0800495980 0.0174924576
0.0142884922 -0.0759674261 -0.0095055457
0.0086840695 -0.0826941019 -0.0168293049
0.0225344721 -0.0303453894 -0.0067432157
0.0113336161 -0.0798190860 -0.0132984914
0.0114382682 -0.0827779991 -0.0124698513
0.0186573583 -0.0492845082 -0.0086053762
0.0222699950 -0.0454566615 -0.0037704540
0.0080231154 -0.0796436565 -0.0185552122
0.0216371864 -0.0489845232 -0.0039764370
0.0063444608 -0.0761024624 -0.0219951008
0.0197652981 -0.0560458868 -0.0053426247
0.0225275669 -0.0402534782 -0.0045316347
0.0206750177 -0.0473481463 -0.0058598735
0.0176767895 -0.0530250149 -0.0093117335
0.0086242151 -0.0693544055 -0.0199158364
0.0197837282 -0.0615964853 -0.0040685351
0.0163035005 -0.0487563212 -0.0124335480
0.0079631703 -0.0746615411 -0.0197672143
0.0147634763 -0.0781113842 -0.0082760607
0.0251939862 -0.0344178443 -0.0016383200
0.0227082036 -0.0485637739 -0.0023828843
0.0137043277 -0.0949994708 0.0056204491
0.0080830543 -0.0993657700 -0.0013432672
0.0082464174 -0.0992074170 -0.0012884127
0.0134342039 -0.0978678079 0.0177515734
0.0075221667 -0.0705696431 -0.0211494831
0.0093226779 -0.0647596092 -0.0195331004
0.0227983572 0.0150380502 -0.0102457688
0.0239471335 -0.0114030735 -0.0068813275
0.0251650549 0.0187362808 -0.0078162774
0.0198649729 -0.0326503497 -0.0099211363
0.0204517986 0.0007884024 -0.0118355830
0.0108524440 -0.0505900341 -0.0188743278
0.0246827591 -0.0152461802 -0.0057398092
0.0185234385 -0.0380599930 -0.0110418466
0.0141751408 -0.0417611224 -0.0157449243
0.0176409960 -0.0320991353 -0.0125157233
0.0153874664 -0.0256879400 -0.0155977217
0.0065334482 -0.0727769116 -0.0221131807
0.0192838841 -0.0198019423 -0.0115822449
0.0198863974 -0.0267474563 -0.0103533742
0.0197483966 -0.0308696322 -0.0101927119
0.0179632363 -0.0285042709 -0.0124241694
0.0165496727 -0.0437359167 -0.0128674110
0.0309400308 0.0020083449 0.0001048536
0.0242714340 0.0004104104 -0.0074234442
0.0161801137 -0.0395428945 -0.0136159617
0.0076711482 -0.0652707470 -0.0213886112
0.0199340801 0.0942760600 0.0474873075
0.0239358493 0.0628963382 0.0331389459
0.0243380514 0.0563747215 0.0328492825
0.0194641261 0.0892457776 0.0526550621
0.0267330817 0.0356091362 0.0247452930
0.0192929089 0.0921190662 0.0527441130
0.0190011675 0.0920197845 0.0546593153
0.0247887411 0.0573696701 0.0295935219
0.0217646162 0.0805335419 0.0409050848
0.0252238301 0.0477822042 0.0301742690
0.0210115213 0.0787851405 0.0463757170
0.0234830829 0.0638321085 0.0357264777
0.0260468783 0.0472693227 0.0250511298
0.0234413074 0.0901183333 0.0113253547
0.0227502017 0.0911946990 0.0188570406
0.0229421278 0.0881461115 0.0234085128
0.0235457431 0.0905523417 0.0087457010
0.0210925730 0.0938212221 0.0368553842
0.0225077824 0.0927351575 0.0191255933
0.0270056446 0.0616506931 -0.0040814386
0.0301376035 0.0172761261 -0.0012434272
0.0289324413 0.0346501777 -0.0021561611
0.0291505616 0.0314300387 0.0016933904
0.0262503915 0.0705817936 0.0023493201
0.0257899752 0.0774199022 -0.0001180602
0.0276442094 0.0523120900 -0.0002235314
0.0262181373 0.0723171404 -0.0030126459
0.0279659114 0.0477217024 0.0007258732
0.0268648341 0.0637102590 -0.0036686238
0.0275290291 0.0534734334 0.0043646676
0.0296723491 0.0244375301 0.0026116452
0.0295699894 0.0263146560 0.0052832660
0.0291728100 0.0311251167 0.0025994044
0.0230978794 0.0568245886 -0.0088545023
0.0211957457 0.0231411478 -0.0112511076
0.0146954205 0.0142760564 -0.0155917138
0.0185055916 0.0172751728 -0.0131270731
0.0166579638 0.0295459894 -0.0138249268
0.0221605494 0.0328071939 -0.0103043053
0.0206788453 0.0395377088 -0.0109766346
0.0257061096 0.0500171078 -0.0074883875
0.0079775856 -0.0239448130 -0.0211304548
0.0210587413 0.0314216590 -0.0110357971
0.0243304759 0.0543998369 -0.0081801961
0.0235628137 0.0490508145 -0.0088486807
0.0105902593 -0.0096354197 -0.0189964703
0.0011880438 0.0299465053 -0.0147165359
0.0053935139 0.0547762355 -0.0110080552
0.0172609651 0.0741163550 -0.0080218356
0.0201454268 0.0774055228 -0.0075041260
-0.0013469102 -0.0366847684 -0.0245688952
0.0018132272 0.0734013522 -0.0083028171
0.0055293212 0.0508238400 -0.0115892193
-0.0010153193 -0.0227267940 -0.0225072814
0.0166231499 0.0627699651 -0.0097018998
0.0024400574 0.0297954064 -0.0147245832
0.0015135735 0.0424916152 -0.0128632917
0.0128433628 0.0518295650 -0.0113578177
0.0176659264 0.0581119341 -0.0103767889
0.0100018306 0.0508803797 -0.0115300523
0.0138965384 0.0609403431 -0.0100026324
0.0088745161 0.0197794871 -0.0161281159
0.0167696652 0.0723339370 -0.0082902039
0.0177247466 0.0685290217 -0.0088403135
0.0086234185 0.0159232302 -0.0166995034
0.0055886701 0.0604324246 -0.0101719367
0.0122035350 0.0564278613 -0.0106871558
-0.0009019547 0.0671099747 -0.0092612231
0.0119158611 0.0543240172 -0.0110005982
0.0130609419 0.0485800941 -0.0118344193
0.0014682979 0.0016454442 -0.0188858187
0.0061727523 0.0630850718 -0.0097742147
0.0105045578 0.0509878867 -0.0115084888
0.0048566236 0.0224604766 -0.0157785180
0.0142840372 0.0569958501 -0.0105797709
0.0064195102 0.0548695098 -0.0109826429
-0.0043561081 0.0780276551 -0.0075829599
-0.0011090737 0.0692970136 -0.0089344565
-0.0025693155 -0.0245756910 -0.0227612053
-0.0194322507 0.0680924724 -0.0087572513
-0.0057751514 0.0787771260 -0.0074448504
-0.0013222841 -0.0101453887 -0.0206555403
-0.0071697976 0.0237174456 -0.0155443042
-0.0069949028 -0.0123387974 -0.0208693743
-0.0026244793 0.0039509856 -0.0185497730
-0.0022048768 -0.0334051072 -0.0240714339
-0.0066157866 0.0003012780 -0.0190111211
-0.0066450799 0.0661912456 -0.0092855959
-0.0019582056 -0.0158700845 -0.0214881503
-0.0086096136 0.0453143256 -0.0123288417
-0.0092502332 0.0524951077 -0.0112565909
-0.0106331141 0.0498826463 -0.0116153827
-0.0046896156 0.0015616884 -0.0188624093
-0.0049686147 0.0291651317 -0.0147829040
-0.0066281721 -0.0141881939 -0.0211494389
-0.0017399497 0.0232064322 -0.0157249230
-0.0113386869 0.0158549856 -0.0166239885
-0.0173481997 0.0487996784 -0.0116451259
-0.0040871442 0.0754751949 -0.0079648983
-0.0163806517 0.0484263036 -0.0117189788
-0.0027719599 0.0246699939 -0.0154889164
-0.0104265814 0.0798273261 -0.0071997317
-0.0162870616 0.0798911634 -0.0070767704
-0.0174283668 0.0730740214 -0.0080608277
0.0199199482 0.0513605092 -0.0108636558
0.0123960601 0.0151579377 -0.0166403836
0.0107172889 0.0010815030 -0.0184987153
-0.0120924603 -0.0544815896 -0.0171629532
-0.0144930407 -0.0377176590 -0.0157151374
-0.0140019837 -0.0439415374 -0.0157925627
-0.0238115118 -0.0155226900 -0.0067390240
-0.0165068253 -0.0391259437 -0.0132897002
-0.0282012233 0.0171070120 -0.0042461307
-0.0132936282 -0.0514598087 -0.0160185021
-0.0294049316 0.0112017955 -0.0024000555
-0.0191899113 -0.0231070752 -0.0114587776
-0.0204294341 -0.0230599069 -0.0100374119
-0.0186822497 -0.0112283566 -0.0129721579
-0.0268890255 -0.0149242574 -0.0032476989
-0.0281147605 0.0315735562 -0.0054778116
-0.0296426948 0.0048376254 -0.0016285886
-0.0239300420 0.0195943874 -0.0093513162
-0.0126498870 -0.0428450028 -0.0174328688
-0.0165058912 -0.0324062684 -0.0138167136
-0.0165164904 -0.0283104829 -0.0141250993
-0.0266953540 -0.0143761055 -0.0035132628
-0.0226489775 -0.0022475592 -0.0091145950
-0.0240131630 -0.0129094578 -0.0067117231
-0.0165172366 -0.0420817569 -0.0130463831
-0.0255319361 0.0177912957 -0.0073685212
-0.0025162548 -0.0954288767 -0.0182373187
-0.0087640680 -0.0832378328 -0.0167960759
-0.0050435145 -0.0870501989 -0.0212797043
-0.0206132797 -0.0642086457 -0.0013446619
-0.0220303206 -0.0542548972 -0.0021000885
-0.0217758290 -0.0576908960 -0.0010424404
-0.0277657180 -0.0231597231 -0.0000162438
-0.0022584417 -0.1033473617 0.0095721841
-0.0058069681 -0.1023878331 0.0198139242
-0.0058409235 -0.1023146168 0.0161671054
0.0064532074 0.0929134401 0.0656950605
0.0153450754 0.0890425727 0.0649791810
0.0160732440 0.0683977442 0.0647018524
0.0154500448 0.0062063659 0.0649746207
0.0155259226 0.0085361448 0.0649437347
0.0166502045 0.0901239942 0.0644652223
0.0150700691 -0.0090130728 0.0651308650
0.0146738580 0.0316629012 0.0652687071
0.0144103672 -0.0247276396 0.0653785804
0.0151969404 -0.0764601859 0.0650984556
0.0136036399 -0.0404607448 0.0656667833
0.0134871655 -0.0341289602 0.0657082811
-0.0240959491 0.0225860339 0.0359359995
-0.0290957075 0.0060470825 0.0160671568
-0.0275646212 0.0051873594 0.0221498528
-0.0249517049 0.0241906830 0.0325365928
-0.0234123022 0.0289868928 0.0386540294
-0.0271062036 0.0112882634 0.0239729640
-0.0297499831 -0.0005707783 0.0134657529
-0.0181339913 -0.0745575133 0.0595934622
-0.0205442999 0.0692139566 0.0500605954
-0.0186145683 -0.0624021096 0.0576877991
-0.0226389577 -0.0030111804 0.0417168845
-0.0243885176 -0.0096891602 0.0347639348
-0.0233980370 0.0068297523 0.0387040456
-0.0238570344 0.0190372882 0.0368841329
-0.0202189647 -0.0638803894 0.0513131419
-0.0242575649 -0.0375920389 0.0352758197
-0.0262842473 -0.0009553279 0.0272348892
-0.0190729342 0.0033626704 0.0558864913
-0.0218062597 0.0315839248 0.0450355625
-0.0253844555 -0.0224369414 0.0308032759
-0.0189984371 -0.0743865553 0.0561590998
-0.0248209479 0.0398963764 0.0330608060
-0.0196921382 -0.0352525960 0.0534148096
-0.0183403102 -0.0245637604 0.0587887891
-0.0223553738 0.0611049042 0.0428628226
-0.0231224407 -0.0332149206 0.0397869455
-0.0264903540 -0.0166467999 0.0264113184
-0.0195072668 0.0845687744 0.0541853079
-0.0224106804 -0.0546183950 0.0426083127
-0.0180759095 -0.0086226842 0.0598440349
-0.0192621502 0.0724600213 0.0551555088
-0.0282585001 0.0194542326 0.0193973831
-0.0185601175 0.0216618894 0.0579293945
-0.0246009652 0.0189239969 0.0339284870
-0.0209381001 -0.0422097940 0.0484625539
-0.0283305802 -0.0135376518 0.0191010960
-0.0226354968 0.0008229532 0.0417317869
-0.0214899859 0.0617123716 0.0463011624
-0.0241617810 -0.0411314283 0.0356553023
-0.0242027563 -0.0227044483 0.0354980466
-0.0196276397 0.0040415218 0.0536828693
-0.0216334328 -0.0152488259 0.0457081233
-0.0223505559 -0.0364852690 0.0428526348
-0.0195787504 -0.0547113340 0.0538594473
-0.0213225538 0.0258541450 0.0469555879
-0.0189311351 -0.0621735095 0.0564301586
-0.0203817319 -0.0643780538 0.0506663239
-0.0218225352 0.0634255022 0.0449804699
-0.0188387404 -0.0409779490 0.0568036095
-0.0178362464 -0.0100409171 0.0607957820
-0.0282050796 0.0128260150 0.0196076289
-0.0225916371 -0.0230033241 0.0418988793
-0.0286357581 0.0176383085 0.0178980041
-0.0252226138 0.0187364762 0.0314586416
-0.0226702127 -0.0124934795 0.0415898597
-0.0179257269 -0.0196243120 0.0604373992
-0.0192767723 0.0148636724 0.0550801060
-0.0201943184 -0.0366548840 0.0514192431
-0.0188656749 -0.0216282777 0.0567024151
-0.0227312429 0.0157718993 0.0413558835
-0.0234411412 0.0278028088 0.0385390971
-0.0225650164 -0.0220503486 0.0420049287
-0.0270401535 -0.0266495634 0.0242239773
-0.0222801698 -0.0308646216 0.0431339659
-0.0305750387 0.0056595384 0.0101897073
-0.0226229422 -0.0323544793 0.0417716947
-0.0242239242 -0.0208240768 0.0354145124
-0.0222277951 -0.0578642438 0.0433339345
-0.0212831799 -0.0450976646 0.0470906957
-0.0194055816 0.0065263902 0.0545658453
-0.0260094664 -0.0326998504 0.0283170445
-0.0178070409 -0.0298391613 0.0609058648
-0.0279683916 0.0045825414 0.0205455048
-0.0269191632 -0.0253651422 0.0247050537
-0.0243754531 0.0107065979 0.0348219693
-0.0183578460 0.0759622877 0.0587493315
-0.0194636359 -0.0214561299 0.0543267877
-0.0191438987 0.0237624324 0.0556106828
-0.0271119534 0.0172767610 0.0239519202
-0.0193582105 0.0623274694 0.0547708193
-0.0192182610 0.0308377027 0.0553173702
-0.0242346097 -0.0396714437 0.0353663950
-0.0272534737 0.0070680875 0.0233865968
-0.0229215664 0.0353468418 0.0406056174
-0.0212266600 -0.0622377201 0.0473100962
-0.0268017097 0.0015089300 0.0251797694
-0.0279772996 0.0040371384 0.0205099498
-0.0256153376 -0.0312406445 0.0298833433
-0.0200244737 0.0208054673 0.0521112989
-0.0242035509 -0.0024020859 0.0355009914
-0.0187255475 0.0069762422 0.0572677330
-0.0224097271 0.0022711250 0.0426291973
-0.0191422079 0.0638886414 0.0556294594
-0.0198302862 0.0476870372 0.0528908783
-0.0219620282 0.0339608887 0.0444174141
-0.0238848252 0.0384211320 0.0367795467
-0.0226931233 -0.0365023104 0.0414916212
-0.0267022051 0.0320127545 0.0255842652
-0.0186806231 -0.0306469041 0.0574349091
-0.0220253533 -0.0064483975 0.0441536812
-0.0183256748 -0.0710993508 0.0588329495
-0.0220386159 0.0073995990 0.0441051509
-0.0175261711 0.0867071251 0.0616628225
-0.0171609332 0.0592147662 0.0630232906
-0.0174631796 0.0083909970 0.0620886843
-0.0176400283 0.0108321367 0.0614581973
-0.0172577031 0.0711910127 0.0626506390
-0.0181397751 0.0827559210 0.0595075339
-0.0172212896 -0.0065095885 0.0629811005
-0.0172552822 -0.0048129612 0.0628567230
-0.0177136879 0.0133336413 0.0611917333
-0.0173655166 -0.0670794655 0.0626295143
-0.0177930253 0.0293366468 0.0608701393
-0.0231752312 0.0636285114 0.0375002436
-0.0205295422 0.0848889237 0.0468404912
-0.0227546927 0.0647394402 0.0399794417
-0.0217037209 0.0753413996 0.0427443050
-0.0191416664 0.0923767709 0.0533469897
-0.0194711277 0.0942929299 0.0501830608
-0.0202578189 0.0845948750 0.0488859995
-0.0276198620 0.0277669826 0.0218726690
-0.0236693542 0.0582421636 0.0363764557
-0.0195925321 0.0917605187 0.0504370026
0.0121047157 -0.0851493378 -0.0108114785
0.0053074393 -0.0839564298 -0.0217953455
0.0165654337 -0.0420877749 0.0642566976
0.0165808680 -0.0826121508 0.0641409294
0.0169753716 -0.0887635355 0.0637620814
0.0176010688 0.0991437566 0.0387295701
0.0105516903 0.0968737706 0.0615979764
0.0184428547 0.0963296001 0.0535553303
0.0069035890 0.0959292102 0.0146421042
0.0097802646 0.0974277814 0.0223544436
0.0008177032 0.0951765857 0.0104668181
0.0142090326 0.0965280102 0.0181242872
0.0102280700 0.0872492278 -0.0031964817
0.0171759422 0.0858206862 -0.0039422690
0.0017892012 -0.0594774971 -0.0256185098
-0.0076995370 -0.0093258937 -0.0204045301
-0.0056400242 -0.0225950833 -0.0223698608
-0.0231638860 0.0748651087 -0.0074454585
-0.0171897728 -0.0963338696 0.0319066027
0.0031478777 -0.1028850444 -0.0012838773
0.0085657371 -0.1015007872 0.0208231167
-0.0247718282 0.0845022689 0.0005274861
-0.0152887409 -0.0671419798 0.0652647238
-0.0134089464 -0.0520802905 0.0656847049
-0.0146325589 0.0015300057 0.0655081724
-0.0132249021 -0.0780824161 0.0656838618
-0.0140388832 -0.0203496845 0.0656001318
-0.0154319960 -0.0663413538 0.0651985941
-0.0152942959 0.0631850942 0.0652012662
-0.0156170000 -0.0369321433 0.0650739594
-0.0149641106 0.0267456378 0.0654141585
-0.0148881335 0.0205961484 0.0654618159
-0.0096755508 -0.1000387945 0.0576480136
-0.0056626927 -0.1018035142 0.0343818319
-0.0073779184 -0.1013197504 0.0406311505
-0.0148556580 0.0975422660 0.0235018496
-0.0067121447 0.0978894026 0.0245791259
-0.0151951988 0.0978557455 0.0251074885
-0.0077303211 0.0976121504 0.0232674917
0.0002081942 0.1003754563 0.0548633382
0.0109951752 0.1002840719 0.0480242476
0.0159640459 -0.0910793714 0.0025854220
0.0130133427 -0.0929637584 -0.0017437503
0.0123678533 -0.0952110979 0.0003410985
0.0034322900 -0.1017681403 -0.0110556946
0.0136792488 -0.0980723289 0.0587228553
0.0133765228 -0.0989005551 0.0249088407
0.0136573509 -0.0997924550 0.0357194694
0.0158851474 -0.0973443921 0.0274707086
0.0118775619 -0.1004172780 0.0291713323
0.0075495599 0.0996171184 0.0589993038
0.0023207638 -0.0669647862 -0.0253401526
0.0125882613 0.0959393655 0.0151651159
0.0134401525 0.0947029551 0.0096549439
0.0133026562 0.0983493160 0.0296890540
0.0101008950 0.0992239766 0.0357207058
0.0137340541 0.0984828375 0.0308703949
0.0158910962 0.1002153617 0.0452246909
0.0185138866 0.0973188225 0.0229902933
-0.0222454213 0.0827799122 -0.0055422992
0.0049671037 0.0909035659 0.0007074177
0.0143304023 0.0902076353 0.0002497251
0.0069679341 0.0839810525 -0.0053768278
0.0122859679 0.0803887286 -0.0068687631
0.0038781891 0.0802344304 -0.0071839373
0.0099192111 0.0015967700 -0.0186903911
-0.0006729439 -0.0450134491 -0.0257547628
0.0025459636 -0.0389902134 -0.0247241593
0.0009027968 -0.0358445400 -0.0243974100
-0.0148865597 0.0151729209 -0.0153562854
-0.0230780263 0.0504746963 -0.0089756878
-0.0252574509 0.0367374317 -0.0082535471
-0.0253526141 0.0654987972 -0.0069837199
-0.0186108715 0.0342508374 -0.0123276069
-0.0183061412 0.0269573691 -0.0128171838
-0.0154155483 0.0191077147 -0.0148744370
-0.0231993320 0.0483574369 -0.0089925412
-0.0265248421 0.0430233685 -0.0072315828
-0.0206484751 0.0443484317 -0.0106849340
-0.0073608207 -0.0241274713 -0.0215079652
-0.0172345988 0.0114231647 -0.0141122332
-0.0177954368 0.0303784991 -0.0129778804
-0.0197451105 0.0422995905 -0.0113108121
0.0238401905 0.0847350441 -0.0031915465
-0.0099719492 -0.0334908714 -0.0197734472
-0.0046860566 -0.0523895214 -0.0236752602
-0.0037527075 -0.0475763500 -0.0243177307
-0.0025896809 -0.0599465483 -0.0252230652
-0.0070166066 -0.0346434378 -0.0219012575
-0.0044473366 -0.0468585521 -0.0238150573
-0.0047947659 -0.0657443073 -0.0236734053
-0.0053154674 -0.0418742862 -0.0231635158
-0.0149354465 -0.0042394668 -0.0160439881
-0.0063787763 -0.0305890632 -0.0223359435
-0.0260412625 0.0322380120 -0.0078645825
-0.0207912594 0.0167225570 -0.0117213383
-0.0133771006 -0.0158307592 -0.0172286255
-0.0106535522 -0.0253598848 -0.0192378404
-0.0101769659 0.0958354546 0.0145298875
-0.0111631943 0.0955699420 0.0132779989
-0.0139240383 0.0950991777 0.0111428892
-0.0051718714 0.0999320222 0.0586152109
0.0238986028 -0.0490046787 0.0033834379
0.0298553448 -0.0123668693 0.0014157451
0.0234867880 -0.0469261532 -0.0014294981
0.0198151659 -0.0689267035 -0.0008415658
0.0198581099 -0.0715917097 0.0022877758
0.0231837024 -0.0528204762 0.0029957434
0.0179121923 -0.0842163900 0.0036346181
0.0174136770 -0.0854157079 0.0017957808
0.0258619063 -0.0361599583 0.0019094687
0.0148922891 0.1002123257 0.0510459537
-0.0020827360 0.1003917971 0.0572251398
0.0047108810 0.1002787955 0.0552048361
0.0149601754 0.0947005645 0.0624158169
-0.0152320579 0.0874855420 -0.0025595453
-0.0057835124 0.0872386176 -0.0032576380
0.0215557719 0.0939657318 0.0084638758
-0.0083772533 0.0920536796 0.0028294661
0.0021691138 0.0934982432 0.0054786119
0.0159109481 0.0919193662 0.0027809531
-0.0003132581 -0.0749374041 -0.0257939069
-0.0011059063 -0.0695678958 -0.0258830463
-0.0158970316 -0.0895087072 -0.0002240491
-0.0084611634 -0.0965043062 -0.0078242309
-0.0096512282 -0.1011895321 0.0225783229
-0.0042120766 -0.1024882079 -0.0019116145
-0.0073294871 -0.1004102869 -0.0007294916
-0.0065382311 -0.1007898665 -0.0026619100
-0.0124787072 -0.0959007062 0.0035450060
0.0064687905 -0.0947571762 0.0643527187
0.0072098454 -0.1002656163 0.0573460579
0.0083176448 -0.1003892763 0.0552303290
0.0052170900 -0.1015364016 0.0395779828
0.0015043528 -0.1011341643 0.0464924353
0.0026845125 -0.1007411477 0.0518200652
0.0015394958 -0.1007019400 0.0527266982
0.0001920788 -0.1012963448 0.0440462551
-0.0071812783 -0.1001475027 0.0570960719
-0.0035828402 -0.1009058648 0.0479199806
-0.0012630704 -0.1005975969 0.0533247512
-0.0023223470 -0.1001994403 0.0585098868
-0.0073436685 -0.1005931817 0.0506951667
0.0009242764 -0.0955459639 -0.0195188609
0.0031332316 -0.0981163788 -0.0155710441
0.0044871989 -0.0911179907 -0.0191460287
0.0044661900 -0.0963195907 -0.0150585531
0.0097816727 -0.0932283057 -0.0086938724
0.0036295246 -0.0969761413 -0.0159256552
0.0078090668 -0.0970341083 0.0617369226
0.0171941457 0.0920177750 0.0617562327
0.0119908600 0.0933359182 0.0055869133
0.0197122566 0.0978384628 0.0399187391
0.0238370698 0.0776559623 -0.0068332244
0.0242575335 0.0881462542 0.0039706262
-0.0135811440 0.0903325636 0.0001696330
0.0159016896 0.0888285915 -0.0014356036
-0.0017219444 0.0811995738 -0.0068308186
-0.0055295875 0.0830632233 -0.0058146371
-0.0105398563 -0.0994663985 0.0119018593
-0.0096570638 -0.0999540394 0.0101308432
-0.0157035894 -0.0968478212 0.0242000321
-0.0110973746 -0.0990792866 0.0123639136
-0.0146210030 -0.0988029990 0.0332839845
-0.0118275586 -0.0942032267 0.0641039334
-0.0103017935 -0.0969246091 0.0615019760
0.0029864162 0.0994191083 0.0379505660
0.0012237343 0.0998170749 0.0433051358
-0.0069785479 0.0997029866 0.0436737350
-0.0083681545 0.0991557691 0.0371446886
-0.0040212365 0.0995819561 0.0415159653
0.0074996713 0.0994289895 0.0370872683
-0.0020667306 0.0989674022 0.0334150389
-0.0099078021 0.1000574742 0.0515915853
-0.0107996030 0.1000738960 0.0522832477
-0.0053330232 0.0999352417 0.0472638733
-0.0136297117 0.0998457946 0.0487280824
0.0240464895 0.0880512565 0.0010566079
-0.0045015977 -0.0932803418 0.0654988346
-0.0166575212 0.0945336829 0.0604926741
-0.0235568385 0.0873213953 0.0161911129
-0.0238066412 0.0867795555 0.0141422373
-0.0212790927 0.0944679176 0.0304876306
-0.0226536176 0.0920921031 0.0180097930
-0.0232412974 0.0918260709 0.0095205173
-0.0210486062 0.0936310044 0.0074450547
-0.0229041527 0.0843274839 -0.0045449007
-0.0206685700 0.0962667242 0.0220311932
-0.0178093628 0.0986456251 0.0525069373
-0.0125532145 0.0935936832 0.0063293038
-0.0187982771 0.0936616547 0.0070514048
-0.0164493581 -0.0963876162 0.0576711090
-0.0172196139 0.0993052269 0.0412296325
-0.0155676463 0.0993272046 0.0409367024
-0.0182197708 0.0983868044 0.0317304159
-0.0191431133 0.0983120568 0.0357499224
