0.0549058259 -0.1238829260 0.0041133136
0.0549312512 -0.1513477844 0.0046271755
0.0549268778 -0.0561707234 0.0278337253
0.0548902018 -0.0010972243 0.0310728411
0.0548746973 -0.0437144356 0.0154706915
0.0549434094 -0.0822102474 0.0260607270
0.0548826512 -0.0982031873 0.0038113125
0.0548804902 -0.0690043117 0.0106862538
0.0548757816 -0.1091935721 -0.0010690217
0.0548406948 -0.0576752577 0.0017287023
0.0548939170 -0.1039543891 0.0056919660
0.0549037483 -0.0921619531 0.0116626869
0.0549296665 -0.0938918655 0.0189513175
0.0549028726 -0.1052315967 0.0080354392
0.0548390459 -0.0236869163 0.0099899096
0.0548527718 -0.0565321868 0.0056269586
0.0548722068 -0.0068031146 0.0242335559
0.0548924294 -0.0118913013 0.0289576944
0.0548676116 -0.0302067947 0.0168350038
0.0549536728 -0.0815551810 0.0292921033
0.0549057223 -0.1350303429 0.0012115350
0.0548294887 -0.0532686680 -0.0004803966
0.0549387938 -0.0239128452 0.0396971406
0.0548805258 -0.0833728669 0.0069964636
0.0549272830 -0.0462888599 0.0304995984
0.0548139792 -0.0169529651 0.0042440947
0.0549492625 -0.1232240417 0.0172447504
0.0549043226 -0.1520905099 -0.0035997640
0.0549207535 -0.0584401924 0.0254217315
0.0549000493 -0.0801520909 0.0136518496
0.0548798225 -0.0721005275 0.0096896342
0.0548738336 -0.0809963117 0.0056115157
0.0549479664 -0.1244348231 0.0165461811
0.0548002180 -0.0062624266 0.0028908863
0.0549089894 -0.1531535222 -0.0024809184
0.0549485617 -0.0912754161 0.0252635860
0.0548230585 -0.0137380387 0.0077813794
0.0548058150 -0.0044556555 0.0050263857
0.0549653305 -0.0677887746 0.0363161903
0.0548986126 -0.0895766896 0.0107959439
0.0549299553 -0.1664779594 0.0003438903
0.0548624344 -0.0460144428 0.0112190487
0.0549473298 -0.0904076948 0.0251194526
0.0549328755 -0.1705963632 0.0001546607
0.0548350680 -0.0089271685 0.0126040736
0.0547957277 -0.0078713830 0.0011365812
0.0549115833 -0.1293737652 0.0044172661
0.0548753263 -0.0349024068 0.0179278142
0.0549263006 -0.0204304914 0.0368659179
0.0549001918 -0.0129128535 0.0310109773
0.0549085420 -0.1004919661 0.0109478577
0.0548785790 -0.0405483074 0.0174444181
0.0545119100 0.0067205866 0.0537714880
0.0546834946 0.0047824987 0.0578437069
0.0512876043 0.0070582410 -0.0019437400
0.0468515284 -0.0354340820 -0.0145424405
0.0385696694 -0.0785870648 -0.0297700109
0.0447833675 -0.0355372623 -0.0158983845
0.0404464509 -0.0520736129 -0.0224830115
0.0514631391 0.0141984562 -0.0001938257
0.0476018709 -0.0092582526 -0.0080584801
0.0497298599 0.0228212771 0.0187600722
0.0513743271 0.0186181841 0.0264874129
0.0516401846 0.0175248526 0.0128062503
0.0499526446 0.0222930579 0.0212932428
0.0533374244 0.0128117492 0.0072473216
0.0485829375 0.0259021199 0.0187617542
0.0338594125 -0.0756146125 -0.0318161981
0.0339355663 -0.0987016857 -0.0373598264
0.0287817234 -0.1069853656 -0.0420779637
0.0283153862 -0.1206199657 -0.0456212034
0.0281010044 -0.0866521708 -0.0375188190
0.0325002397 -0.0756986052 -0.0325524288
0.0308786534 -0.1090523527 -0.0414733611
0.0464391641 -0.1092831025 -0.0271581084
0.0538275307 -0.0024726232 -0.0021650540
0.0497647083 -0.0451962968 -0.0136295579
0.0481786490 -0.1076673505 -0.0246233766
0.0488889547 -0.0508797832 -0.0155989007
0.0415096572 -0.1238499688 -0.0357629862
0.0473751864 -0.0769646521 -0.0213175929
0.0427591211 -0.1053764301 -0.0314779105
-0.0515426873 -0.1868278818 -0.0192055494
-0.0474874454 -0.1904666202 -0.0277408914
-0.0492816623 -0.1526359781 -0.0244210261
-0.0497823484 -0.1605600540 -0.0232616564
-0.0403597865 0.0370767600 0.0229660325
-0.0362325120 0.0409772568 0.0059647428
-0.0339778505 0.0433921400 0.0248583991
-0.0354762264 0.0417761241 0.0111951155
-0.0207944772 -0.1422176029 0.0719447167
-0.0114253357 -0.1650249586 0.0657455615
-0.0150154172 -0.1085975033 0.0876763465
-0.0139591057 -0.1815646782 0.0581103405
-0.0164322625 -0.1908323947 0.0534775392
-0.0178136716 -0.0986757854 0.0908031066
-0.0157117604 -0.0998865726 0.0910140522
-0.0123681751 -0.1360762271 0.0772991858
-0.0213406810 -0.1630501043 0.0632181271
-0.0157340809 -0.0591888571 0.1076953878
-0.0111559327 -0.1831472897 0.0584048401
-0.0204915984 -0.0805516850 0.0972032835
-0.0180282723 -0.0589877083 0.1069596114
-0.0202937387 -0.0563841763 0.1071227941
-0.0193910223 -0.0562750584 0.1075246508
-0.0216341808 -0.0827821882 0.0958426117
-0.0227285196 -0.1623776550 0.0629975157
-0.0210521343 -0.0266976979 0.1189110444
-0.0186093265 -0.0767037810 0.0995154456
-0.0219701902 -0.0651519612 0.1028887169
0.0306710180 -0.0174144067 0.1179682502
0.0336489602 -0.1321350079 0.0687223322
0.0290775216 -0.1627854851 0.0589733893
0.0328280105 -0.1397867881 0.0660851431
0.0328296196 -0.1013094631 0.0819669319
0.0338430096 -0.1157346308 0.0753689095
0.0320011296 -0.1382862682 0.0672296405
0.0315552410 -0.0858380844 0.0891625528
0.0261864320 -0.1591130311 0.0623252926
0.0321453261 -0.0929134322 0.0858672339
0.0318568844 -0.1698644142 0.0542863005
0.0274282850 -0.1097078598 0.0819303059
0.0291374759 -0.1654152713 0.0578497828
0.0254138122 -0.1791888676 0.0545289645
0.0278677210 -0.0883488531 0.0904678926
0.0263312619 0.0482583843 0.0100619133
0.0256988347 0.0485127199 0.0091367179
0.0166722359 0.0523591782 0.0344646946
0.0262041873 0.0483085174 0.0097030753
0.0245368677 0.0490311316 0.0296890823
0.0189629358 0.0514935105 0.0529089074
0.0193645530 0.0513261410 0.0479455343
0.0285289592 0.0471267396 0.0591538912
0.0219415610 -0.0070160412 -0.0167009490
0.0143453448 -0.0738960867 -0.0377944480
0.0165466173 -0.0655100662 -0.0349515857
0.0115886584 -0.0816848377 -0.0405477395
0.0191175560 -0.0435568191 -0.0280153997
0.0176818210 -0.0506727113 -0.0303591818
0.0182777159 0.0225268453 -0.0082653293
0.0154349995 0.0378400359 -0.0039883466
0.0252330675 0.0265656739 -0.0061800075
0.0237424938 0.0361913716 -0.0034547297
0.0247334460 0.0474845625 0.0000830402
0.0044092769 -0.1142954332 -0.0513584689
0.0140773381 -0.0125727398 -0.0194000327
0.0122893046 -0.0292285748 -0.0246583020
0.0121253755 -0.0654965594 -0.0356448036
0.0153718040 -0.0137304617 -0.0195892633
0.0163568237 -0.0234930722 -0.0224187481
0.0134237299 -0.0121787685 -0.0193621135
0.0127337744 -0.0136033018 -0.0198785605
-0.0405898307 0.0243187177 -0.0030052266
-0.0380569753 0.0340310548 -0.0009493054
-0.0318424827 0.0348177457 -0.0024599051
-0.0367013560 0.0282154272 -0.0029819769
-0.0331788622 0.0133482830 -0.0081942243
-0.0273964004 -0.0471799271 -0.0270261209
-0.0379411768 0.0112476033 -0.0074626910
-0.0226657165 -0.0510383838 -0.0294439852
-0.0318889090 0.0060928360 -0.0106181458
-0.0296520562 -0.0195307470 -0.0185314050
0.0363345373 -0.0184260198 -0.0160704979
0.0379190653 -0.0227355098 -0.0167029129
0.0376115231 -0.0235655318 -0.0170352885
0.0344849589 -0.0092249692 -0.0141932471
0.0371549580 0.0059631782 -0.0091276722
0.0430015642 0.0188915565 -0.0035875824
0.0290043333 -0.0570610578 -0.0291411302
0.0126020685 -0.1244169931 -0.0529483416
0.0164568914 -0.1129561935 -0.0485601752
0.0257291099 -0.0812646066 -0.0368673519
0.0249269924 -0.0649866435 -0.0326321572
0.0292051785 -0.0470718262 -0.0263288766
0.0272350194 -0.0384834547 -0.0245865961
0.0208416563 -0.1017786270 -0.0440815147
0.0299269693 -0.0228317100 -0.0194123429
0.0205357403 -0.0624563053 -0.0331991298
0.0265492003 -0.0008254094 -0.0139237275
0.0186689892 -0.0601623077 -0.0329720337
0.0198026012 -0.0655163955 -0.0342581196
0.0195581379 -0.0758058866 -0.0372980662
0.0188068088 -0.0781369656 -0.0381500048
0.0284283187 0.0355292897 -0.0029448598
0.0258849764 -0.0155324403 -0.0183426409
0.0302291018 0.0013236469 -0.0124376292
0.0509614474 0.0204145596 0.0556938630
0.0536571520 0.0110821141 0.0623419199
0.0524876673 0.0152394311 0.0549742728
0.0534410503 0.0128210760 0.0209022218
0.0476935027 -0.0350763251 -0.0138102374
0.0396665642 -0.1104387110 -0.0353574901
0.0346272024 -0.1250510117 -0.0423777188
0.0375606370 -0.0904397974 -0.0330963829
0.0387301321 -0.1194401541 -0.0379129230
0.0475941667 -0.0532754323 -0.0175128335
-0.0474830099 -0.1253704148 0.0560693167
-0.0453726986 -0.0199158831 0.1026560337
-0.0461192020 -0.0560543026 0.0866474187
-0.0471574632 -0.1232063765 0.0575545647
-0.0530129430 -0.0856142659 -0.0118468217
-0.0513347861 -0.0932988387 -0.0172493908
-0.0534265571 -0.0323825129 -0.0064727227
-0.0536520378 -0.0310150113 -0.0057204442
-0.0520602110 -0.1092509943 -0.0164317057
-0.0529778197 -0.0836796102 -0.0117948888
-0.0549065401 -0.0508992683 0.0015632669
-0.0547250465 -0.1590573563 -0.0034891545
-0.0548614456 -0.1314333893 -0.0003085144
-0.0547571141 -0.0440068991 -0.0014943190
-0.0549462468 -0.0769799376 0.0020971867
-0.0548298636 -0.1752014771 -0.0014742841
-0.0546845107 -0.1291876880 -0.0039969518
-0.0548979826 -0.1104349612 0.0006996981
-0.0548433652 -0.0271745752 0.0005096376
-0.0547879983 -0.0913843155 -0.0013902556
-0.0546673660 -0.1823336613 -0.0049673806
-0.0517083944 0.0028880420 -0.0026709890
-0.0462934048 -0.0317015027 -0.0141314239
-0.0507518294 -0.0067602520 -0.0054164288
-0.0532267071 0.0094040323 -0.0001061070
-0.0188861357 -0.0629686228 -0.0336962071
-0.0194451284 -0.0698427197 -0.0356418819
-0.0195804503 -0.0417325542 -0.0272842286
-0.0159823653 -0.0980651086 -0.0445842155
-0.0230017870 -0.0144683357 -0.0186328767
-0.0208439463 -0.0367364337 -0.0255933995
-0.0085600853 -0.1164526102 -0.0512664549
-0.0202459018 -0.0613579963 -0.0329932916
-0.0191304454 0.0284700752 -0.0063868427
-0.0165442913 0.0105861184 -0.0121247085
-0.0207691577 0.0169547844 -0.0095842790
-0.0178812235 -0.0297833920 -0.0239972915
-0.0238543833 0.0376475757 -0.0029312534
-0.0218786956 0.0213990095 -0.0080881530
-0.0114251051 -0.0547951358 -0.0324492257
-0.0182199655 -0.0139019474 -0.0191964899
-0.0097760689 -0.0504471194 -0.0313969363
-0.0137832922 -0.0078147107 -0.0180434684
-0.0228312532 0.0043314551 -0.0130494048
-0.0216515410 0.0027324362 -0.0137051431
-0.0233210507 0.0495178251 0.0135298153
-0.0253132331 0.0487073388 0.0359664426
-0.0213827187 0.0508735159 0.0587313858
-0.0301383118 0.0459861296 0.0006894714
-0.0276337775 0.0473969623 0.0188049845
-0.0134217471 0.0530714299 0.0520381410
-0.0187333815 0.0518242501 0.0185604616
-0.0178469203 0.0521290070 0.0030777329
-0.0130842567 0.0531111749 0.0041898763
-0.0122586908 0.0534214302 0.0307723523
-0.0084791388 0.0543057954 0.0540797825
-0.0133000997 0.0531963509 0.0277638058
-0.0113086850 0.0536524095 0.0382259691
-0.0530638464 0.0132588936 0.0270406498
-0.0525271516 0.0153380135 0.0182211912
-0.0524007957 0.0158272148 0.0240634632
-0.0543479172 0.0082861825 0.0023251442
0.0543988257 -0.0650216191 -0.0045368464
0.0540793098 -0.1125105229 -0.0084401983
0.0547996396 -0.1229825267 -0.0035938890
0.0540436488 -0.1035662182 -0.0083966930
0.0539195289 -0.1408056625 -0.0105451161
0.0541626969 -0.1033683523 -0.0075308759
0.0539995930 -0.1267363706 -0.0094940370
0.0547498926 -0.0695434504 -0.0021553279
0.0549174661 -0.1756630157 -0.0045156080
0.0041202025 -0.1495532054 0.0729963435
0.0015982612 -0.0611532734 0.1089778943
0.0044651637 -0.1094201954 0.0893161456
0.0009882605 -0.0631088251 0.1081888920
0.0060183163 -0.0470168786 0.1146813668
0.0056279175 -0.0741058527 0.1036674779
0.0028479535 -0.0544747437 0.1116811915
0.0038460301 -0.1553766273 0.0706306364
-0.0018721206 -0.1867181610 0.0575377990
-0.0043768370 -0.1932131050 0.0547603673
-0.0031576625 -0.1759447740 0.0618912794
-0.0020046601 -0.1779215036 0.0611352341
0.0032441837 -0.1837090842 0.0590089344
-0.0038003615 -0.1183022521 0.0854749877
-0.0012976133 -0.1475559817 0.0736076341
-0.0024520587 -0.1259144057 0.0824194536
-0.0021220715 -0.0783737001 0.1019102146
-0.0069128461 -0.1117180490 0.0880271947
-0.0053147420 -0.0771323678 0.1022699402
-0.0052314757 -0.1164577716 0.0861638947
0.0021929374 -0.1497162597 0.0728853387
-0.0015202436 -0.1517475422 0.0718801564
0.0361682243 -0.0658186119 0.0940585167
0.0359623327 -0.0380589051 0.1055573263
0.0339968436 -0.0666463820 0.0953550855
0.0362722446 -0.1652034840 0.0533673242
0.0352948497 -0.0763057482 0.0904305908
0.0337399446 -0.0382670827 0.1071454904
0.0339325112 -0.0376303040 0.1072607220
0.0500486933 -0.1645287200 0.0336896596
0.0471403010 -0.1111415675 0.0621596373
0.0502748303 -0.1506152047 0.0386953832
0.0467848209 -0.0167599910 0.1007505046
0.0488526350 -0.1586230473 0.0389837147
0.0492942308 -0.0884958834 0.0659262844
0.0483823836 -0.1092160610 0.0598823574
0.0514787716 -0.1549696436 0.0340019303
0.0507175336 -0.1286262844 0.0463971505
0.0493125047 -0.1499684844 0.0413143981
0.0489780733 -0.1500552877 0.0421000587
0.0504844754 -0.1578185193 0.0353023794
0.0459224410 -0.0774628159 0.0784755983
0.0465629024 -0.0394766161 0.0922156167
0.0471526358 -0.1232527498 0.0572791452
0.0456028610 -0.0500090862 0.0902167475
0.0426939817 -0.0183762627 0.1071327496
0.0382939095 -0.0584103460 0.0953068434
0.0393184087 -0.0261311932 0.1074778365
0.0379292871 -0.0374518545 0.1042851143
0.0408284862 -0.0251987397 0.1062828616
0.0389131714 -0.0572161758 0.0951498022
0.0399133903 -0.0563192419 0.0944728717
-0.0144100929 0.0107861368 0.1267622660
-0.0256800537 -0.1531222549 0.0652166784
-0.0336243768 -0.0253635735 0.1124194588
-0.0284823277 -0.1118761837 0.0803025120
-0.0288753606 -0.1163031934 0.0782355457
-0.0240168741 -0.1771882935 0.0564326271
-0.0284704815 -0.0537932962 0.1041009308
-0.0277154923 -0.1384464056 0.0699142504
-0.0282485757 -0.0253889113 0.1158785948
-0.0286270281 -0.0713658847 0.0968021573
-0.0326947090 -0.0665431030 0.0961523103
0.0018246504 -0.0684401435 -0.0373745388
0.0044655229 -0.0004014280 -0.0163679609
0.0010727796 -0.0379356574 -0.0280229502
0.0062416278 -0.0624891748 -0.0353934089
0.0036000957 -0.0117078152 -0.0198733997
0.0035168199 -0.0988777569 -0.0466732679
0.0068051433 0.0205779745 -0.0098382870
0.0080940229 0.0461293781 -0.0019392252
0.0029967571 -0.0229734149 -0.0233572965
0.0094085560 0.0382075657 -0.0043293201
0.0064112666 -0.0303851682 -0.0255184534
0.0038357451 0.0093768269 -0.0133836515
0.0001557516 0.0060408585 -0.0145355838
0.0480149035 0.0271484889 0.0135777017
0.0458195016 0.0304380192 0.0449116174
0.0477453113 0.0277384937 0.0040701352
0.0519825805 0.0019508503 0.0801298757
0.0499582000 0.0165509219 0.0771626726
0.0256792245 -0.1606269385 -0.0485299741
0.0281044922 -0.1691044580 -0.0472556115
0.0283666837 -0.1428002447 -0.0470126481
0.0425406814 -0.1754414298 -0.0345570833
0.0404737104 -0.1309733325 -0.0372654128
0.0405190241 -0.1508958640 -0.0370876747
0.0412359889 -0.1572915518 -0.0362046458
0.0465481104 -0.1249993951 -0.0290538197
0.0410154551 -0.1311375079 -0.0365416702
0.0445047039 -0.1354719404 -0.0318849769
0.0455599316 -0.1557808860 -0.0306286339
0.0366556592 -0.1758001815 -0.0410339813
0.0343042886 -0.1515179815 -0.0428875680
0.0341153711 -0.1537174193 -0.0430614964
0.0370116714 -0.1296207236 -0.0404529698
-0.0500248530 -0.0801632105 0.0653731207
-0.0516264922 -0.0672976512 0.0613019537
-0.0513652324 -0.0389021599 0.0712564254
-0.0506805495 -0.0185131051 0.0808841633
-0.0494908003 -0.0461946543 0.0783864927
-0.0488587360 -0.0540129934 0.0791580055
-0.0502147840 -0.0287282973 0.0800957592
-0.0524038820 -0.1112928170 0.0440198175
-0.0520852660 -0.0877385583 0.0527855106
-0.0494727903 -0.0567798891 0.0752514348
-0.0537447612 -0.1158827907 0.0359315922
-0.0509612771 -0.0905496998 0.0575368052
-0.0525872609 -0.0728119138 0.0548285586
-0.0518441351 -0.1183536986 0.0446612965
-0.0510414446 -0.0041556849 0.0834577576
-0.0500588488 -0.0118499085 0.0860159349
-0.0536401225 -0.1095036404 0.0383971304
-0.0516693222 -0.0563244259 0.0644313865
-0.0523414413 -0.0905503264 0.0506507785
-0.0537872606 -0.1539447653 0.0241235433
-0.0516787496 -0.1116339965 0.0475336622
-0.0482342539 -0.0364705959 0.0876181266
-0.0497708162 -0.0516615374 0.0753239054
-0.0533240452 -0.1272994860 0.0345523783
-0.0545411776 -0.0772062806 0.0412180550
-0.0531835140 -0.0147089210 0.0675451101
-0.0541511691 -0.0596568657 0.0486703964
-0.0549470689 -0.0544025400 0.0446974809
-0.0527106208 -0.0376838488 0.0644743179
-0.0550606127 -0.1488327923 0.0180915909
-0.0533436247 -0.0001951159 0.0704273640
-0.0539138277 -0.1074683231 0.0372036374
-0.0538859139 -0.0332877744 0.0576875566
-0.0549902028 -0.1438064745 0.0199453148
-0.0542320342 0.0036880223 0.0654504575
-0.0549611305 -0.1246392678 0.0253866691
-0.0532691886 0.0010287589 0.0712681924
-0.0520711340 -0.0134997478 0.0754376713
-0.0545304749 -0.1123912455 0.0316649773
-0.0542998979 -0.0783112389 0.0425559384
-0.0539932556 -0.0766265361 0.0451013355
-0.0543881036 -0.0557605239 0.0481257114
-0.0531535373 -0.1801470896 -0.0136276385
-0.0531699643 -0.1402456565 -0.0139968275
-0.0532428745 -0.1397596054 -0.0137198797
-0.0529822461 -0.1774468809 -0.0143199570
-0.0379451449 -0.0637573097 0.0934458526
-0.0414119246 -0.0696753741 0.0875061035
-0.0422327473 -0.0460508822 0.0963416723
-0.0400558876 -0.1100238922 0.0723692139
-0.0384587403 -0.0540750960 0.0968872080
-0.0412515371 -0.0597876046 0.0917154755
-0.0379506444 -0.0660415232 0.0925054448
-0.0375259140 -0.0885617178 0.0837199005
-0.0529129174 -0.1193524843 -0.0147414598
-0.0527488653 -0.1297060672 -0.0153103997
-0.0505162842 -0.1232549521 -0.0218018582
-0.0539584024 -0.1279710096 -0.0099227206
-0.0541556129 -0.0857082745 -0.0071499385
-0.0538062313 -0.1258755805 -0.0109146902
-0.0543121742 -0.0818478406 -0.0059304203
-0.0543650671 -0.0632578510 -0.0049468625
-0.0536353513 -0.1034609228 -0.0113652818
-0.0542682113 -0.1483943630 -0.0084373838
-0.0543514828 -0.1773536483 -0.0088141808
-0.0549880961 -0.0877024520 0.0075945939
-0.0549569405 -0.0392388251 0.0404535944
-0.0549735420 -0.0563523056 0.0328691760
-0.0548721727 -0.0116145858 0.0110942952
-0.0549870820 -0.0751897135 0.0211234679
-0.0549049861 -0.0147558874 0.0310636749
-0.0550435951 -0.1157154768 0.0155063225
-0.0550016571 -0.0794410820 0.0267393845
-0.0550505909 -0.1183590804 0.0175148475
-0.0549933985 -0.0666679167 0.0353659107
-0.0549210010 -0.0252996811 0.0305434674
-0.0548446242 -0.0027178537 0.0014607553
-0.0549516878 -0.0400652216 0.0357424590
-0.0549107653 -0.0240241636 0.0246511395
-0.0550236152 -0.1048680688 0.0135269133
-0.0551103828 -0.1664881563 0.0055877853
-0.0549466183 -0.0662205747 0.0023038314
-0.0549199275 -0.0088538636 0.0485108481
-0.0548939916 -0.0184347214 0.0189819255
-0.0549334468 -0.0213127526 0.0440177750
-0.0550710477 -0.1413621442 0.0059867299
-0.0550283234 -0.0937719562 0.0295483189
-0.0549688205 -0.0714210253 0.0123119975
-0.0549672677 -0.0537869793 0.0312892419
-0.0549837365 -0.0601660101 0.0358400595
-0.0550387676 -0.1215383421 0.0054075338
-0.0548872864 -0.0219147086 0.0102049954
-0.0549802633 -0.0800475998 0.0106950881
-0.0549273238 -0.0177349937 0.0436999485
-0.0550018602 -0.0928193240 0.0116424166
-0.0550453851 -0.1040716554 0.0300574607
-0.0550823315 -0.1375089166 0.0184747384
-0.0549879264 -0.0787053005 0.0177239030
-0.0549039387 0.0003185115 0.0474872213
-0.0550338266 -0.1089121458 0.0162474426
-0.0550275008 -0.0899294032 0.0333360264
-0.0549075072 -0.0348978162 0.0099238814
-0.0549345853 -0.0485966004 0.0137485659
-0.0550035108 -0.0937788888 0.0117336489
-0.0549112165 -0.0376521841 0.0094476500
-0.0551430296 -0.1858132025 0.0069983822
-0.0549481827 -0.0363409696 0.0374703248
-0.0549399079 -0.0584620495 0.0063279325
-0.0549899527 -0.0666634927 0.0328980342
-0.0549915031 -0.0934233752 0.0035214593
-0.0549411102 -0.0434568569 0.0242871333
-0.0550425870 -0.1199136314 0.0099996582
-0.0550454103 -0.1046701915 0.0293935864
-0.0550485247 -0.1263315894 0.0069483977
-0.0549028341 -0.0217635015 0.0215350070
-0.0550444647 -0.1171261005 0.0145231894
-0.0399267787 -0.0695051114 -0.0268241537
-0.0346182014 -0.0866091433 -0.0342493865
-0.0425862615 -0.0382745734 -0.0182257315
-0.0361114900 -0.0741974806 -0.0305245161
-0.0341696652 -0.1184869106 -0.0414281757
-0.0393257356 -0.0560781890 -0.0243574615
-0.0409958703 -0.0439182556 -0.0205620860
-0.0408157207 0.0353152573 0.0686135721
-0.0098854999 0.0336088951 -0.0056649664
-0.0038904774 -0.0761546950 -0.0396550114
-0.0092306579 0.0338105562 -0.0056438748
-0.0046478154 -0.1082131160 -0.0494266241
-0.0079460905 0.0258812927 -0.0081521831
-0.0108805258 0.0240081229 -0.0085436298
-0.0095886822 0.0164292605 -0.0109450714
-0.0086205285 -0.0105050955 -0.0192544870
-0.0058541665 -0.0938769236 -0.0449609001
-0.0068719528 0.0401597367 -0.0038457856
-0.0095053459 -0.0401975708 -0.0282935550
-0.0048564799 -0.0895683091 -0.0437032505
0.0014256857 -0.1114747985 -0.0505477499
-0.0004014061 -0.0156668738 -0.0212157380
0.0006503971 -0.0463539200 -0.0306147885
-0.0018868805 -0.0131046013 -0.0204187308
-0.0026031797 -0.0791958614 -0.0406355802
-0.0026180261 -0.0761882203 -0.0397151494
-0.0169644752 0.0487116855 0.0829853211
-0.0183746866 0.0477631724 0.0856882202
-0.0226174376 0.0495517343 0.0678746142
-0.0329625047 0.0436474722 0.0645185661
-0.0275106962 0.0472745138 0.0488335935
-0.0335668833 0.0433827650 0.0556519943
-0.0267870357 0.0478655553 0.0380197806
-0.0343470285 0.0430373322 0.0441601118
-0.0322981714 0.0446480299 0.0185175128
0.0050190650 0.0546700647 0.0415002969
0.0079129776 0.0542866938 0.0322961999
0.0083238799 0.0541105797 0.0131061838
0.0071132612 0.0543021040 0.0215342848
0.0144894810 0.0531475904 0.0366537128
0.0152013105 0.0529303760 0.0615343346
0.0118478226 0.0535903862 0.0431311925
0.0102064948 0.0538426951 0.0533599482
0.0527667284 -0.1628725005 -0.0153369105
0.0532847785 -0.1593963195 -0.0131183815
0.0527633218 -0.1535776976 -0.0155651893
0.0521174862 -0.1932171607 -0.0175212559
0.0517214456 -0.0752180924 -0.0141159299
0.0531809784 -0.0775943591 -0.0106233991
0.0528632280 -0.1146738159 -0.0145504617
0.0535076711 -0.0799731461 -0.0099972140
0.0524831860 -0.0537726250 -0.0103823786
0.0517899354 -0.0855434339 -0.0148123341
0.0532479959 -0.1077825224 -0.0129965406
0.0503796179 -0.1153128888 -0.0208879284
0.0086738107 -0.1587459725 0.0685524713
0.0066508686 -0.1858645105 0.0579637653
0.0195224616 -0.0933529701 0.0925356412
0.0165623140 -0.0801572823 0.0987121697
0.0152922762 -0.1713393523 0.0616729487
0.0102296065 -0.1683116300 0.0642282534
0.0156103721 -0.1307005546 0.0782452785
0.0204090277 -0.1044799448 0.0877453089
0.0197869450 -0.1620426781 0.0643160018
0.0200320024 -0.1280414758 0.0781870224
0.0135886021 -0.1059015006 0.0889335541
0.0211333256 -0.1740339304 0.0590520792
0.0161044196 -0.0612571889 0.1065768449
0.0116438867 -0.0699196902 0.1040837960
0.0077861397 -0.1590205012 0.0686563337
0.0145802443 -0.0390723212 0.1159810401
0.0121750026 -0.0909810578 0.0953778280
0.0136432870 -0.0799649209 0.0995300655
0.0072859118 -0.1547566249 0.0705091381
0.0060870636 -0.1174471602 0.0859907627
0.0101748164 -0.0756324946 0.1020931896
0.0068193621 -0.0528953693 0.1121314356
0.0109553683 -0.0868862203 0.0973271254
0.0081993881 -0.0264690212 0.1225846195
-0.0022126072 -0.0135993829 0.1277475200
0.0258013417 -0.0412561453 0.1107259624
0.0209881035 -0.1345020061 0.0752696586
0.0252089691 -0.0342597335 0.1138628601
0.0277902137 -0.0339734164 0.1126890762
0.0208234796 -0.0613126256 0.1050699767
0.0249169302 -0.0984885080 0.0879291627
0.0219405395 -0.0778611580 0.0977922809
0.0269882986 -0.0805967660 0.0941587635
0.0224088270 -0.0513736564 0.1083133100
0.0256401222 -0.0552141477 0.1051389852
0.0234258287 -0.0245444264 0.1186988621
0.0454488356 -0.1887425635 0.0326103734
0.0417079756 -0.1401696983 0.0576718408
0.0421137216 -0.0893790429 0.0784498729
0.0420247565 -0.1011166158 0.0736420936
0.0451793158 -0.1652815800 0.0427825167
0.0410332645 -0.1216209314 0.0662944981
0.0413550930 -0.1580850108 0.0506065458
0.0454618045 -0.1877173718 0.0330237626
0.0465489729 -0.1928809520 0.0294927720
0.0440969232 -0.0250214229 0.1029311603
0.0385738535 -0.1844729405 0.0430429405
0.0416652580 -0.1523959500 0.0526010983
0.0433656386 -0.0452286139 0.0953809752
0.0458909833 -0.1712382881 0.0393911670
0.0543453758 -0.1648814588 0.0120742004
0.0544935854 -0.1730538505 0.0074988987
0.0546415600 -0.0802718018 0.0367935566
0.0547320305 -0.0408791386 0.0488892164
0.0546210362 -0.1036022693 0.0292208458
0.0547534887 -0.0720055097 0.0381818030
0.0542469587 -0.1115222493 0.0311922083
0.0548985108 -0.0488692877 0.0441489977
0.0548562917 -0.0408482636 0.0473621543
0.0542002150 -0.1134198733 0.0311339507
0.0547204861 -0.1403160360 0.0156740844
0.0546942512 -0.0857343446 0.0343091237
0.0547789601 -0.1939920654 -0.0030560111
0.0546682605 -0.0880090036 0.0338676159
0.0546035638 -0.0783409192 0.0379114146
0.0539607373 -0.0205976469 0.0604630847
0.0526941398 -0.0566727661 0.0585043008
0.0532938131 -0.0927809595 0.0439681962
0.0536511764 -0.0475668484 0.0547068819
0.0533910936 -0.1235879804 0.0343564927
0.0529218525 -0.0590464658 0.0562807431
0.0546799075 -0.0295534484 0.0530163582
0.0546914522 -0.0001585916 0.0614846576
0.0522422081 -0.0088934532 0.0754386693
0.0533649818 -0.1637209011 0.0228643854
0.0545982396 -0.0422592189 0.0498723387
0.0526910572 0.0015802781 0.0754611175
0.0531235958 -0.0521880693 0.0569161374
0.0522349038 -0.0489730212 0.0638354210
0.0529512030 -0.0106940992 0.0701407015
0.0520473402 -0.0052343207 0.0778147640
0.0525776090 -0.0461672845 0.0623433202
0.0542221638 -0.0494501689 0.0503142376
-0.0068012191 -0.0009439122 0.1288905192
-0.0495691067 -0.1222475567 0.0509735132
-0.0491385783 -0.1172967235 0.0542854958
-0.0494800602 -0.1331163566 0.0470674686
-0.0521904143 -0.1522682789 0.0308556510
-0.0502856492 -0.1142941269 0.0517124837
-0.0535171927 -0.1921335556 0.0111493195
-0.0503343856 -0.0950050968 0.0590002090
-0.0519481800 -0.1890328529 0.0174512728
-0.0503241887 -0.1929550192 0.0212210124
-0.0469356647 -0.0388778102 0.0917255960
-0.0502397060 -0.1851078602 0.0245251867
-0.0503497538 -0.1018161062 0.0563208997
-0.0473554914 -0.0875040473 0.0715880754
-0.0480213998 -0.1382507257 0.0498313287
-0.0486302513 -0.1581277420 0.0401770799
-0.0521192511 -0.1563425785 0.0295143551
-0.0479881245 -0.1104885766 0.0606568328
-0.0508718101 -0.1864379300 0.0219551054
-0.0179013764 0.0003568003 0.1265521854
-0.0350371022 -0.1472376198 0.0614586287
-0.0342928774 -0.1630300458 0.0554638970
-0.0294541028 -0.1637187108 0.0583831518
-0.0325557671 -0.1712527498 0.0532357265
-0.0313799174 -0.0983873945 0.0839456028
-0.0335192391 -0.1809988830 0.0485946008
-0.0288564211 -0.1294332235 0.0728625208
-0.0329264268 -0.1442596049 0.0640787192
-0.0315869041 -0.1560284754 0.0601307385
-0.0359195763 -0.1002187176 0.0801891288
-0.0262271978 -0.1913520803 0.0491673381
-0.0344462805 -0.0498679564 0.1018472676
-0.0272900555 -0.1526994457 0.0643417586
-0.0023100639 -0.1926842198 -0.0548355742
-0.0086710847 -0.1878375802 -0.0541062138
-0.0074239226 -0.1775332741 -0.0542779930
-0.0070746732 -0.1819656996 -0.0543073848
0.0521521816 -0.1544661311 0.0320473661
0.0507959640 -0.0512986942 0.0703104546
0.0513414941 -0.1068190318 0.0506340573
0.0495228164 -0.0786360218 0.0682767850
0.0513769610 -0.0343121524 0.0726172188
0.0509358443 -0.0674378237 0.0646835891
0.0505031760 -0.1088594053 0.0541726523
0.0519540499 -0.0236645168 0.0730061163
0.0492059597 -0.0519072247 0.0780186905
0.0513224781 -0.0699539206 0.0619950320
0.0495979341 -0.0669560520 0.0714734168
0.0523917826 -0.1443531854 0.0339484476
0.0480827461 -0.0288795582 0.0906329541
0.0494655653 -0.0714762123 0.0707491822
0.0508717435 -0.0707860301 0.0639785783
0.0523709311 -0.0921156091 0.0500166044
0.0494303904 -0.0852928404 0.0667012412
0.0481557460 -0.0345853922 0.0885267234
0.0506581037 -0.0494022503 0.0715745007
0.0504460824 -0.0457220521 0.0737518922
0.0464726848 -0.0080373787 0.1049964478
0.0517826369 -0.0665602785 0.0607475403
0.0519558217 -0.1046883566 0.0482351499
0.0444486385 0.0321846971 0.0266216266
0.0440281730 0.0328664296 0.0492894872
0.0418059557 0.0353714661 0.0045601036
0.0418088454 0.0353455728 0.0012264139
0.0387914602 0.0388068632 0.0391531352
0.0372963654 0.0403114967 0.0570647360
0.0379181137 0.0396545072 0.0537305419
0.0337871737 0.0431979205 0.0332455653
0.0332184445 0.0436300915 0.0258406209
0.0349456379 0.0423002044 0.0437998988
0.0361344897 0.0413866204 0.0566287319
-0.0438627000 -0.0330744804 0.0998028924
-0.0466977594 -0.1862884618 0.0318562974
-0.0439242554 -0.0478812626 0.0935125191
-0.0431461709 -0.1314490859 0.0594730242
-0.0418164461 -0.1367947807 0.0589589705
-0.0429578750 -0.1459136410 0.0536508913
-0.0430349091 -0.1606256601 0.0473801485
-0.0428465920 -0.0572127436 0.0909991423
-0.0410494420 -0.1093143250 0.0714818211
-0.0408628447 -0.1578133013 0.0513824954
-0.0456356627 -0.1136527638 0.0637020115
-0.0447375363 -0.1588588482 0.0459085034
-0.0407865577 -0.1313080088 0.0625986951
-0.0433115729 -0.0390246741 0.0980234475
-0.0430509360 -0.1869666854 0.0363111597
-0.0487024874 -0.0434808682 -0.0143859765
-0.0478381184 -0.0445100047 -0.0154252153
-0.0383292888 -0.1227885348 -0.0388194106
-0.0478966744 -0.0610695112 -0.0183255627
-0.0456072616 -0.0884293433 -0.0254789196
-0.0364110950 -0.1256107192 -0.0412218455
-0.0412030181 0.0362351918 0.0246726382
-0.0443502944 0.0326573755 0.0294552744
-0.0445038410 0.0322789229 0.0589651411
-0.0011896137 0.0551563570 0.0167600425
-0.0009213597 0.0548335267 0.0618147355
-0.0011717233 0.0550311577 0.0337106061
0.0516756721 -0.1653665426 -0.0188112571
0.0528719048 -0.1331629945 -0.0151522438
0.0512259570 -0.1445584045 -0.0196148597
0.0497421957 -0.1255053486 -0.0231281377
0.0524243747 -0.1555278623 -0.0167004238
-0.0084695054 -0.1003863396 0.0924183714
-0.0097432721 -0.0394830144 0.1169042397
-0.0087029103 -0.0667992805 0.1059948312
-0.0074173987 -0.0777321750 0.1017636984
-0.0059956268 -0.0436353712 0.1158041995
-0.0112922830 -0.0594647746 0.1085647450
-0.0054593318 -0.0359295088 0.1190107833
-0.0054552762 -0.0547290954 0.1113919819
-0.0137329035 -0.0628260007 0.1068228381
-0.0068009789 -0.0330191161 0.1199816821
0.0155072636 0.0132894095 0.1254390769
0.0293948561 -0.0106219997 0.1206078345
0.0417129887 0.0015666408 0.1120107631
-0.0184947310 -0.0007345475 0.1264524998
-0.0213563391 0.0079893400 0.1247329673
-0.0004717827 -0.1499798725 -0.0549559995
-0.0007302111 -0.1267127232 -0.0548816545
0.0481527881 0.0038907961 0.0979139378
0.0500429602 0.0043205093 0.0888564268
0.0329306472 -0.1546508276 -0.0439901829
0.0326784214 -0.1775896006 -0.0440788309
0.0328236729 -0.1836370121 -0.0439456899
0.0484361244 -0.1797208021 -0.0257167721
0.0498934047 -0.1928983591 -0.0227172424
0.0482341091 -0.1825583990 -0.0260688652
0.0514757029 -0.1887980139 -0.0197118525
-0.0489990676 0.0031132726 0.0944168885
-0.0301449765 -0.0509699431 -0.0270737717
-0.0243848886 -0.0713095615 -0.0347138015
-0.0236143895 -0.0831923859 -0.0381212459
-0.0237770014 -0.1087677742 -0.0447139618
-0.0323924350 -0.0294219909 -0.0205487634
-0.0187315745 -0.1245566289 -0.0508782741
-0.0381053575 -0.0095309601 -0.0130447257
-0.0344013828 -0.0194412462 -0.0171325070
-0.0324358264 -0.0515661309 -0.0262966297
-0.0264900246 -0.1260670678 -0.0481138762
-0.0220689301 -0.1060106297 -0.0446912807
-0.0427895689 -0.0270597472 -0.0154746865
-0.0446806293 0.0183266453 -0.0030131073
-0.0477368503 0.0036801135 -0.0053751293
-0.0437091359 -0.0211987626 -0.0135597917
-0.0365038462 -0.0432414609 -0.0224573671
-0.0434384657 0.0114416095 -0.0053358660
-0.0115338914 -0.1940000057 -0.0462908498
0.0323894548 -0.1940000057 -0.0291563275
-0.0047296726 -0.1940000057 -0.0468589368
-0.0080019855 -0.1940000057 -0.0489516841
0.0055943688 -0.1940000057 0.0236312086
0.0070909329 -0.1940000057 0.0304409274
0.0009501977 -0.1940000057 0.0313994471
0.0157323012 -0.1940000057 0.0220340019
0.0052781030 -0.1940000057 0.0289500679
0.0255797934 -0.1940000057 0.0450799371
0.0282017213 -0.1940000057 0.0404919525
0.0329229479 -0.1940000057 0.0293155081
0.0356104708 -0.1940000057 0.0206373139
0.0313077758 -0.1940000057 0.0161956820
0.0119788295 -0.1940000057 0.0525808886
0.0395716273 -0.1940000057 0.0068079865
0.0283534833 -0.1940000057 0.0251934345
0.0441023541 -0.1940000057 -0.0086421062
0.0150899490 -0.1940000057 0.0316728637
0.0175135917 -0.1940000057 0.0216165673
0.0036899693 -0.1940000057 0.0408100346
0.0143604988 -0.1940000057 0.0338418287
-0.0083681495 -0.1940000057 -0.0191274386
-0.0092986393 -0.1940000057 -0.0363598630
0.0348476153 -0.1940000057 -0.0228982578
-0.0326256935 -0.1940000057 -0.0234516079
-0.0305760679 -0.1940000057 -0.0231509413
-0.0042539457 -0.1940000057 -0.0182710553
-0.0428010737 -0.1940000057 -0.0103603727
0.0038835089 -0.1940000057 -0.0196690467
-0.0218681918 -0.1940000057 -0.0239026211
-0.0315475244 -0.1940000057 -0.0148836251
-0.0019109394 -0.1940000057 -0.0251410584
-0.0261906716 -0.1940000057 -0.0190182281
-0.0018963700 -0.1940000057 -0.0144693819
-0.0439360140 -0.1940000057 -0.0102169438
-0.0090642359 -0.1940000057 -0.0168756853
-0.0042328611 -0.1940000057 -0.0392249616
-0.0066459301 -0.1940000057 -0.0272545413
0.0238859793 -0.1940000057 -0.0135560745
-0.0140605248 -0.1940000057 0.0279176227
0.0270260190 -0.1940000057 -0.0088794044
-0.0031257270 -0.1940000057 0.0028762855
0.0082862462 -0.1940000057 -0.0120414010
0.0396304455 -0.1940000057 -0.0175798118
-0.0328403401 -0.1940000057 0.0067794765
-0.0343412428 -0.1940000057 0.0144054776
-0.0162082859 -0.1940000057 0.0235544607
-0.0309813062 -0.1940000057 0.0111978904
0.0052301226 -0.1940000057 0.0159412597
-0.0410526796 -0.1940000057 -0.0062335931
-0.0272756433 -0.1940000057 0.0330544626
-0.0064940087 -0.1940000057 -0.0118697545
-0.0040137592 -0.1940000057 0.0121311951
-0.0326727873 -0.1940000057 0.0266908030
-0.0445178763 -0.1940000057 0.0076460956
-0.0422535727 -0.1940000057 -0.0032901793
0.0149197873 -0.1940000057 0.0121035793
-0.0435217683 -0.1940000057 0.0103225491
-0.0244917783 -0.1940000057 0.0221961079
0.0079219754 -0.1940000057 0.0058603062
0.0016318454 -0.1940000057 0.0258189885
0.0365536563 -0.1940000057 -0.0163802013
-0.0272815706 -0.1940000057 0.0340597593
-0.0115352261 -0.1940000057 -0.0050793262
-0.0223500675 -0.1940000057 0.0417305984
-0.0208561907 -0.1940000057 0.0134994645
-0.0383964634 -0.1940000057 0.0366091426
-0.0425720162 -0.1940000057 0.0168503130
0.0242284318 -0.1940000057 -0.0457281949
0.0500709537 -0.1940000057 0.0191839942
0.0415269014 -0.1940000057 0.0342989515
0.0385196279 -0.1940000057 0.0350671929
-0.0000462097 -0.1940000057 -0.0503612511
0.0077870874 -0.1940000057 -0.0462181036
0.0065916006 -0.1940000057 -0.0517086493
0.0134053312 -0.1940000057 -0.0508103960
0.0524035188 -0.1940006116 -0.0162099478
-0.0491821379 0.0187242074 0.0763873731
-0.0496922968 0.0232041719 0.0594015008
-0.0463959800 0.0292809487 0.0563703380
-0.0500916732 0.0225367635 0.0162973321
-0.0461510095 0.0296109636 0.0315687409
-0.0456891407 0.0304854276 0.0419347972
-0.0490358670 0.0244544317 0.0202548074
-0.0464884886 0.0289485414 0.0198888535
-0.0447340656 0.0273762642 0.0775717823
-0.0443016983 0.0227244842 0.0914328990
-0.0469022196 0.0229668285 0.0802555033
-0.0228134183 -0.1318051267 -0.0496859991
-0.0165917039 -0.1284994957 -0.0522297529
-0.0226196366 -0.1558787370 -0.0498509469
-0.0263145089 -0.1509217276 -0.0483157590
-0.0226132748 0.0483995382 0.0738469029
-0.0117675365 0.0524885220 0.0702109042
-0.0039551820 0.0528033140 0.0754997315
-0.0474668376 0.0111880707 0.0960170489
-0.0512145012 0.0132637525 0.0757676646
-0.0545803441 0.0073098127 0.0081219965
-0.0531872189 0.0120403845 0.0604961092
-0.0520781031 0.0169618723 0.0529403149
-0.0536204220 0.0105654383 0.0443778661
-0.0536888463 0.0102133788 0.0469090705
0.0113412314 0.0053907623 0.1277925983
0.0191401973 0.0042127994 0.1261373213
0.0163513222 -0.0137027516 0.1253646324
0.0028188656 0.0069821844 0.1289955159
-0.0351408478 0.0070364023 0.1174778553
0.0075078233 0.0130394174 0.1275058130
-0.0216705871 -0.0076557623 0.1243010668
0.0098935081 -0.1707855061 -0.0538194165
0.0042856690 -0.1379561562 -0.0547253743
0.0123123565 -0.1746619626 -0.0534700989
0.0088849636 -0.1804260346 -0.0539196915
0.0070732530 -0.1730472803 -0.0541993683
0.0089302089 -0.1370864635 -0.0540890357
0.0093598337 -0.1524444372 -0.0539672211
-0.0051151679 -0.1349127370 -0.0546437998
-0.0111395384 -0.1658126114 -0.0538101389
-0.0119856626 -0.1297727513 -0.0536232392
-0.0484698086 -0.0725288846 -0.0193702429
-0.0502515768 -0.0806316602 -0.0176417181
-0.0500362068 -0.0919224621 -0.0194196117
-0.0479201823 -0.0945859477 -0.0230434234
-0.0493175967 -0.0763813667 -0.0185474151
-0.0499163240 -0.0546428969 -0.0148387869
-0.0520933247 -0.0289782024 -0.0081792624
-0.0401596735 -0.1252473723 -0.0373362980
-0.0409623073 -0.1378478728 -0.0365655827
-0.0408733918 -0.1307392347 -0.0366232096
0.0496090135 0.0214673477 0.0690601111
0.0424405233 0.0339987981 0.0668585976
0.0493748712 0.0137275597 0.0842428496
0.0536014970 0.0080317660 0.0668222121
0.0169128828 -0.1931907377 -0.0524744360
0.0176310199 -0.1772901979 -0.0522176630
0.0204290501 -0.1695643386 -0.0509693911
0.0210497082 -0.1633642223 -0.0507130033
0.0167325693 -0.1346159478 -0.0522342916
0.0169205634 -0.1434160950 -0.0522403448
0.0170001210 -0.1624273007 -0.0523532073
-0.0517080822 0.0030623182 0.0814107310
-0.0489283660 0.0047946537 0.0945364972
-0.0398378281 -0.1940000057 -0.0366609405
-0.0428489432 -0.1939995467 0.0332847433
-0.0433758315 -0.1939997953 0.0273875509
-0.0352140213 -0.1768111095 -0.0420410153
-0.0330975168 -0.1889660449 -0.0435654626
-0.0369316077 -0.1822739887 -0.0407298515
-0.0367774534 -0.1680794840 -0.0409137340
-0.0455332554 0.0173929943 0.0966452204
-0.0171536389 0.0457117361 0.0965766639
-0.0183581350 0.0412335082 0.1089177782
-0.0365185585 0.0219052698 0.1113586159
-0.0273037371 0.0304508070 0.1131899428
-0.0409869163 0.0279170608 0.0919366277
0.0022536480 0.0543005401 0.0683483750
-0.0546005575 0.0045628485 0.0629941776
-0.0150353286 0.0379695438 0.1130222396
0.0073861279 0.0303604079 0.1203642728
0.0036674472 0.0513600852 0.0844902594
0.0103990300 0.0519133991 0.0755517238
-0.0047963534 0.0509849791 0.0854547402
0.0283405189 0.0072302636 0.1215688340
0.0088927818 -0.0153065420 0.1265861527
-0.0357642668 0.0179913957 0.1139448642
-0.0356562665 0.0103206569 0.1164113599
-0.0000860649 0.0394520010 0.1144467505
-0.0088731143 0.0279802665 0.1215924147
-0.0289587091 -0.0136995636 0.1200110701
-0.0431295038 -0.1819604476 -0.0338051634
-0.0420915564 -0.1935280338 -0.0349763396
-0.0410881131 -0.1909567001 -0.0362112399
-0.0420524802 -0.1696535045 -0.0352018715
-0.0482568831 -0.1259763701 -0.0261007692
-0.0486668944 -0.1324807196 -0.0255271586
-0.0491060593 -0.1250263895 -0.0247417556
-0.0452006196 -0.1276417018 -0.0309711890
0.0348771043 0.0423598709 0.0636400871
0.0320391380 0.0445389219 0.0521682320
-0.0332329095 -0.0082914450 0.1186562596
-0.0330958270 -0.1260105592 -0.0437860859
-0.0280136076 -0.1362035700 -0.0474215180
-0.0301009806 -0.1287042086 -0.0459305413
-0.0241610394 0.0414668923 0.1002635481
-0.0197561663 0.0422648394 0.1056820073
-0.0367190801 0.0393174960 0.0711151080
-0.0133924488 0.0347948977 0.1163393724
0.0065479435 -0.0020910327 0.1289386199
0.0082350609 0.0360455268 0.1163867215
0.0088243615 0.0478799678 0.0972616383
0.0296807911 0.0194193392 0.1174991486
0.0230857536 0.0187518514 0.1214902801
0.0358757617 -0.0048037533 0.1170399447
-0.0458291250 0.0211546356 0.0887630857
-0.0229031133 0.0106312800 0.1236182947
-0.0066070638 0.0360061315 0.1166885905
-0.0233196156 -0.0152506352 0.1224566114
0.0252607363 0.0450638386 0.0818807798
0.0435869567 0.0291748453 0.0776362995
0.0451349129 0.0262694667 0.0786383760
0.0455190134 0.0298646562 0.0662478030
-0.0151586078 -0.1640572396 -0.0527911772
-0.0210322439 -0.1737829969 -0.0505178686
-0.0159245995 -0.1920784293 -0.0524568085
-0.0208161861 -0.1909308856 -0.0505766894
-0.0160339756 -0.1666854947 -0.0524507083
-0.0344783805 0.0345997800 0.0956835576
-0.0385713984 0.0316431508 0.0915451286
-0.0073491351 0.0460253000 0.1056623527
0.0148359456 0.0427719427 0.1083328249
0.0230193211 0.0425456232 0.0982217395
0.0192706247 0.0304641478 0.1173322971
0.0401471572 0.0301160105 0.0897511474
-0.0139506660 0.0261713008 0.1214497453
-0.0267001946 -0.0028141320 0.1227440307
0.0029828869 0.0278729299 0.1222953335
0.0481748047 0.0144817861 0.0888601102
0.0466896290 0.0197248432 0.0869877601
0.0061615039 0.0463876667 0.1050504470
0.0470349142 0.0109174266 0.0986297959
0.0210971252 0.0205360578 0.1215575145
0.0433842997 0.0138778852 0.1081998080
-0.0410474934 0.0060476536 0.1127216789
0.0030513508 0.0396842118 0.1144283142
0.0280815922 0.0380194152 0.1032261136
0.0292380686 0.0459768608 0.0674990205
0.0282128343 0.0433731404 0.0812500613
0.0252365615 0.0471469439 0.0727756978
0.0225030218 0.0391936382 0.1085958785
0.0167741048 0.0435218800 0.1053764149
0.0253940350 0.0268029558 0.1166047863
0.0390614972 0.0331867467 0.0849229266
0.0392618211 0.0338502053 0.0818765741
0.0373976217 0.0081007599 0.1153407680
0.0160890241 0.0470541425 0.0919663443
