0.0179491509 0.0214482902 0.1068115790
0.0216667342 0.0196109074 0.1068139825
0.0217024362 0.0125438725 0.1068049758
0.0164551939 0.0139327604 0.1068000405
0.0137450691 0.0198988283 0.1068042148
0.0240585490 0.0120170278 0.1068073158
0.0145654638 0.0230703003 0.1068093270
-0.0142538440 -0.0427537862 0.0734384809
-0.0209774181 -0.0421127741 0.0721324876
-0.0122735462 -0.0429478124 0.0648496328
-0.0201371193 -0.0421906587 0.0761191324
-0.0181817307 -0.0423760072 0.0783427920
-0.0185251150 -0.0423399485 0.0839759973
-0.0203696075 -0.0421673361 0.0780608485
-0.0065757367 -0.0434917462 0.0647276342
-0.0121069912 -0.0429621729 0.0674881325
-0.0038155476 -0.0437509323 0.0720682812
-0.0047098078 -0.0436630283 0.0764374802
-0.0077271020 -0.0433782482 0.0709040923
-0.0165078329 -0.0425294036 0.0892909257
-0.0253679739 -0.0416899956 0.0784736289
-0.0115121115 -0.0430218965 0.0624395718
-0.0068196989 -0.0434558014 0.0864523039
-0.0166612235 -0.0425240529 0.0733459932
-0.0105447886 -0.0431017890 0.0837889936
-0.0053957360 -0.0436075325 0.0593148096
-0.0234799152 -0.0418646392 0.0880395522
-0.0282233399 -0.0414176945 0.0780497235
-0.0125671292 -0.0429096323 0.0822820033
-0.0106089904 0.0269998938 0.1068065297
0.0619051439 0.0110098911 0.0936547010
0.0598328156 0.0081138227 0.0936818445
0.0496213572 -0.0060095454 0.0958002921
0.0773530533 0.0324219303 0.0910730988
0.0429486741 -0.0153625363 0.0955105778
0.0590130733 0.0066921376 0.0894310776
0.0747169574 0.0286933769 0.0903859899
0.0771247444 0.0320600266 0.0904279083
0.0507381471 -0.0047362771 0.0915079135
0.0705845713 0.0227618883 0.0879119108
0.0771627583 0.0316978042 0.0839260368
0.0712406478 0.0237843375 0.0895686442
0.0591477547 0.0068813463 0.0894473964
0.0772196891 0.0317662958 0.0837530907
0.0709822887 0.0235206364 0.0910911833
0.0372662192 -0.0233075679 0.0948295231
0.0656348869 0.0157445087 0.0812772242
0.0434761541 -0.0148401227 0.0799358241
0.0399752681 -0.0197570132 0.0672547639
0.0382556910 -0.0220956300 0.0722733538
0.0588453727 0.0063612054 0.0790920309
0.0447983841 -0.0130167410 0.0797763397
0.0503706577 -0.0054056720 0.0683378723
0.0624858451 0.0113414766 0.0727683576
0.0642057884 0.0137231068 0.0740012484
0.0644970453 0.0142108266 0.0866241508
0.0458798381 -0.0114591583 0.0893869207
0.0541950461 -0.0000413272 0.0811766610
0.0412355474 -0.0179372273 0.0791379263
0.0613030664 0.0096930735 0.0703627454
0.0543907492 0.0001769886 0.0735699711
0.0427363773 -0.0158535801 0.0810117993
0.0516114181 -0.0036625241 0.0729111289
0.0569057705 0.0036975451 0.0809569291
0.0435545127 -0.0147384790 0.0789830374
0.0695642500 0.0211650395 0.0810768719
0.0351529400 -0.0263020648 0.0832835116
0.0492847295 -0.0068242118 0.0800836181
0.0418152048 -0.0170371886 0.0938745076
0.0398795788 -0.0198348800 0.0752211765
0.0355417472 -0.0257808516 0.0810365487
0.0465462935 -0.0107374747 0.0602799691
0.0494528863 -0.0066339493 0.0739411527
0.0389105157 -0.0210988968 0.0859768639
0.0608382794 0.0091414726 0.0835590423
0.0362231607 -0.0250150673 0.0553798923
0.0397671456 -0.0200356872 0.0685050888
0.0697279383 0.0213863579 0.0804084094
0.0383307909 -0.0220019389 0.0708122885
0.0418791009 -0.0169483981 0.0939662854
0.0459957267 -0.0113820653 0.0772077270
0.0374601603 -0.0230786467 0.0891400598
0.0349188851 -0.0265668972 0.0918318443
0.0725936076 0.0253557548 0.0826483943
0.0480355225 -0.0086370881 0.0669697563
0.0452077350 -0.0125002407 0.0726674230
0.0372580348 -0.0234197650 0.0799900430
0.0617187397 0.0103615938 0.0843277169
0.0618809247 0.0104963586 0.0712352835
0.0622917464 0.0111265203 0.0805435583
0.0359129736 -0.0253691740 0.0662483080
0.0727319647 0.0255591505 0.0844845046
0.0502363740 -0.0054827823 0.0842473700
0.0667684762 0.0172750975 0.0763382895
0.0597382580 0.0075270720 0.0693603507
0.0386927910 -0.0214451236 0.0792410512
0.0462659537 -0.0109637908 0.0838851464
0.0643390327 0.0139914225 0.0864223819
0.0333413681 -0.0285632982 0.0552461641
0.0292377077 -0.0327722527 0.0572317657
0.0330657595 -0.0289658309 0.0929525771
0.0326270136 -0.0293454655 0.0711045792
0.0332544899 -0.0287400237 0.0827559980
0.0319261125 -0.0300692241 0.0729715170
0.0324170341 -0.0295790523 0.0769179031
0.0544195451 0.0149768419 0.0597023066
0.0474008114 0.0145887685 0.0552220217
0.0587071698 0.0145029257 0.0624032850
0.0651916879 0.0266343514 0.0671378628
0.0539612424 0.0127761794 0.0592997612
0.0438444918 -0.0032941468 0.0520575951
0.0642108213 0.0210762290 0.0662334380
0.0565891902 0.0187302832 0.0612709893
0.0630876763 0.0210191418 0.0655167516
0.0586917228 0.0144962573 0.0623931307
0.0574704575 0.0627553586 0.0946253539
-0.0196480430 0.0119280128 0.1068019528
-0.0114853700 0.0198582662 0.1068011431
-0.0196300138 0.0184696254 0.1068006885
-0.0128747988 0.0179313831 0.1068013926
-0.0243381454 0.0078208280 0.1068023311
-0.0128449499 0.0232519739 0.1068003656
-0.0221869982 0.0128305552 0.1068015527
-0.0243387744 0.0169319950 0.1068007069
0.0564932264 0.0131452765 0.0998811315
0.0326844753 -0.0106921930 0.1049445623
0.0323946222 -0.0120262898 0.1045521071
0.0559582556 0.0068731075 0.0974994780
0.0325019141 -0.0111305337 0.1048722184
0.0544897224 0.0095558226 0.0996183746
0.0343410405 -0.0094989498 0.1043898425
0.0380628013 -0.0048358475 0.1040058670
0.0371193994 -0.0228896863 0.0967638793
0.0343977518 -0.0113669430 0.1035404968
0.0432813379 -0.0073397019 0.0995340226
0.0352504942 -0.0178931826 0.1001488055
0.0546849817 0.0081928646 0.0988989146
0.0319052350 -0.0198386891 0.1014708991
0.0363261729 -0.0143608509 0.1009881306
0.0366190590 -0.0142163552 0.1008611380
0.0303649716 -0.0159885371 0.1041441316
0.0385195558 -0.0206613545 0.0968256319
0.0347248345 -0.0220052158 0.0987007853
0.0243360269 -0.0323585455 0.0992968830
0.0241145243 -0.0192131702 0.1066626301
0.0220675512 -0.0257215286 0.1040607599
0.0634876285 0.0145356841 0.0958876379
0.0778287201 0.0350624291 0.0954850685
0.0660082495 0.0178108837 0.0956360859
0.0331384388 0.0520203449 0.1004812687
0.0416347137 0.0488472629 0.0998202408
0.0423319140 0.0476761286 0.0999135025
0.0354347045 0.0695281742 0.0973281568
0.0303094530 0.0532453291 0.1006740875
0.0251002246 0.0276848240 0.1055342390
0.0310869758 0.0514086119 0.1008640391
0.0330291947 0.0464833828 0.1013931411
0.0477643033 0.0609566546 0.0970113530
0.0374999383 0.0670063943 0.0974509850
0.0452236674 0.0442827038 0.1000632037
0.0343193511 0.0458107252 0.1013236704
0.0407255804 0.0527891259 0.0993075405
0.0396988495 0.0527475661 0.0994562569
0.0334799253 0.0569182438 0.0996407823
0.0338272522 0.0562140811 0.0997067969
0.0491096619 0.0476156367 0.0989860132
0.0502121636 0.0532244861 0.0979251416
0.0421384341 0.0667913392 0.0968443634
0.0382519293 0.0371554958 0.1021816379
0.0236375937 0.0275624086 0.1057563309
0.0290565383 0.0407698200 0.1028678822
0.0421616897 0.0694929219 0.0964035997
0.0413538690 0.0529639646 0.0991923384
0.0474569745 0.0637856389 0.0965956714
0.0449349202 0.0463685138 0.0997653169
0.0351886045 0.0571654813 0.0993644486
0.0240410976 0.0658901240 0.0674591218
0.0064600491 0.0481026533 0.0552800496
0.0207910881 0.0609962825 0.0642149882
0.0109258248 0.0551644343 0.0599462585
0.0065658858 0.0488306011 0.0557372260
0.0027446525 0.0442867867 0.0526711045
0.0031880181 0.0454484623 0.0534191261
0.0323822992 0.0738536564 0.0729433465
0.0159214481 0.0554928101 0.0604850752
0.0147633891 0.0505204706 0.0573330254
0.0008214572 0.0451743577 0.0530905829
0.0317925033 0.0746431454 0.0733918126
-0.0369211761 -0.0374039569 0.0804445879
-0.0318772752 -0.0347847433 0.0625740296
-0.0385628583 -0.0365881693 0.0823098161
-0.0322631359 -0.0343591694 0.0624586140
-0.0264820506 -0.0406071768 0.0921776921
-0.0354371672 -0.0399045432 0.0881175196
-0.0276656374 -0.0414357918 0.0875732133
-0.0162125995 -0.0425519806 0.0661614460
-0.0243125859 -0.0417068850 0.0726736318
-0.0080937568 -0.0430882639 0.0542233012
-0.0135614732 -0.0426292608 0.0605597708
-0.0250733640 -0.0415611149 0.0721293007
-0.0209827873 -0.0419556063 0.0682783878
0.0003801368 -0.0439263162 0.0618926729
0.0012554927 -0.0438758594 0.0832345661
0.0017867288 -0.0438335170 0.0836477634
0.0037994555 -0.0436456286 0.0558338578
0.0042801836 -0.0436153235 0.0647781408
0.0000046292 -0.0439582961 0.0637935570
0.0140097008 -0.0415212262 0.0783785969
0.0135046604 -0.0416710667 0.0655774593
0.0173755882 -0.0404228436 0.0629457988
0.0143873255 -0.0413749311 0.0533525529
0.0124219660 -0.0420266342 0.0728183331
0.0153821220 -0.0410790497 0.0778251066
0.0138058958 -0.0415691965 0.0605921787
-0.0020241933 -0.0438605701 0.0938743002
-0.0013068427 -0.0439036283 0.0826565914
-0.0004928737 -0.0439780874 0.0637844973
-0.0044855544 -0.0375188862 0.1013555445
-0.0070128401 -0.0360436996 0.1022287528
0.0142190516 -0.0338270350 0.1020691863
0.0152044651 -0.0356473660 0.1005569267
0.0124504878 -0.0300052901 0.1051590914
0.0158754019 -0.0316094713 0.1030898475
0.0186503381 -0.0397592921 0.0747446499
0.0160817122 -0.0407927927 0.0894433965
0.0188480878 -0.0397305918 0.0676276130
0.0182904466 -0.0399326910 0.0734393149
0.0191313978 -0.0393765598 0.0942525037
0.0755788434 0.0451248647 0.0926690353
0.0099270185 0.0397163815 0.1045148265
0.0095265007 0.0352652614 0.1053388763
0.0174643108 0.0473751248 0.1026417575
0.0255501800 0.0480729973 0.1019792815
0.0181469036 0.0528212484 0.1016207017
0.0186653641 0.0499684804 0.1020973205
0.0182912006 0.0328033282 0.1051973661
0.0212865750 0.0457889348 0.1026718692
0.0130143969 0.0266294792 0.1066541631
0.0088782297 0.0303666191 0.1062595683
0.0263537554 0.0566172209 0.1003951526
0.0240801140 0.0531978045 0.1011588728
0.0207384925 0.0508524644 0.1018011563
0.0141872088 0.0290142757 0.1061489671
0.0225353233 0.0264481327 0.1060538159
0.0044397061 0.0371571617 0.1053380466
0.0095126577 0.0330636556 0.1057342191
0.0135304016 0.0417486821 0.1039112260
0.0253367759 0.0373430119 0.1039157671
0.0220422335 0.0238754852 0.1065474861
0.0295696321 0.0596886882 0.0996311397
0.0294044208 0.0118176374 0.1062090769
0.0330042346 0.0032026124 0.1061420001
0.0269485862 0.0124517507 0.1066055544
0.0296251199 0.0088392478 0.1063688605
0.0294329960 0.0130571749 0.1061210569
0.0440911462 0.0202586451 0.1030197212
0.0417125282 0.0172433302 0.1036465108
0.0280922145 0.0230833327 0.1056900203
0.0401621154 0.0221006867 0.1035986816
0.0543335478 0.0233596882 0.1009818238
0.0306830247 0.0084288949 0.1062072461
0.0549095138 0.0249657607 0.1007714593
0.0617413336 0.0235214311 0.0996471248
0.0508646562 0.0226965862 0.1016461207
0.0580370873 0.0234291661 0.1003152996
0.0285944827 0.0148837401 0.1061487318
0.0304128825 0.0007427928 0.1067696511
0.0651859580 0.0283258633 0.0987101494
0.0400146547 0.0146584452 0.1041228497
0.0523051955 0.0257476886 0.1011845857
0.0412208502 0.0133401173 0.1039954684
0.0312850538 0.0242138802 0.1050437903
0.0248239502 -0.0353610193 0.0971794661
0.0221804172 -0.0324871513 0.1001237464
0.0269998105 -0.0139904354 0.1065754178
0.0523955740 0.0103570910 0.1011936815
0.0447741338 0.0021956173 0.1027001774
0.0471552966 0.0056336013 0.1023423579
0.0511314430 0.0095788166 0.1015166787
0.0689297369 0.0274170303 0.0978433848
0.0396139550 0.0012916991 0.1043074895
0.0505957261 0.0108013748 0.1018508261
0.0544202083 0.0047635230 0.0602453736
0.0501105785 -0.0028648876 0.0578602186
0.0431107586 -0.0089263723 0.0525863981
0.0429608275 -0.0110768549 0.0529203588
0.0473088106 -0.0038750376 0.0554361086
0.0671519100 0.0206226765 0.0687685160
0.0592045497 0.0116898608 0.0632343903
0.0522174339 0.0009563066 0.0590059309
0.0203873512 0.0655496583 0.0672468094
0.0024450090 0.0506998431 0.0571593526
-0.0097873491 0.0438082707 0.0531274791
0.0071398099 0.0552861515 0.0604156315
0.0081509510 0.0546337810 0.0596732137
0.0093663281 0.0556928101 0.0604032878
-0.0099148787 0.0457120597 0.0558461888
0.0084965660 0.0581375339 0.0627039648
-0.0068457853 0.0481826559 0.0576475546
0.0326356467 0.0763706072 0.0748963145
-0.0253233603 0.0358733372 0.0603652253
-0.0278746877 0.0339489261 0.0767699374
-0.0263527061 0.0350900597 0.0719196291
-0.0280153682 0.0338656818 0.0612307767
-0.0280623384 0.0338221086 0.0673893395
0.0472345536 0.0241849227 0.0576798889
0.0478929496 0.0230385417 0.0576694002
0.0434854095 0.0269205345 0.0566646433
0.0418191675 0.0213956638 0.0543027121
0.0700241661 0.0358389501 0.0718682689
0.0475516620 0.0323351180 0.0601416191
0.0466767732 0.0207552633 0.0564413003
0.0435129930 0.0320412394 0.0581293434
0.0658891338 0.0303727473 0.0683438100
0.0662926006 0.0340710619 0.0695848479
0.0736791776 0.0337343674 0.0730174271
0.0554817753 0.0327972876 0.0640602529
0.0616542552 0.0299674253 0.0662062296
0.0545618632 0.0291639932 0.0625909781
0.0333585959 0.0303053434 0.0527872814
0.0693415345 0.0339198586 0.0709982368
0.0361868157 0.0275782026 0.0533650711
0.0526220042 0.0349702845 0.0634020269
0.0518190702 0.0341813917 0.0627405438
0.0351574521 0.0326264749 0.0543773675
0.0659730149 0.0406616225 0.0717127116
0.0460917807 0.0330661011 0.0596555209
0.0723837782 0.0436405759 0.0757923619
0.0620174927 0.0388012262 0.0691874268
0.0653533793 0.0355892867 0.0695864190
0.0444534491 0.0360982363 0.0599861650
-0.0346689785 0.0056964808 0.1030417391
-0.0351686135 0.0099085346 0.1022455187
-0.0299132258 0.0067387603 0.1062994206
-0.0347011899 0.0068397126 0.1028988383
-0.0376732886 -0.0242152086 0.0550960320
-0.0410456209 -0.0205883393 0.0620144716
-0.0418421249 -0.0188976460 0.0623086807
-0.0394811232 -0.0259882273 0.0647762977
-0.0418152387 -0.0167433481 0.0587464321
-0.0397364256 -0.0205589949 0.0570196667
-0.0403877808 -0.0250865492 0.0667542613
-0.0398329608 -0.0307946372 0.0738269166
-0.0306438201 -0.0409879262 0.0778309063
-0.0250636713 -0.0393119769 0.0617823363
-0.0339792408 -0.0408281359 0.0827563889
-0.0217149523 -0.0385975373 0.0533219277
-0.0205207108 -0.0388244397 0.0522401949
-0.0225260974 -0.0165324562 0.1068023035
-0.0364570822 -0.0309897205 0.0937356300
-0.0356488050 -0.0235712312 0.0975348995
-0.0347468059 -0.0227751115 0.0984556274
-0.0253002510 -0.0193414332 0.1059230305
-0.0294172832 -0.0228765851 0.1017642551
-0.0308308417 -0.0224189339 0.1010777662
-0.0272694941 -0.0188962546 0.1048269914
-0.0373120928 -0.0173218065 0.0990084159
-0.0312385114 -0.0165159016 0.1030083043
-0.0300035308 -0.0121073211 0.1049827455
-0.0153653087 -0.0414413086 0.0961225217
0.0055759229 0.0464045498 0.1027625186
0.0065274710 0.0478233155 0.1024257644
-0.0024969586 0.0327407260 0.1060902642
0.0190553330 0.0568874563 0.1007738928
0.0021774658 0.0403701882 0.1042450723
-0.0018549055 0.0377880830 0.1046797308
-0.0004005613 0.0403694616 0.1040455670
0.0161699124 0.0557751241 0.1008721774
0.0234404749 0.0627677289 0.0994123561
0.0703664847 0.0514954315 0.0788137521
0.0442519083 0.0759709523 0.0928764934
0.0474821806 0.0363040749 0.1008282401
0.0599179893 0.0345397191 0.0990343062
0.0382696772 0.0354827764 0.1024386831
0.0503344874 0.0318502116 0.1009523135
0.0483254421 0.0414246425 0.1000135395
0.0434463249 0.0284742884 0.1025217106
0.0634792557 0.0519105899 0.0961563254
0.0651617799 0.0468175301 0.0965556349
0.0395636396 0.0365892348 0.1020814044
0.0535637039 0.0420895947 0.0990716545
0.0462974325 0.0365283901 0.1009917101
0.0322509666 0.0269087024 0.1045538355
0.0449707097 0.0294528379 0.1021437854
0.0666858511 0.0349933346 0.0978710170
0.0598389130 0.0367222965 0.0987585355
0.0377322383 0.0314416760 0.1030607611
0.0481023366 0.0390927973 0.1003583136
0.0672373650 0.0415578197 0.0969129084
0.0535197510 0.0397297346 0.0993909283
0.0505383699 0.0456677679 0.0990916043
0.0651056232 0.0345307491 0.0981898057
0.0321825976 0.0417143054 0.0573015007
0.0251543447 0.0597109826 0.0638134255
0.0252874354 0.0388809979 0.0539192612
0.0279006101 0.0575799595 0.0636061496
0.0318537569 0.0421781309 0.0574258229
0.0318614633 0.0711209175 0.0712302811
0.0323675636 0.0467534377 0.0597590388
0.0246512628 0.0591523451 0.0633988314
0.0152533085 0.0413823665 0.0521563737
0.0296533282 0.0448467063 0.0580502321
0.0292461022 0.0508848705 0.0608097460
0.0270460483 0.0477224978 0.0586536127
0.0307544188 0.0577027324 0.0645053390
0.0305405235 0.0545702895 0.0629485380
0.0200930353 0.0496363328 0.0575181418
0.0198059510 0.0482482527 0.0567716304
0.0415741075 0.0607971854 0.0695621007
0.0370896819 0.0489192073 0.0624014280
0.0406046157 0.0732688062 0.0750821624
0.0389351997 0.0743589758 0.0750069285
0.0434944954 0.0717143396 0.0753687549
0.0365549075 0.0505540304 0.0629815228
0.0394809600 0.0703463115 0.0733131856
0.0373226558 0.0493827928 0.0627012988
0.0392156861 0.0507420474 0.0640063947
0.0388195887 0.0774875420 0.0764365705
0.0378380996 0.0710233169 0.0730531234
0.0706011699 0.0477615870 0.0764831889
0.0466922629 0.0410654607 0.0629154538
0.0526346325 0.0415821369 0.0658481357
0.0420722372 0.0381961081 0.0596903876
0.0573819183 0.0441059793 0.0689994567
0.0589684191 0.0437280877 0.0695848885
0.0368640856 0.0335458224 0.0555126427
0.0561144833 0.0480574552 0.0699293724
0.0586705431 0.0516075683 0.0724652497
0.0389035797 0.0785295200 0.0944164855
-0.0050886809 0.0501123592 0.0960107563
0.0031804991 0.0559924573 0.0957259040
0.0247645681 0.0704601800 0.0959764452
-0.0291388238 0.0327805110 0.0829286345
-0.0298838629 0.0321484670 0.0745745045
-0.0285857715 0.0332583354 0.0877568583
-0.0287645391 0.0331501258 0.0788553995
-0.0435903184 0.0048540069 0.0901876954
-0.0433277299 0.0066094505 0.0926451920
-0.0432162743 0.0078340713 0.0805952759
-0.0432920454 0.0082530506 0.0546155841
-0.0432380942 0.0074297739 0.0874472436
-0.0415867925 0.0040640240 0.0982227957
-0.0364603502 0.0001508090 0.1023015181
-0.0433564208 0.0076115487 0.0574064787
-0.0436729609 0.0046239207 0.0804453469
-0.0439626826 -0.0003390777 0.0584718385
-0.0438650268 0.0019656669 0.0780879739
-0.0439122797 0.0003637824 0.0591922517
-0.0434385024 0.0067802040 0.0622864888
-0.0436454847 0.0036624513 0.0548564209
-0.0349001832 -0.0290169083 0.0574437017
-0.0367253789 -0.0319874445 0.0679124343
-0.0367757170 -0.0330939708 0.0702922611
-0.0326403249 -0.0295600770 0.0530967678
-0.0365767951 -0.0267747046 0.0569150746
-0.0420356489 -0.0200336227 0.0661114712
-0.0434174838 -0.0070909523 0.0558005308
-0.0419218602 -0.0215317513 0.0681888786
-0.0422078523 -0.0202195678 0.0699372065
-0.0416009823 -0.0262472268 0.0754415485
-0.0294572588 -0.0378161839 0.0657895917
-0.0283758552 -0.0336479556 0.0527988536
-0.0312446455 -0.0383936730 0.0707132779
-0.0323642264 -0.0363726435 0.0675505163
-0.0254854329 -0.0379986712 0.0586912095
-0.0146736412 -0.0380590390 0.0990160737
-0.0134307884 -0.0392825026 0.0984898499
-0.0161325325 -0.0384319367 0.0983797459
-0.0057320060 -0.0302538334 0.1067378162
-0.0143764885 -0.0295701481 0.1048979873
-0.0390470172 -0.0355870987 0.0897394370
0.0093184563 -0.0429526770 0.0740572960
0.0116111928 -0.0422085552 0.0962189696
0.0109404725 -0.0424601885 0.0800722863
0.0101146029 -0.0426588698 0.0918336631
0.0085268467 -0.0431715369 0.0772404329
0.0041700069 -0.0436047773 0.0942561857
0.0075426889 -0.0432811863 0.0816780201
0.0044884923 -0.0435873824 0.0885158265
0.0059526901 -0.0434361622 0.0867694136
0.0002284707 -0.0428364399 0.0975087847
0.0760848041 0.0458969905 0.0894591581
0.0747894304 0.0450720728 0.0937138344
0.0808114281 0.0396017573 0.0818378414
0.0703791036 0.0454770598 0.0958447765
0.0379323033 -0.0219124567 0.0525383685
0.0557645393 0.0029057578 0.0630724477
0.0567901879 0.0039730330 0.0644376651
0.0410866251 -0.0169938354 0.0532874266
0.0804486385 0.0367752982 0.0801509908
0.0788667561 0.0362328252 0.0764443182
0.0602520882 0.0097244180 0.0648964680
0.0579155595 0.0659846286 0.0816226277
0.0616878410 0.0618133115 0.0906879783
0.0283422602 -0.0264375276 0.1005248794
0.0318156231 -0.0270244403 0.0983874027
0.0793580587 0.0396180862 0.0931776701
-0.0006495066 0.0537121222 0.0868699707
-0.0204819339 0.0393121335 0.0906080740
-0.0196213001 0.0400222113 0.0646393997
0.0122196108 0.0631021940 0.0705017053
0.0023054621 0.0559259736 0.0656224638
0.0121954484 0.0630536413 0.0799001575
-0.0109743148 0.0462162595 0.0885720997
-0.0099488391 0.0469604972 0.0884826636
-0.0186729481 0.0407038031 0.0665783501
0.0268474645 0.0736811859 0.0804815981
0.0227387733 0.0706982154 0.0811710544
-0.0105782224 0.0466044664 0.0580181713
-0.0110692808 0.0461691779 0.0819641763
-0.0157005924 0.0428752586 0.0619954844
-0.0011833708 0.0533253966 0.0866967223
-0.0047516054 0.0508172287 0.0623260559
0.0185954511 0.0677142275 0.0745578150
-0.0123086344 0.0452531450 0.0870930947
0.0019543196 0.0556005825 0.0870256066
0.0111469664 0.0623015714 0.0773061260
0.0033455752 0.0566336697 0.0798198974
0.0075211277 0.0597009345 0.0682884434
0.0290342009 0.0752713577 0.0793363999
-0.0008977809 0.0535712096 0.0749944600
-0.0016445007 0.0530058523 0.0821564124
-0.0010697647 0.0534135120 0.0849703767
0.0024296860 0.0559753966 0.0779511606
0.0064093870 0.0588368384 0.0857293414
-0.0263799287 0.0350295039 0.0917790434
-0.0125701665 0.0451076455 0.0736934496
0.0068721382 0.0591868742 0.0813887822
0.0261670226 0.0731997642 0.0767819904
0.0123797485 0.0631772194 0.0829672525
-0.0166194981 0.0421509177 0.0794785244
-0.0052661286 0.0504078758 0.0732581751
0.0265879745 0.0734965168 0.0793968311
-0.0039865844 0.0513689335 0.0633221373
0.0213986438 0.0697226391 0.0821903954
0.0308922424 0.0766188946 0.0794574405
-0.0230212806 0.0375091047 0.0787425211
-0.0134186682 0.0444491432 0.0867040603
-0.0014431191 0.0531979684 0.0682145314
0.0165650553 0.0662318365 0.0774110180
-0.0058865009 0.0499458911 0.0768719605
-0.0253152714 0.0358581324 0.0747351294
-0.0184030396 0.0409122131 0.0627606964
-0.0220446598 0.0382463330 0.0700395413
-0.0006084896 0.0537451449 0.0858804533
-0.0222848132 0.0381125637 0.0577847457
-0.0133008063 0.0445179943 0.0917489742
0.0166383638 0.0661396238 0.0908367114
-0.0150730640 0.0431821969 0.0956365549
0.0275506608 0.0740044262 0.0909962045
0.0090826280 0.0606379925 0.0936130102
0.0129621836 0.0634248317 0.0941474229
-0.0135271061 0.0443164210 0.0946277065
-0.0001316808 0.0540757796 0.0894160654
0.0146558534 0.0647312036 0.0897544771
0.0229282299 0.0708152265 0.0835920539
0.0105979781 0.0617656870 0.0918031118
0.0323237115 0.0776118906 0.0824368135
0.0147451876 0.0648832088 0.0852389219
0.0264925983 0.0732667899 0.0896950974
-0.0063474640 0.0495630060 0.0910203133
0.0290034915 0.0751021722 0.0884064093
0.0289782511 0.0750219592 0.0916033051
0.0196226281 0.0684033170 0.0850628602
0.0355991405 0.0798542574 0.0864933899
-0.0126709223 0.0388945572 0.1001025663
0.0144753985 0.0573432023 0.0999868714
-0.0098271152 0.0432647563 0.0985461921
0.0075250282 0.0548668300 0.0985928922
-0.0040246034 0.0497039477 0.0969403015
-0.0158628804 0.0299195373 0.1044278116
-0.0060014667 0.0453317296 0.0988675188
0.0094347495 0.0585598497 0.0970673445
0.0058731841 0.0554996579 0.0974878237
-0.0092750191 0.0363354417 0.1031714557
-0.0013408816 0.0507130488 0.0974450349
-0.0116952397 0.0408060991 0.0993074688
-0.0155456332 0.0301833457 0.1043959190
-0.0157755671 0.0280837594 0.1056280483
0.0307379311 0.0743387867 0.0961521486
-0.0227659922 0.0356528053 0.0978529420
-0.0096520236 0.0421107197 0.0993519452
0.0239202022 0.0694571052 0.0963385428
-0.0101841786 0.0342762127 0.1040884747
-0.0324436446 0.0295951026 0.0723545286
-0.0323144152 0.0297281188 0.0786704551
-0.0306211418 0.0314388750 0.0612343143
-0.0298544988 0.0322138540 0.0546509524
-0.0310181174 0.0310380544 0.0661133471
-0.0333482627 0.0284591690 0.0903606155
-0.0336034098 0.0283183121 0.0756570174
-0.0329876327 0.0288505016 0.0944917437
-0.0327336678 0.0291746937 0.0931909947
-0.0335844092 0.0283572431 0.0742885102
-0.0365223256 0.0243956252 0.0776088318
-0.0360297298 0.0250914888 0.0640379147
-0.0369314294 0.0238413654 0.0919202652
-0.0361126903 0.0249546837 0.0638030040
-0.0361638584 0.0248389197 0.0596244032
-0.0384846202 0.0210960243 0.0638658294
-0.0363976193 0.0245976718 0.0774994098
-0.0401704351 -0.0211957978 0.0948322879
-0.0411739181 -0.0184155948 0.0946564871
-0.0212744247 -0.0272593933 0.1036030320
-0.0282717172 -0.0307032574 0.0983633569
-0.0228295766 -0.0207862328 0.1065014777
-0.0250297886 -0.0210424729 0.1053179156
-0.0350888598 -0.0352144844 0.0926097086
-0.0355987202 -0.0393120175 0.0896167513
-0.0326938516 -0.0353570301 0.0936544508
-0.0250294597 -0.0385293344 0.0950681421
-0.0237492531 -0.0350982402 0.0977618906
-0.0189923505 -0.0355114293 0.0996045437
0.0040327856 -0.0391668820 0.1001080216
0.0083276714 -0.0290538563 0.1068023544
-0.0001153840 -0.0290663420 0.1068006089
0.0266594630 -0.0091331176 0.1068090520
0.0124585924 -0.0236307708 0.1068008284
0.0220956107 -0.0152796354 0.1068124305
-0.0164139822 -0.0185643213 0.1068019117
-0.0168865577 -0.0172344391 0.1068020779
-0.0039715149 -0.0250004928 0.1068008456
-0.0092083520 -0.0237636224 0.1068011238
-0.0024246851 -0.0235524228 0.1068009735
-0.0059011162 -0.0272837230 0.1068006309
-0.0111519657 -0.0176816221 0.1068018784
0.0002262131 -0.0403931474 0.0993481636
0.0057109179 -0.0319737613 0.1053285356
0.0004054292 -0.0397789747 0.0997901433
0.0242954188 -0.0364801947 0.0717265653
0.0235785252 -0.0368515521 0.0522133483
0.0210476952 -0.0384108193 0.0521957840
0.0202338045 -0.0389209858 0.0546093006
0.0221133813 -0.0378509797 0.0790379150
0.0226009931 -0.0374621136 0.0545075880
0.0197752372 -0.0392503754 0.0676053262
0.0258445573 -0.0353822961 0.0930990094
0.0263594260 -0.0350710386 0.0850596148
0.0259703996 -0.0353156823 0.0890046455
0.0240051559 -0.0366394668 0.0891490773
0.0252207681 -0.0358117840 0.0910509698
0.0575372348 0.0625099327 0.0947391040
0.0769379251 0.0317906928 0.0774319336
0.0641004292 0.0135829191 0.0712836529
0.0676366448 0.0187459797 0.0722172532
0.0707029563 0.0229650676 0.0743551419
0.0562766448 0.0030108791 0.0648341960
0.0668261522 0.0570293243 0.0812766925
0.0728564588 0.0501875399 0.0894116672
0.0420950675 0.0722125132 0.0959566690
0.0639775213 0.0578246240 0.0779552126
0.0604746972 0.0616824887 0.0783655244
0.0525995932 0.0700035748 0.0797630758
0.0443163157 0.0770637226 0.0807148044
0.0576435231 0.0663226511 0.0891829718
0.0506718435 0.0722749835 0.0882758274
0.0533033116 0.0702135512 0.0864897636
0.0484910707 0.0741559442 0.0865517639
0.0418264307 0.0796412471 0.0845890053
0.0436950283 0.0780779831 0.0834652089
-0.0348024503 0.0107665085 0.1023673040
-0.0386133646 0.0168539962 0.0981808154
0.0036481284 0.0565896759 0.0639382670
0.0248076132 0.0714940452 0.0729251398
0.0064030609 0.0586331890 0.0653274713
0.0290081180 0.0750271123 0.0759311397
0.0385140208 0.0401847865 0.0590023733
0.0414107587 0.0478373534 0.0635663859
0.0496959901 0.0541383862 0.0697958137
0.0558519049 0.0615986857 0.0756408718
0.0395291480 0.0481440814 0.0629125009
0.0382474673 0.0407051020 0.0591185327
0.0510445659 0.0524579869 0.0696249677
0.0502544994 0.0513805878 0.0688222896
0.0316522998 0.0322422356 0.0526505126
0.0555214812 0.0580929147 0.0739674920
0.0519052663 0.0601548099 0.0733554870
0.0506527398 0.0560371521 0.0710279411
0.0481027755 0.0629099696 0.0729689929
0.0414413075 0.0405412641 0.0603846571
-0.0377105287 0.0222900386 0.0961541538
-0.0395184139 0.0190831761 0.0788440427
-0.0398728949 0.0182273656 0.0911184962
-0.0396569656 0.0186730088 0.0888639038
-0.0396594752 0.0187992663 0.0798187614
-0.0406944075 -0.0315483932 0.0881042747
-0.0402916266 -0.0330052993 0.0887199090
-0.0321847109 -0.0049521973 0.1054894525
-0.0423863703 -0.0072104458 0.0974275098
-0.0378466748 -0.0157818868 0.0990400143
-0.0427220348 0.0008682539 0.0975337209
-0.0391489196 -0.0025196194 0.1002447789
-0.0374944079 -0.0024082123 0.1015476374
0.0637994559 0.0584550995 0.0928189702
0.0670994651 0.0519346488 0.0950578892
0.0570716920 0.0670510684 0.0825255017
0.0789152179 0.0428356221 0.0842693413
0.0666569669 0.0568556791 0.0903364075
0.0699197137 0.0537641524 0.0849265235
0.0726304317 0.0506429521 0.0854755099
0.0419429935 0.0791644532 0.0894388903
-0.0309108333 0.0288790761 0.0979008842
-0.0328781028 0.0180200530 0.1014342247
-0.0369018924 0.0173047348 0.0991208495
-0.0275683375 0.0215417273 0.1033322905
-0.0339123544 0.0205151871 0.0997963555
-0.0265706162 0.0174600557 0.1055901183
0.0460147942 0.0740694662 0.0777623298
0.0382439427 0.0804096873 0.0928915598
-0.0228032225 0.0313306198 0.1005619577
-0.0250504776 0.0281302385 0.1013727632
-0.0223532273 0.0221136831 0.1060737267
0.0081464378 -0.0399998983 0.0990084975
0.0396677309 0.0811519351 0.0869471883
-0.0263790884 0.0286776706 0.1003925607
-0.0294514628 0.0297883306 0.0981824095
-0.0422866072 0.0111044005 0.0948568163
-0.0410664517 0.0149658766 0.0820936793
-0.0407263387 0.0162264638 0.0646974519
-0.0414556640 0.0136130921 0.0952566648
-0.0414341909 0.0137399035 0.0906108672
-0.0404291546 0.0169688899 0.0764690781
-0.0422728621 0.0114704561 0.0643500657
-0.0421174975 0.0120123534 0.0577830287
-0.0427399595 0.0100957633 0.0575649907
-0.0423332339 0.0111789575 0.0753376358
-0.0428860950 0.0096536469 0.0566963815
-0.0425629055 0.0106775060 0.0538134461
-0.0422134511 0.0114638586 0.0841268613
0.0643967238 0.0597976968 0.0837597204
0.0623332258 0.0619565437 0.0845868982
0.0279270458 -0.0340192526 0.0634539711
0.0301493694 -0.0318010072 0.0808590469
0.0276877156 -0.0342532670 0.0621632812
0.0282756356 -0.0336123437 0.0732415544
0.0297844164 -0.0321416371 0.0808321073
0.0308904440 -0.0309829221 0.0960441632
0.0796788552 0.0396994322 0.0787704060
-0.0435955349 -0.0038574678 0.0883953920
-0.0435982911 -0.0031702070 0.0930016446
-0.0438171418 -0.0011716155 0.0812398920
-0.0438717713 -0.0005501361 0.0791842404
-0.0437064490 -0.0030424436 0.0810136448
-0.0438258538 -0.0030894039 0.0664289731
-0.0422561980 -0.0194498693 0.0757045354
-0.0439637577 -0.0022036485 0.0555711746
-0.0422861986 -0.0191830817 0.0746189348
-0.0426763739 -0.0151882321 0.0711119453
-0.0418833835 -0.0235385123 0.0735679659
-0.0419178393 -0.0229861241 0.0772920663
-0.0423413147 -0.0179858434 0.0869140524
-0.0427769989 -0.0144102704 0.0651089489
-0.0416156178 -0.0256694576 0.0883140484
-0.0435678220 -0.0060769760 0.0627775662
-0.0430092906 -0.0120239414 0.0631824494
-0.0431249747 -0.0102847107 0.0733540905
-0.0431270977 -0.0091553231 0.0957190281
-0.0419713637 -0.0220633060 0.0843852125
-0.0425361346 -0.0157961322 0.0891041982
-0.0436142001 -0.0054097361 0.0662486909
-0.0430890560 -0.0097573767 0.0917654324
-0.0426427025 -0.0146383213 0.0894943294
-0.0424230393 -0.0179750489 0.0694882222
-0.0434968401 -0.0067258619 0.0649892102
-0.0008437122 0.0140243029 0.0520028096
-0.0076897579 0.0212213971 0.0520013181
-0.0118778958 -0.0098171325 0.0520031720
-0.0138941205 -0.0166745924 0.0520034334
-0.0129783977 -0.0037614032 0.0520025499
0.0032621660 0.0306856891 0.0520020667
-0.0072477975 0.0053864685 0.0520026141
0.0043441718 0.0379466223 0.0520016469
-0.0032855565 0.0160944706 0.0520023164
0.0094452651 0.0371199977 0.0520024042
0.0064294532 0.0326000468 0.0520023474
0.0008723188 0.0196408897 0.0520026042
-0.0023916693 0.0084341245 0.0520030357
-0.0078603921 0.0133137634 0.0520019122
-0.0085180697 -0.0083571989 0.0520035143
0.0005251615 0.0371342278 0.0520011917
-0.0034457781 0.0181106163 0.0520021373
-0.0029866554 0.0380683494 0.0520006419
-0.0020337668 0.0184289272 0.0520023042
-0.0123930295 0.0000789719 0.0520023296
-0.0119628569 -0.0093250652 0.0520031220
0.0167504818 -0.0333693105 0.0520595929
0.0222411874 -0.0322078137 0.0520719964
-0.0015460573 -0.0350295963 0.0520403875
0.0259509471 -0.0292334832 0.0521022970
0.0113395586 -0.0349032399 0.0520434723
0.0194818904 -0.0022294394 0.0520013866
0.0290803418 0.0137943142 0.0519974516
0.0396886036 0.0127396327 0.0520013010
0.0272864305 0.0144217910 0.0519966044
0.0187814692 -0.0004501334 0.0520003855
0.0329652289 0.0097524919 0.0520004585
0.0179695402 0.0043486472 0.0519980294
0.0265189904 0.0053813090 0.0520003092
0.0354515401 0.0202374445 0.0519966716
0.0398543583 0.0125753888 0.0520014257
0.0310728068 0.0142702700 0.0519978801
-0.0052426493 -0.0173869045 0.0520001114
0.0142187971 -0.0003729869 0.0519988943
0.0370990150 0.0142875865 0.0519997975
-0.0013792377 -0.0183011534 0.0520017450
0.0328576953 0.0084781411 0.0520009809
0.0216959608 0.0048216550 0.0519990131
0.0355067929 0.0171871658 0.0519980220
0.0409907934 0.0139784429 0.0520011757
0.0177308310 0.0092768890 0.0519957999
0.0107276485 0.0017088504 0.0519968695
0.0025880407 -0.0131060955 0.0520007424
0.0137091588 0.0041069459 0.0519967741
0.0098417271 -0.0112881082 0.0520022652
0.0295394210 0.0252909106 0.0519925751
-0.0062570628 -0.0198874562 0.0520008799
0.0351552137 0.0212598302 0.0519961303
0.0201383322 -0.0093447568 0.0520025880
0.0410871635 0.0049481209 0.0520017866
0.0425016874 0.0003285200 0.0520010324
0.0380180895 -0.0049111519 0.0520009305
0.0090706843 -0.0147587234 0.0520032793
0.0426934146 0.0011684950 0.0520011139
0.0350092679 0.0007258903 0.0520020096
0.0113538068 -0.0153843939 0.0520029183
0.0207967905 -0.0052063160 0.0520030253
-0.0117990866 -0.0328956962 0.0520035891
0.0400678626 0.0065050298 0.0520021079
0.0195574367 -0.0144276121 0.0520020227
0.0394043489 0.0083199107 0.0520024176
0.0303719892 -0.0039643363 0.0520019957
-0.0128276057 -0.0322768180 0.0520037940
0.0331396014 -0.0003453556 0.0520021068
0.0073598405 -0.0421540206 0.0520941724
-0.0079605658 -0.0402324869 0.0520469881
-0.0301076129 -0.0271674434 0.0520288712
-0.0232223594 -0.0366433666 0.0520112965
-0.0230698099 0.0039307359 0.0520529563
-0.0237314843 0.0031517281 0.0520555031
-0.0273723909 0.0277484232 0.0520974114
-0.0250003487 0.0296279595 0.0520873994
-0.0276258674 0.0340942570 0.0521048038
-0.0251867021 0.0248121295 0.0520836777
-0.0251921819 -0.0175190929 0.0520366053
-0.0327161055 0.0225098626 0.0520994123
-0.0293004135 0.0273328217 0.0521021592
-0.0278957221 0.0113619418 0.0520788816
-0.0278928281 0.0170694615 0.0520866372
-0.0321897334 0.0268708590 0.0521047536
-0.0275692896 0.0032607364 0.0520675047
-0.0389550974 -0.0116152720 0.0520564730
-0.0294118861 -0.0268482866 0.0520273226
-0.0005674433 -0.0438690060 0.0520727358
0.0052531605 -0.0390424355 0.0520634498
-0.0132562492 -0.0385392680 0.0520218757
0.0090153585 -0.0369842913 0.0520469716
0.0187656163 -0.0378677277 0.0520760071
-0.0104003530 0.0345129777 0.0520031375
-0.0127347820 0.0196845292 0.0520033720
-0.0131912757 0.0029759328 0.0520026228
-0.0135147271 0.0151943960 0.0520034770
-0.0209792456 -0.0358158978 0.0520040197
-0.0133077217 0.0363368711 0.0520045977
-0.0118464900 0.0052995260 0.0520021297
-0.0187326654 -0.0194143983 0.0520039168
-0.0122734321 0.0149508424 0.0520028844
-0.0115111055 0.0164756775 0.0520026168
-0.0108767999 0.0214790717 0.0520026092
-0.0056817940 0.0368648926 0.0520010734
0.0240065865 0.0346953639 0.0519952465
-0.0109020697 -0.0241876564 0.0520014175
0.0226260517 0.0217457754 0.0519931094
-0.0120006730 -0.0231251323 0.0520022653
0.0041251324 0.0106704550 0.0520008933
0.0005085320 -0.0053438361 0.0519993099
0.0248932987 0.0260775037 0.0519928223
-0.0062178705 -0.0178459791 0.0520002398
-0.0008371327 -0.0012813903 0.0520009675
0.0058509116 0.0085400166 0.0519994579
0.0020778399 0.0070830014 0.0520012251
0.0033480983 -0.0015082084 0.0519985941
0.0234307268 0.0223285528 0.0519927935
-0.0031793268 -0.0072956765 0.0520009189
0.0149737981 0.0359779231 0.0520005467
0.0182868093 0.0274754517 0.0519968020
-0.0000846190 0.0008653113 0.0520010312
-0.0048015663 -0.0083747700 0.0520015772
0.0100696179 0.0107544654 0.0519976133
0.0095471013 0.0148169737 0.0519988140
0.0172041395 0.0307079034 0.0519981275
0.0148659077 0.0343000370 0.0520002304
0.0202689145 0.0370042512 0.0519978383
0.0095657996 0.0246096918 0.0520009991
0.0146591656 0.0320414492 0.0519998388
0.0232694715 0.0290553154 0.0519943911
0.0125501778 0.0296129940 0.0520004647
-0.0326621337 -0.0194289571 0.0520402472
-0.0399011823 -0.0081346962 0.0520614447
-0.0232130210 -0.0347547094 0.0520112488
-0.0161391779 -0.0398827575 0.0520220282
0.0149715246 -0.0213638708 0.0520101788
0.0216974910 -0.0179060947 0.0520102599
0.0176892450 -0.0188917176 0.0520066909
0.0230407672 -0.0175961684 0.0520115227
0.0324247080 -0.0159650462 0.0520220934
0.0389626879 -0.0061417454 0.0520010084
0.0414223265 -0.0109407355 0.0520208962
0.0415035265 -0.0057519807 0.0520040405
0.0093193672 -0.0220545751 0.0520028563
0.0052163234 -0.0266108943 0.0520108207
0.0256047602 -0.0197419635 0.0520228981
0.0373665157 -0.0129192138 0.0520204982
-0.0153743283 0.0277735583 0.0520104323
-0.0167973315 0.0112021673 0.0520079652
-0.0201815010 0.0308646142 0.0520543142
-0.0189841102 0.0021853456 0.0520187138
-0.0224692840 0.0321161267 0.0520750039
-0.0199114781 0.0202998860 0.0520426642
-0.0154507037 0.0283949339 0.0520116353
-0.0189338938 0.0157123803 0.0520302410
-0.0221144713 0.0245090590 0.0520652425
-0.0141087200 0.0351047200 0.0520060789
-0.0188495390 0.0164392136 0.0520301614
-0.0342387635 0.0181173285 0.0520935272
-0.0257254125 -0.0229547216 0.0520286025
-0.0340839566 0.0059305099 0.0520745537
-0.0261656445 -0.0147482774 0.0520414202
-0.0352664204 0.0056779922 0.0520743060
-0.0350335079 0.0196689907 0.0520960380
-0.0289924706 -0.0107489061 0.0520479873
-0.0327293034 -0.0280904052 0.0520523590
0.0364393085 -0.0205894068 0.0520588715
0.0363169070 -0.0201034623 0.0520530397
0.0066524559 -0.0299154083 0.0520326352
0.0083504602 -0.0309387579 0.0520511082
0.0088368822 -0.0322942116 0.0520679984
0.0168268546 -0.0303840974 0.0520814938
0.0221458354 -0.0266531906 0.0520636265
-0.0273987927 -0.0247217786 0.0520300586
-0.0268657510 -0.0242967948 0.0520288312
-0.0246581684 -0.0307809441 0.0520182333
-0.0370635233 -0.0037581665 0.0520714903
-0.0401206572 0.0151592694 0.0520928141
-0.0374921214 0.0033769922 0.0520774785
0.0042897997 0.0141434011 0.1067998980
0.0020159067 0.0105012609 0.1067999961
0.0100375468 -0.0221950941 0.1067998499
0.0056006543 -0.0104948294 0.1067999588
0.0226441835 -0.0045433177 0.1067993172
0.0218523079 -0.0057747952 0.1067993512
0.0129494637 -0.0173916225 0.1067997236
0.0038960246 -0.0002611409 0.1067999754
0.0140817059 -0.0204662770 0.1067996963
0.0038172031 0.0027868403 0.1067999649
0.0171762147 0.0060696292 0.1067994681
0.0143572818 0.0090251805 0.1067995569
0.0259372704 0.0008045994 0.1067991749
0.0104242767 0.0084710139 0.1067997014
0.0121025030 -0.0212938717 0.1067997713
0.0056007269 0.0124933071 0.1067998579
0.0238564275 -0.0068047188 0.1067992834
0.0045618739 0.0233209118 0.1067998479
0.0153084289 0.0027263875 0.1067995502
0.0170088441 -0.0071242078 0.1067995320
0.0185008629 -0.0048013232 0.1067994680
0.0076762859 -0.0168694000 0.1067999118
0.0162714837 -0.0098919123 0.1067995708
0.0059923250 0.0082830539 0.1067998622
0.0236966617 0.0045561627 0.1067992393
-0.0172941313 0.0084928122 0.1068022632
-0.0034326177 -0.0004864444 0.1068007807
-0.0085421750 -0.0139729440 0.1068015640
-0.0180153644 -0.0100668468 0.1068026087
-0.0157796650 0.0084949776 0.1068020874
-0.0134200126 -0.0059763737 0.1068020175
0.0021647826 -0.0008421350 0.1068001359
-0.0064937313 0.0148534570 0.1068009197
-0.0180153974 -0.0013786390 0.1068024861
-0.0201811194 -0.0016031167 0.1068027407
-0.0048392061 0.0016550587 0.1068009138
-0.0118126995 0.0115667701 0.1068015835
-0.0129443638 0.0075159544 0.1068017720
-0.0095247558 0.0114941435 0.1068013190
-0.0026520494 0.0173348190 0.1068004388
-0.0041139091 0.0127719904 0.1068006728
-0.0024090010 0.0134471451 0.1068004654
-0.0080959677 -0.0126168768 0.1068014931
0.0044599229 -0.0141821214 0.1068000576
0.0057712352 -0.0235054290 0.1068000368
0.0020585425 -0.0158547714 0.1068003600
0.0030945010 -0.0237637701 0.1068003512
0.0014168103 -0.0044471072 0.1068002736
0.0008893867 0.0086076204 0.1068001507
-0.0067119513 0.0022116675 0.1068011233
-0.0039225406 -0.0168223608 0.1068010679
-0.0009866507 -0.0162897410 0.1068007196
0.0032837926 -0.0241997299 0.1068003354
0.0049469938 -0.0204665736 0.1068000897
-0.0161159887 -0.0123793898 0.1068024208
-0.0178237642 -0.0003751558 0.1068024497
